110.4400024414062 400.239990234375 14.42000007629395
110.8600006103516 398.5 15.14000034332275
112.0100021362305 393.9100036621094 14.89999961853027
111.2699966430664 396.7900085449219 15.77999973297119
112.1999969482422 393.2000122070312 14.59000015258789
111.4000015258789 396.1300048828125 15.75
112.5899963378906 391.7300109863281 14
111.129997253418 397.4200134277344 15.55000019073486
110.6999969482422 399.1000061035156 14.88000011444092
110.2300033569336 401.3399963378906 13.90999984741211
110.5699996948242 399.7099914550781 14.64999961853027
111.6100006103516 395.3500061035156 15.40999984741211
110.9899978637695 397.9500122070312 15.28999996185303
109.6800003051758 403.7699890136719 11.72999954223633
111.8099975585938 394.6700134277344 15.10999965667725
110.1600036621094 401.8699951171875 11.72999954223633
112.4000015258789 392.4700012207031 14.3100004196167
108.8000030517578 405.2699890136719 11.56999969482422
108.9400024414062 404.6799926757812 11.71000003814697
109.25 403.4400024414062 11.76000022888184
109.1699981689453 403.75 12.5600004196167
109.620002746582 401.760009765625 12.61999988555908
110.129997253418 399.3200073242188 14.78999996185303
109.5800018310547 402.1900024414062 11.90999984741211
109.7600021362305 400.9400024414062 14.13000011444092
109.7399978637695 401.4599914550781 11.75
109.9100036621094 400.3699951171875 14.31999969482422
109.379997253418 402.8399963378906 11.90999984741211
110.379997253418 398.2200012207031 15.17000007629395
110.2600021362305 398.760009765625 15.02000045776367
109.9199981689453 400.8599853515625 11.78999996185303
112 392.0299987792969 14.21000003814697
110.8000030517578 396.4500122070312 15.84000015258789
111.1900024414062 395.0299987792969 15.28999996185303
110.0500030517578 399.8399963378906 14.55000019073486
111.7399978637695 392.8399963378906 14.55000019073486
110.9700012207031 395.7699890136719 15.65999984741211
111.3499984741211 394.3299865722656 15.10999965667725
110.6600036621094 397.0499877929688 15.63000011444092
109.0999984741211 404.0499877929688 11.73999977111816
110.5599975585938 397.6099853515625 15.39000034332275
111.5599975585938 393.5199890136719 14.77999973297119
108.3399963378906 404.8800048828125 11.72999954223633
108.6500015258789 403.6099853515625 11.76000022888184
108.5 404.2099914550781 11.69999980926514
109.0699996948242 401.75 11.80000019073486
108.7600021362305 403.010009765625 11.77999973297119
109.370002746582 400.0799865722656 14.39000034332275
109.2399978637695 400.6300048828125 14.18000030517578
109.3899993896484 400.4700012207031 11.85000038146973
109.9000015258789 397.7799987792969 15.27999973297119
108.1800003051758 405.2000122070312 12.64999961853027
109.5199966430664 399.510009765625 14.65999984741211
108.9499969482422 402.3399963378906 11.71000003814697
110.5400009155273 395.2200012207031 15.48999977111816
109.2799987792969 401.0799865722656 11.72000026702881
108.3099975585938 405.0899963378906 10.40999984741211
109.120002746582 401.1799926757812 13.86999988555908
111.3099975585938 392.3200073242188 14.34000015258789
110.7200012207031 394.5400085449219 15.21000003814697
109.620002746582 398.9500122070312 14.82999992370605
110.9100036621094 393.8200073242188 14.97999954223633
111.120002746582 393.1099853515625 14.61999988555908
110.3099975585938 396.010009765625 15.84000015258789
110.0299987792969 397.2000122070312 15.52999973297119
109.7600021362305 398.3599853515625 15.0600004196167
111.4899978637695 391.5799865722656 14
108.6900024414062 403.2900085449219 12.60999965667725
110.1699981689453 396.6099853515625 15.72999954223633
107.5599975585938 404.7999877929688 12.88000011444092
107.6999969482422 404.4200134277344 11.75
108.1600036621094 402.5700073242188 11.76000022888184
107.8499984741211 403.8099975585938 11.72999954223633
108.6800003051758 400.1099853515625 14.30000019073486
108.4700012207031 401.2900085449219 11.73999977111816
107.620002746582 404.9800109863281 11.27999973297119
108.5199966430664 400.6900024414062 14.03999996185303
108.9000015258789 399.0400085449219 14.75
108.0100021362305 403.1700134277344 11.75
109.3099975585938 398.0599975585938 11.88000011444092
108.9899978637695 399.2900085449219 11.92000007629395
108.7699966430664 399.6000061035156 14.55000019073486
108.6800003051758 400.6000061035156 11.77000045776367
110.75 392.260009765625 11.77000045776367
110.2300033569336 394.1900024414062 11.82999992370605
110.7799987792969 391.9599914550781 12.72999954223633
109.75 396.1099853515625 11.82999992370605
110.0699996948242 394.8399963378906 11.84000015258789
108.3300018310547 401.8900146484375 11.76000022888184
109.9300003051758 395.5 11.84000015258789
110.4100036621094 393.6300048828125 11.81999969482422
109.620002746582 396.8200073242188 11.84000015258789
109.4199981689453 397.4500122070312 11.86999988555908
110.5500030517578 392.9100036621094 11.8100004196167
110.0999984741211 394.1400146484375 15.40999984741211
108.7900009155273 399.9800109863281 11.89000034332275
109.1399993896484 398.6700134277344 11.85000038146973
107.5100021362305 402.75 11.75
107.6500015258789 402.1000061035156 11.72000026702881
107.0400009155273 404.6400146484375 11.71000003814697
107.3199996948242 403.3399963378906 11.71000003814697
107.1900024414062 403.9599914550781 11.75
108.5699996948242 398.2799987792969 11.80000019073486
106.8899993896484 404.9299926757812 12.64000034332275
107.9800033569336 400.8399963378906 11.77999973297119
107.8000030517578 401.5 11.71000003814697
108.0899963378906 400.2300109863281 11.77999973297119
110.1500015258789 391.8900146484375 11.81999969482422
108.879997253418 396.989990234375 11.8100004196167
108.7600021362305 397.6600036621094 11.76000022888184
109.6999969482422 393.739990234375 11.77999973297119
109.0400009155273 396.3699951171875 11.82999992370605
110.0299987792969 392.4599914550781 11.75
108.4400024414062 398.9700012207031 11.77999973297119
108.2799987792969 399.5499877929688 11.78999996185303
109.8899993896484 393.1099853515625 11.81999969482422
109.379997253418 395.010009765625 11.82999992370605
109.2399978637695 395.6600036621094 11.84000015258789
109.5500030517578 394.3399963378906 11.78999996185303
108.7799987792969 395.2699890136719 11.8100004196167
109.2300033569336 393.3699951171875 11.77999973297119
109.4000015258789 392.6700134277344 11.78999996185303
109.5599975585938 392.0299987792969 11.80000019073486
108.5899963378906 395.9100036621094 11.8100004196167
109.5999984741211 391.7000122070312 12.72000026702881
109.0999984741211 393.9700012207031 11.76000022888184
108.9199981689453 394.5799865722656 11.82999992370605
106.4199981689453 404.5599975585938 12.73999977111816
106.5699996948242 404.2099914550781 11.69999980926514
106.8600006103516 402.9700012207031 11.72999954223633
107.1999969482422 401.6499938964844 11.73999977111816
107.370002746582 401.0499877929688 11.75
108.129997253418 397.7900085449219 11.8100004196167
107.8499984741211 399.0700073242188 11.82999992370605
106.4700012207031 404.6400146484375 11.09000015258789
108.0100021362305 398.4400024414062 11.80000019073486
107.5 400.3599853515625 11.77000045776367
108.4599990844727 396.6000061035156 11.84000015258789
106.6900024414062 403.6199951171875 11.72999954223633
107.6800003051758 399.7000122070312 11.80000019073486
107.0100021362305 402.3299865722656 11.73999977111816
108.2900009155273 397.1700134277344 11.80000019073486
105.7799987792969 404.7099914550781 12.68000030517578
106.5299987792969 401.8299865722656 11.76000022888184
105.9100036621094 404.3500061035156 11.71000003814697
106.8499984741211 400.5700073242188 11.76000022888184
106.1100006103516 403.6900024414062 11.73999977111816
106.2200012207031 403.0899963378906 11.72000026702881
107.0299987792969 399.9200134277344 11.81999969482422
108.1100006103516 395.4400024414062 11.80000019073486
106.379997253418 402.4599914550781 11.76000022888184
108.2900009155273 394.7300109863281 11.81999969482422
106.6900024414062 401.2000122070312 11.77000045776367
107.3499984741211 398.6700134277344 11.78999996185303
108.4700012207031 394.0700073242188 11.84000015258789
108.75 392.8500061035156 11.77999973297119
107.9800033569336 396.0700073242188 11.80000019073486
107.6699981689453 397.3800048828125 11.81999969482422
108.9100036621094 392.2099914550781 11.80000019073486
109.0599975585938 391.6000061035156 11.8100004196167
107.7900009155273 396.7200012207031 11.78999996185303
108.6100006103516 393.4299926757812 11.81999969482422
107.4899978637695 398.0499877929688 11.78999996185303
107.1600036621094 399.2900085449219 11.8100004196167
105.3099975585938 403.9400024414062 11.71000003814697
105.1900024414062 404.25 12.73999977111816
105.2399978637695 404.4599914550781 11.35000038146973
106.1399993896484 400.75 11.80000019073486
105.8099975585938 401.989990234375 11.77000045776367
106.75 398.1099853515625 11.82999992370605
106.4300003051758 399.4100036621094 11.84000015258789
105.4700012207031 403.2999877929688 11.73999977111816
107.5599975585938 394.989990234375 11.78999996185303
106.620002746582 398.7900085449219 11.82999992370605
107.7300033569336 394.3200073242188 11.80000019073486
107.2099990844727 396.2799987792969 11.80000019073486
105.9499969482422 401.3500061035156 11.76000022888184
108.0500030517578 392.6900024414062 12.72000026702881
108.0400009155273 393.0499877929688 11.75
106.9199981689453 397.5 11.84000015258789
107.879997253418 393.7200012207031 11.81999969482422
106.2699966430664 400.0599975585938 11.80000019073486
105.6500015258789 402.6700134277344 11.71000003814697
108.2099990844727 392.0400085449219 12.8100004196167
107.370002746582 395.6000061035156 11.82999992370605
107.0599975585938 396.8699951171875 11.78999996185303
107.870002746582 393.3999938964844 12.76000022888184
104.9700012207031 402.8699951171875 11.71000003814697
104.8600006103516 403.4800109863281 11.75
105.120002746582 402.25 11.73999977111816
104.6900024414062 404.1499938964844 11.64000034332275
105.3099975585938 401.6499938964844 11.76000022888184
105.9400024414062 399.1000061035156 11.82999992370605
105.4499969482422 400.9800109863281 11.78999996185303
106.4000015258789 397.1400146484375 11.77999973297119
106.0999984741211 398.4500122070312 11.81999969482422
106.7200012207031 395.8500061035156 11.8100004196167
105.7699966430664 399.75 11.77999973297119
106.8600006103516 395.1799926757812 11.81999969482422
106.5899963378906 396.1799926757812 12.84000015258789
105.5800018310547 400.3599853515625 11.77000045776367
105.8000030517578 397.0400085449219 12.75
106.7399978637695 395.510009765625 12.78999996185303
106.5299987792969 396.5299987792969 11.81999969482422
106.2200012207031 397.7999877929688 11.80000019073486
106.9300003051758 394.8399963378906 12.73999977111816
104.4899978637695 402.6000061035156 12.03999996185303
104.2300033569336 403.739990234375 11.76000022888184
104.7900009155273 401.25 12.13000011444092
104.620002746582 401.9400024414062 12.09000015258789
105.3000030517578 399.2200012207031 11.85999965667725
105.5 398.25 12.8100004196167
104.3399963378906 403.1300048828125 11.72000026702881
105.1500015258789 399.9800109863281 12.02000045776367
105.4599990844727 398.5700073242188 11.8100004196167
105.7799987792969 397.2900085449219 11.72000026702881
105.3399963378906 398.8999938964844 12.82999992370605
105.620002746582 397.9500122070312 11.81999969482422
105.6800003051758 397.6600036621094 12.76000022888184
104.9700012207031 400.6700134277344 12.10999965667725
103.5899963378906 403.8200073242188 11.67000007629395
103.7799987792969 402.8699951171875 12.67000007629395
103.620002746582 403.5199890136719 12.6899995803833
104.3600006103516 400.3699951171875 12.85000038146973
124.3099975585938 403.7000122070312 12.61999988555908
124.6900024414062 402.260009765625 12.21000003814697
124.5299987792969 402.9500122070312 12.40999984741211
124.120002746582 402.5700073242188 12.3100004196167
123.7200012207031 403.9500122070312 12.53999996185303
123.5999984741211 404.5 12.34000015258789
123.9100036621094 403.2999877929688 12.60999965667725
124.2900009155273 401.8200073242188 12.10999965667725
123.4499969482422 405.3200073242188 10.89999961853027
123.4499969482422 405.1400146484375 12.11999988555908
123.2200012207031 403.5899963378906 12.57999992370605
123.120002746582 404.1900024414062 12.38000011444092
122.9700012207031 404.7000122070312 12.21000003814697
123.4000015258789 402.8999938964844 12.42000007629395
122.9800033569336 404.9400024414062 11.06999969482422
123.6100006103516 402.1700134277344 12.1899995803833
122.3199996948242 404.6499938964844 11.27999973297119
122.2200012207031 404.9500122070312 12.10000038146973
122.8300018310547 402.4200134277344 12.36999988555908
122.620002746582 403.2099914550781 12.64000034332275
122.5299987792969 403.7699890136719 12.47999954223633
122.3600006103516 404.3399963378906 12.27999973297119
123.0199966430664 401.6900024414062 12.10999965667725
121.8399963378906 404.0499877929688 12.28999996185303
121.9599990844727 403.5199890136719 12.48999977111816
122.129997253418 402.8399963378906 12.52999973297119
121.1699981689453 406.4299926757812 13.85000038146973
122.3099975585938 402.1499938964844 12.26000022888184
121.4400024414062 405.2200012207031 13.89000034332275
121.7600021362305 404.6199951171875 10.47999954223633
121.6600036621094 404.6400146484375 12.1899995803833
121.4899978637695 405.5199890136719 11.10000038146973
121.629997253418 404.5700073242188 13.89000034332275
123.2399978637695 397.6900024414062 16.3799991607666
123.3300018310547 397.1300048828125 16.45999908447266
121.3099975585938 405.7699890136719 13.86999988555908
121.75 403.9800109863281 13.89999961853027
122.4700012207031 401.3900146484375 12.10999965667725
120.9899978637695 407.0700073242188 13.89000034332275
121.8000030517578 401.3599853515625 15.19999980926514
121.7099990844727 401.9299926757812 15.02000045776367
122.370002746582 399.8299865722656 10.64999961853027
122.3499984741211 399.0499877929688 15.72000026702881
122.7600021362305 397.3399963378906 16.44000053405762
123.3499984741211 395.2699890136719 14.15999984741211
120.8199996948242 407.75 13.89999961853027
122.0800018310547 400.3099975585938 15.64999961853027
123.5400009155273 394.5499877929688 13.94999980926514
122.5500030517578 398.2999877929688 15.40999984741211
123.1500015258789 396.1000061035156 14.59000015258789
122.2099990844727 399.739990234375 15.78999996185303
122.6500015258789 397.8099975585938 15.85000038146973
121.9300003051758 400.7799987792969 15.39999961853027
120.3600006103516 407.4599914550781 14.14000034332275
120.8300018310547 405.5499877929688 14.10000038146973
120.6699981689453 406.1900024414062 14.17000007629395
120.9899978637695 404.9100036621094 14.13000011444092
121.1399993896484 404.2300109863281 14.14999961853027
121.6699981689453 402.3800048828125 12.4399995803833
119.6900024414062 407.7200012207031 14.26000022888184
121.4100036621094 403.0700073242188 14.52000045776367
119.9599990844727 407.0199890136719 12.1899995803833
120.1600036621094 405.7999877929688 14.39000034332275
120.5400009155273 406.8099975585938 14.11999988555908
119.870002746582 407.4800109863281 11.67000007629395
119.8499984741211 407.0700073242188 14.38000011444092
121.0500030517578 402.1600036621094 14.8100004196167
120.6399993896484 403.9700012207031 14.43000030517578
120.5 404.5799865722656 14.39000034332275
121.5100021362305 403.1300048828125 12.63000011444092
121.2900009155273 403.6700134277344 14.25
121.1699981689453 401.6199951171875 15.02999973297119
120.0400009155273 406.4500122070312 14.39000034332275
122.5500030517578 396.2900085449219 14.63000011444092
121.5599975585938 402.489990234375 14.75
121.9499969482422 398.5400085449219 15.52999973297119
120.3099975585938 405.1900024414062 14.36999988555908
120.9100036621094 402.75 14.63000011444092
122.3199996948242 397 14.92000007629395
122.1399993896484 397.7799987792969 15.22000026702881
122.7300033569336 395.5700073242188 14.39000034332275
121.5999984741211 399.8599853515625 15.65999984741211
121.3000030517578 401.0599975585938 15.22999954223633
121.7300033569336 399.3599853515625 15.90999984741211
121.4300003051758 400.5 15.48999977111816
122.9300003051758 394.7900085449219 14.02000045776367
120.7900009155273 403.2699890136719 14.39999961853027
119.3199996948242 407.0499877929688 11.65999984741211
119.4000015258789 406.1300048828125 14.63000011444092
119.4100036621094 406.6400146484375 12.1899995803833
120.0100021362305 403.6199951171875 14.65999984741211
120.2200012207031 402.9599914550781 14.67000007629395
119.0899963378906 407.3999938964844 14.52000045776367
119.7300033569336 404.8699951171875 14.60000038146973
119.9000015258789 404.2300109863281 14.61999988555908
119.2300033569336 406.7999877929688 14.63000011444092
121.379997253418 398.1400146484375 15.4399995803833
121.7799987792969 396.6300048828125 14.77000045776367
120.8899993896484 400.0799865722656 15.56999969482422
120.6399993896484 401.1600036621094 15.11999988555908
121.9599990844727 395.9299926757812 14.60000038146973
120.9899978637695 399.5 15.72000026702881
119.5299987792969 405.5799865722656 14.68000030517578
121.1699981689453 398.8399963378906 15.77999973297119
120.3499984741211 402.2699890136719 14.71000003814697
121.5400009155273 397.3699951171875 15.14999961853027
122.1600036621094 395.1799926757812 14.32999992370605
122.370002746582 394.3699951171875 13.9399995803833
120.7300033569336 400.6199951171875 15.34000015258789
120.4899978637695 401.6799926757812 14.90999984741211
118.5699996948242 407.1700134277344 14.78999996185303
119.4700012207031 403.3599853515625 14.90999984741211
119.3399963378906 404.0400085449219 14.88000011444092
119.0500030517578 405.25 14.77999973297119
118.8600006103516 405.8699951171875 14.84000015258789
119.1500015258789 404.6799926757812 14.85000038146973
119.629997253418 402.739990234375 14.93000030517578
120.8899993896484 397.7300109863281 15.34000015258789
120.4899978637695 399.1799926757812 15.82999992370605
118.7099990844727 406.4599914550781 14.82999992370605
120.3499984741211 399.7900085449219 15.61999988555908
121.0599975585938 396.9500122070312 15.02000045776367
119.8199996948242 402.1199951171875 14.85999965667725
118.620002746582 407.3900146484375 11.64999961853027
118.7900009155273 406.7799987792969 11.77999973297119
121.2799987792969 396.260009765625 14.84000015258789
121.4599990844727 395.5 14.5
120.0599975585938 400.9400024414062 15.14999961853027
121.8199996948242 394.1199951171875 13.96000003814697
119.9700012207031 401.489990234375 14.93000030517578
120.0400009155273 398.8800048828125 15.84000015258789
121.629997253418 394.7799987792969 14.18000030517578
120.2200012207031 398.1900024414062 15.60000038146973
119.9000015258789 399.5 15.67000007629395
120.4000015258789 397.3800048828125 15.30000019073486
119.6500015258789 400.5799865722656 15.22000026702881
120.8099975585938 395.9599914550781 14.68000030517578
121.0100021362305 395.1499938964844 14.40999984741211
119.7600021362305 400.0199890136719 15.43000030517578
120.5899963378906 396.6600036621094 14.97000026702881
120.1900024414062 400.3599853515625 15.36999988555908
120.6399993896484 398.5199890136719 15.65999984741211
121.1900024414062 394.3999938964844 14.06999969482422
118.3099975585938 406.6799926757812 10.56999969482422
118.0599975585938 406.8800048828125 15
118.3600006103516 405.6700134277344 15.06999969482422
118.6900024414062 404.3299865722656 15.05000019073486
118.5199966430664 405.010009765625 15.02999973297119
119 403.0799865722656 15.10000038146973
118.1999969482422 406.2999877929688 15.06999969482422
119.4800033569336 401.1199951171875 15.09000015258789
119.1600036621094 402.4299926757812 15.10999965667725
119.3199996948242 401.760009765625 15.03999996185303
118.8399963378906 403.7300109863281 15.10999965667725
118.3099975585938 406.5599975585938 11.94999980926514
117.3600006103516 407.1499938964844 15.15999984741211
117.6699981689453 406.4500122070312 13
117.4899978637695 406.5899963378906 15.3100004196167
117.8099975585938 405.3200073242188 15.27000045776367
117.9700012207031 404.6900024414062 15.31999969482422
118.1100006103516 404.1099853515625 15.31999969482422
117.6800003051758 406.5299987792969 11.31999969482422
119.5199966430664 398.4800109863281 15.84000015258789
117.6800003051758 405.9400024414062 15.32999992370605
119.7300033569336 397.7000122070312 15.47999954223633
118.3000030517578 403.4200134277344 15.38000011444092
119.9300003051758 396.8800048828125 15.11999988555908
120.4899978637695 394.739990234375 14.26000022888184
118.7300033569336 401.5700073242188 15.34000015258789
120.6999969482422 393.9800109863281 13.92000007629395
119.3300018310547 399.1099853515625 15.75
119.0599975585938 400.25 15.35000038146973
120.3099975585938 395.4400024414062 14.60999965667725
119.2099990844727 399.6300048828125 15.48999977111816
118.5899963378906 402.1499938964844 15.30000019073486
118.4499969482422 402.8599853515625 15.35999965667725
118.9100036621094 400.8900146484375 15.30000019073486
120.120002746582 396.2200012207031 14.88000011444092
117.3300018310547 404.3500061035156 15.60000038146973
118.0100021362305 401.7799987792969 15.60999965667725
117.6600036621094 403.0700073242188 15.5600004196167
117.4700012207031 403.7799987792969 15.56999969482422
118.879997253418 398.0599975585938 15.69999980926514
118.5899963378906 399.2799987792969 15.64000034332275
117.8300018310547 402.4500122070312 15.57999992370605
119.3199996948242 396.5499877929688 15.06999969482422
119.6800003051758 395.0499877929688 14.53999996185303
119.8899993896484 394.2900085449219 14.15999984741211
118.7399978637695 398.7099914550781 15.89000034332275
119.0800018310547 397.3099975585938 15.38000011444092
118.3000030517578 400.5400085449219 15.60999965667725
120.0899963378906 393.5899963378906 14.01000022888184
118.4599990844727 399.9599914550781 15.60000038146973
119.4800033569336 395.8200073242188 14.81999969482422
118.120002746582 401.1600036621094 15.56999969482422
119.1999969482422 394.7099914550781 14.40999984741211
118.9700012207031 395.4700012207031 14.77000045776367
119.379997253418 394.0199890136719 14.14000034332275
117.4499969482422 401.489990234375 15.5
117.75 400.260009765625 15.53999996185303
118.6100006103516 396.8599853515625 15.28999996185303
117.9599990844727 399.5899963378906 15.53999996185303
118.0599975585938 398.9700012207031 15.67000007629395
118.8099975585938 396.1499938964844 14.97999954223633
118.2399978637695 398.3999938964844 15.77999973297119
118.4000015258789 397.6499938964844 15.5
117.3000030517578 402.1600036621094 15.59000015258789
117.620002746582 400.9400024414062 15.55000019073486
117.629997253418 398.6799926757812 15.84000015258789
118.1699981689453 396.5499877929688 15.25
118.7699966430664 394.2699890136719 14.28999996185303
118.370002746582 395.8500061035156 14.9399995803833
118.5599975585938 395.0599975585938 14.65999984741211
117.3399963378906 399.7799987792969 15.35000038146973
117.4599990844727 399.2699890136719 15.53999996185303
117.9499969482422 397.2799987792969 15.60999965667725
117.7900009155273 398.0700073242188 15.80000019073486
118.9499969482422 393.5499877929688 13.94999980926514
117.4800033569336 396.7799987792969 15.32999992370605
118.0800018310547 394.6000061035156 14.52000045776367
118.4899978637695 393.1199951171875 13.92000007629395
117.3199996948242 397.5400085449219 15.67000007629395
118.2399978637695 393.8999938964844 14.30000019073486
117.6699981689453 396.0499877929688 15.09000015258789
117.8600006103516 395.3299865722656 14.75
117.2699966430664 394.9100036621094 14.72999954223633
117.6699981689453 393.3900146484375 14.11999988555908
117.4599990844727 394.1700134277344 14.47999954223633
105.4100036621094 398.1700134277344 12.78999996185303
105.3099975585938 398.6799926757812 12.76000022888184
105.25 398.6400146484375 11.88000011444092
105 399.7699890136719 12.46000003814697
104.8300018310547 400.3500061035156 11.85999965667725
104.4400024414062 402 12.15999984741211
104.8499984741211 400.3999938964844 12.63000011444092
105.1500015258789 399.2000122070312 11.84000015258789
104.3199996948242 402.5700073242188 11.9399995803833
105.1800003051758 399.260009765625 12.8100004196167
104.1500015258789 403.1199951171875 11.77000045776367
104.7300033569336 400.9400024414062 12.71000003814697
104.5699996948242 401.4500122070312 11.85999965667725
104.6999969482422 400.8800048828125 11.85999965667725
103.9899978637695 403.75 11.69999980926514
105.5500030517578 397.6000061035156 12.76000022888184
107.0199966430664 394.5400085449219 12.75
106.7300033569336 395.5400085449219 11.85000038146973
106.8499984741211 395.1000061035156 12.77000045776367
106.5599975585938 396.1499938964844 11.81999969482422
106.3000030517578 397.2799987792969 11.8100004196167
106.0100021362305 398.3800048828125 11.81999969482422
106.129997253418 397.8599853515625 11.82999992370605
105.8600006103516 398.9700012207031 11.81999969482422
105.5800018310547 400.1000061035156 11.80000019073486
105.4300003051758 400.7200012207031 11.86999988555908
104.7399978637695 403.5199890136719 11.72999954223633
106.7600021362305 395.6199951171875 12.77999973297119
105.2900009155273 401.2999877929688 11.78999996185303
105.1699981689453 401.8699951171875 11.77999973297119
105.0100021362305 402.4400024414062 11.75
104.5899963378906 404.1000061035156 11.59000015258789
106.4400024414062 396.6799926757812 11.84000015258789
104.9100036621094 402.989990234375 11.72000026702881
105.7399978637695 399.5499877929688 11.80000019073486
106.5699996948242 396.239990234375 12.84000015258789
108.2399978637695 392.5400085449219 11.78999996185303
107.8499984741211 394.25 11.78999996185303
108.2900009155273 392.6000061035156 12.78999996185303
107.5500030517578 395.4400024414062 11.80000019073486
107.4199981689453 395.9700012207031 11.85000038146973
106.9499969482422 397.7900085449219 11.78999996185303
107.129997253418 397.1499938964844 11.80000019073486
106.6800003051758 398.8800048828125 11.81999969482422
108.5699996948242 391.5 12.76000022888184
106.3099975585938 400.5700073242188 11.8100004196167
108.3899993896484 392.1000061035156 12.77999973297119
108.0899963378906 393.1600036621094 11.80000019073486
106.1699981689453 401.1199951171875 11.77999973297119
107.7099990844727 394.8500061035156 11.8100004196167
106.5800018310547 399.3900146484375 11.81999969482422
105.6100006103516 403.3900146484375 11.72000026702881
106.4100036621094 399.9800109863281 11.77000045776367
107.9599990844727 393.6900024414062 11.80000019073486
105.4599990844727 403.9500122070312 11.71000003814697
105.3199996948242 404.5199890136719 11.42000007629395
105.9899978637695 401.6900024414062 11.76000022888184
106.8499984741211 398.2900085449219 11.84000015258789
106.4000015258789 403.2000122070312 11.72999954223633
106.1100006103516 404.260009765625 11.72000026702881
107.2399978637695 396.6000061035156 11.81999969482422
106.120002746582 404.3399963378906 12.72000026702881
105.7600021362305 402.7999877929688 11.76000022888184
106.2399978637695 403.7200012207031 11.75
105.8600006103516 402.239990234375 11.72999954223633
109.1999969482422 391.7699890136719 11.81999969482422
108.7699966430664 393.5899963378906 11.84000015258789
108.6399993896484 394.1300048828125 11.81999969482422
108.0800018310547 396.3399963378906 11.78999996185303
108.370002746582 395.2200012207031 11.85000038146973
107.8099975585938 397.5 11.84000015258789
108.1900024414062 395.7799987792969 11.8100004196167
108.9100036621094 392.9500122070312 11.81999969482422
107.2099990844727 399.7699890136719 11.80000019073486
107.0699996948242 400.3500061035156 11.77999973297119
109.3600006103516 391.3299865722656 12.71000003814697
108.4899978637695 394.6600036621094 11.8100004196167
106.629997253418 402.1099853515625 11.77000045776367
107.6699981689453 398.0799865722656 11.85000038146973
106.9499969482422 400.8900146484375 11.78999996185303
109.9300003051758 391.6799926757812 12.77000045776367
109.7900009155273 392.1400146484375 11.8100004196167
106.7799987792969 401.5199890136719 11.76000022888184
109.629997253418 392.7099914550781 11.8100004196167
109.0299987792969 392.3800048828125 11.80000019073486
108.9300003051758 395.5700073242188 11.8100004196167
107.5100021362305 398.5599975585938 11.81999969482422
106.5400009155273 402.6600036621094 11.72999954223633
108.7900009155273 396.1499938964844 11.81999969482422
109.370002746582 393.8500061035156 11.84000015258789
109.4800033569336 393.3200073242188 11.8100004196167
108.6500015258789 396.7099914550781 11.84000015258789
109.9400024414062 391.6099853515625 11.86999988555908
108.3600006103516 397.8999938964844 11.8100004196167
107.8199996948242 400.0799865722656 11.8100004196167
108.5299987792969 397.3500061035156 11.80000019073486
108.0800018310547 399.0299987792969 11.82999992370605
106.9700012207031 403.5499877929688 11.75
107.9800033569336 399.5899963378906 11.81999969482422
107.6999969482422 400.7300109863281 11.78999996185303
106.8199996948242 404.1499938964844 11.72999954223633
107.2600021362305 402.3599853515625 11.76000022888184
107.3899993896484 401.8399963378906 11.75
107.1500015258789 402.9599914550781 11.72999954223633
107.3499984741211 399.2000122070312 11.81999969482422
108.2399978637695 398.4599914550781 11.84000015258789
107.9400024414062 396.8900146484375 11.78999996185303
109.2099990844727 394.4100036621094 11.82999992370605
106.75 404.7300109863281 12.60999965667725
107.5599975585938 401.239990234375 11.73999977111816
109.0699996948242 394.989990234375 11.82999992370605
110.5299987792969 391.9500122070312 11.77999973297119
109.6999969482422 395.3399963378906 11.84000015258789
110.1999969482422 393.9299926757812 15.39000034332275
109.9899978637695 394.260009765625 11.78999996185303
109.8300018310547 394.7999877929688 11.8100004196167
109.3099975585938 397.0199890136719 11.80000019073486
110.4300003051758 392.5199890136719 11.77999973297119
108.6399993896484 400.0700073242188 14.21000003814697
109 398.1799926757812 11.81999969482422
108.8899993896484 398.7300109863281 11.82999992370605
109.1699981689453 397.6600036621094 11.85000038146973
109.4199981689453 396.5 11.84000015258789
108.1800003051758 401.6199951171875 11.72000026702881
108.5800018310547 399.9100036621094 11.88000011444092
110.2699966430664 393.1000061035156 11.81999969482422
108.7600021362305 399.3299865722656 11.82999992370605
107.6100006103516 403.8500061035156 11.73999977111816
107.3899993896484 405.0700073242188 12.65999984741211
108.0400009155273 402.260009765625 11.77999973297119
108.4499969482422 400.4400024414062 11.76000022888184
110.5599975585938 392.0299987792969 12.8100004196167
107.4899978637695 404.4100036621094 11.75
107.879997253418 402.7699890136719 11.75
109.5699996948242 395.8699951171875 11.85000038146973
107.7600021362305 403.3299865722656 11.73999977111816
108.2900009155273 401.0700073242188 11.75
110.0999984741211 393.7099914550781 11.81999969482422
111.3600006103516 392.489990234375 14.48999977111816
111.0899963378906 393.6600036621094 14.92000007629395
111.4599990844727 391.8599853515625 14.22999954223633
109.9499969482422 398.260009765625 15.07999992370605
111.620002746582 391.3099975585938 13.9399995803833
110.9599990844727 394.239990234375 15.21000003814697
111.1800003051758 393.0599975585938 14.71000003814697
110.5199966430664 395.9599914550781 15.84000015258789
109.1600036621094 400.8099975585938 11.78999996185303
109.2399978637695 400.9599914550781 13.9399995803833
110.379997253418 396.510009765625 15.75
109.6800003051758 399.3299865722656 14.64000034332275
110.8300018310547 394.7799987792969 15.36999988555908
108.629997253418 403.1000061035156 12.57999992370605
109.5400009155273 399.8699951171875 14.47999954223633
108.879997253418 401.9500122070312 11.75
110.2300033569336 397.0899963378906 15.48999977111816
109.0299987792969 401.3500061035156 11.77000045776367
108.5 403.6600036621094 11.72000026702881
108.7699966430664 402.510009765625 11.9399995803833
110.0699996948242 397.6799926757812 15.28999996185303
108.6399993896484 403.0799865722656 11.73999977111816
108.2099990844727 404.8099975585938 11.75
109.3600006103516 400.3999938964844 14.22999954223633
108.3199996948242 404.2200012207031 11.76000022888184
110.6800003051758 395.3500061035156 15.60999965667725
109.8099975585938 398.7900085449219 14.86999988555908
112.25 391.5599975585938 13.90999984741211
111.5500030517578 394.5199890136719 15.17000007629395
111.9499969482422 392.739990234375 14.46000003814697
111.0100021362305 396.7799987792969 15.67000007629395
111.4100036621094 395.0899963378906 15.36999988555908
112.120002746582 392.1099853515625 14.22000026702881
111.7099990844727 393.9700012207031 14.97000026702881
111.8600006103516 393.3399963378906 14.75
110.0299987792969 400.6600036621094 14.1899995803833
110.1699981689453 400.0799865722656 14.39999961853027
109.8300018310547 401.0899963378906 11.77999973297119
111.1600036621094 396.2000122070312 15.81999969482422
109.5400009155273 402.25 11.76000022888184
109.129997253418 403.9299926757812 11.76000022888184
110.75 397.8599853515625 15.27000045776367
109.8600006103516 401.1900024414062 13.94999980926514
108.8499984741211 405.0700073242188 11.76000022888184
110.9000015258789 397.2900085449219 15.51000022888184
110.5899963378906 398.4299926757812 15.11999988555908
110.4400024414062 398.9599914550781 14.82999992370605
109.4000015258789 402.8399963378906 12.15999984741211
109.6999969482422 401.7300109863281 12.47000026702881
111.3000030517578 395.6000061035156 15.65999984741211
109.2300033569336 403.3699951171875 11.92000007629395
108.879997253418 405.1199951171875 12.72000026702881
110.2900009155273 399.5499877929688 14.65999984741211
108.9700012207031 404.4299926757812 11.73999977111816
112.8300018310547 391.8099975585938 14
112.4100036621094 393.6400146484375 14.78999996185303
112.0199966430664 395.3599853515625 15.47000026702881
112.5599975585938 392.989990234375 14.51000022888184
111.870002746582 395.9800109863281 15.68000030517578
112.7099990844727 392.4400024414062 14.35000038146973
111.5899963378906 397.1199951171875 15.68000030517578
111.2900009155273 398.260009765625 15.21000003814697
111.4800033569336 397.6400146484375 15.43000030517578
110.8899993896484 399.8399963378906 14.60999965667725
110.7600021362305 400.3599853515625 14.39000034332275
111.0400009155273 399.3200073242188 14.78999996185303
110.4800033569336 401.5299987792969 13.97000026702881
110.4100036621094 401.3500061035156 11.77999973297119
109.5699996948242 404.760009765625 11.76000022888184
109.4300003051758 405.4299926757812 12.72000026702881
110.5999984741211 400.9400024414062 14.15999984741211
110.129997253418 402.489990234375 11.72000026702881
109.8199996948242 403.6600036621094 11.73999977111816
111.1600036621094 398.7799987792969 15.01000022888184
112.1900024414062 394.7699890136719 15.19999980926514
111.7600021362305 396.489990234375 15.77999973297119
110.2699966430664 401.9299926757812 11.73999977111816
112.3000030517578 394.1499938964844 15.07999992370605
109.7200012207031 404.2300109863281 11.72000026702881
113.3300018310547 392.8500061035156 14.40999984741211
112.8199996948242 395.1499938964844 15.25
112.6600036621094 395.760009765625 15.48999977111816
112.25 397.4400024414062 15.63000011444092
111.9599990844727 398.5400085449219 15.1899995803833
110.0100021362305 403.0499877929688 11.78999996185303
112.1100006103516 398 15.36999988555908
111.5299987792969 400.2200012207031 14.52000045776367
111.3899993896484 400.739990234375 14.32999992370605
113.4700012207031 392.25 14.21000003814697
112.9599990844727 394.6300048828125 15.09000015258789
112.5599975585938 396.2900085449219 15.73999977111816
110.629997253418 403.4599914550781 11.72000026702881
111.2300033569336 401.3299865722656 14.03999996185303
111.0199966430664 401.7799987792969 11.77000045776367
110.7799987792969 402.9100036621094 11.72999954223633
113.6100006103516 391.6400146484375 14.02000045776367
111.8199996948242 399.1000061035156 14.96000003814697
113.2200012207031 393.4400024414062 14.63000011444092
110.3399963378906 404.5599975585938 11.73999977111816
113.0899963378906 394.0499877929688 14.85000038146973
110.1900024414062 405.1499938964844 11.72999954223633
110.5 404 11.72000026702881
112.4000015258789 396.8800048828125 15.84000015258789
110.870002746582 402.3900146484375 11.75
110.120002746582 405.7799987792969 12.68000030517578
111.7099990844727 399.6600036621094 14.76000022888184
112.9800033569336 397.8200073242188 15.51000022888184
112.120002746582 401.1099853515625 14.31999969482422
111.9800033569336 401.6199951171875 13.97999954223633
111.7900009155273 402.0899963378906 11.75
111.5199966430664 403.2000122070312 11.73999977111816
111.9199981689453 401.5400085449219 12.21000003814697
112.7200012207031 398.9599914550781 15.05000019073486
111.3499984741211 403.7900085449219 11.76000022888184
112.4300003051758 399.9800109863281 14.71000003814697
110.9599990844727 405.5499877929688 11.82999992370605
111.6399993896484 402.6099853515625 11.77999973297119
112.3000030517578 400.5499877929688 14.52999973297119
112.8300018310547 398.3800048828125 15.31999969482422
111.0699996948242 404.9200134277344 11.76000022888184
111.2300033569336 404.3699951171875 11.72999954223633
112.5500030517578 399.4500122070312 14.85999965667725
114.3399963378906 392.010009765625 13.92000007629395
113.7200012207031 394.8900146484375 15.09000015258789
113.9700012207031 393.739990234375 14.68000030517578
113.2900009155273 396.6700134277344 15.77999973297119
113.5800018310547 395.5199890136719 15.39000034332275
113.4400024414062 396.1000061035156 15.5600004196167
113.129997253418 397.2300109863281 15.78999996185303
114.2099990844727 392.6099853515625 14.28999996185303
114.0999984741211 393.1499938964844 14.44999980926514
113.8000030517578 394.3500061035156 14.89999961853027
114.879997253418 392.8099975585938 14.25
114.7399978637695 393.4400024414062 14.47999954223633
115.0199966430664 392.2300109863281 13.94999980926514
113.6399993896484 398.010009765625 15.53999996185303
113.9400024414062 396.9200134277344 15.85999965667725
113.2399978637695 399.6799926757812 14.90999984741211
114.4499969482422 394.6099853515625 14.94999980926514
113.0500030517578 400.260009765625 14.68000030517578
114.0999984741211 396.3099975585938 15.63000011444092
113.370002746582 399.1000061035156 15.06999969482422
113.5 398.5199890136719 15.32999992370605
114.5699996948242 394.0700073242188 14.72999954223633
114.2200012207031 395.75 15.36999988555908
111.870002746582 404.5700073242188 11.73999977111816
112 404.0400085449219 11.76000022888184
114.3399963378906 395.1499938964844 15.15999984741211
111.5999984741211 405.8099975585938 12.72000026702881
111.6100006103516 405.7099914550781 11.75
112.5699996948242 401.8099975585938 12.18000030517578
112.5999984741211 401.9400024414062 13.9399995803833
112.7600021362305 401.3500061035156 14.26000022888184
113.8099975585938 397.4400024414062 15.73999977111816
111.7799987792969 405.2200012207031 12.72000026702881
112.1399993896484 403.4700012207031 11.78999996185303
111.7300033569336 405.1400146484375 11.72999954223633
112.9499969482422 400.7799987792969 14.47999954223633
112.3000030517578 402.9200134277344 11.73999977111816
112.4400024414062 402.3999938964844 11.80000019073486
115.4499969482422 393.0799865722656 14.3100004196167
115.1699981689453 394.2900085449219 14.77000045776367
115.3300018310547 393.7099914550781 14.48999977111816
114.7900009155273 396.0499877929688 15.36999988555908
114.0800018310547 398.8800048828125 15.19999980926514
113.9199981689453 399.4299926757812 15.02000045776367
114.6800003051758 396.6199951171875 15.64999961853027
114.5 397.2200012207031 15.89999961853027
115.0500030517578 394.8399963378906 14.90999984741211
113.1399993896484 402.0499877929688 11.77999973297119
113.8000030517578 399.9599914550781 14.84000015258789
114.2200012207031 398.3699951171875 15.43000030517578
113.0299987792969 402.6000061035156 11.73999977111816
113.6399993896484 400.5 14.65999984741211
113.0599975585938 402.739990234375 13.94999980926514
115.5699996948242 392.5400085449219 14
114.9000015258789 395.4500122070312 15.18000030517578
112.6399993896484 404.4599914550781 14
112.4700012207031 404.9400024414062 12.72000026702881
113.3499984741211 401.6099853515625 14.22999954223633
112.7200012207031 403.739990234375 11.77000045776367
113.5299987792969 401.0899963378906 14.43000030517578
112.4899978637695 405.0400085449219 13.97000026702881
112.4400024414062 404.8800048828125 11.73999977111816
113.2300033569336 402.2099914550781 13.97000026702881
112.5800018310547 404.3200073242188 11.73999977111816
112.9000015258789 403.1300048828125 11.73999977111816
112.3600006103516 405.5799865722656 13.97000026702881
114.3499984741211 397.8200073242188 15.75
112.1699981689453 406.0700073242188 11.27999973297119
112.8000030517578 403.8900146484375 13.98999977111816
112.2900009155273 405.4200134277344 11.3100004196167
112.9499969482422 403.260009765625 14.01000022888184
116.0400009155273 393.510009765625 14.43000030517578
115.6399993896484 395.25 15.03999996185303
115.7799987792969 394.6600036621094 14.88000011444092
116.2099990844727 392.9400024414062 14.18000030517578
114.8199996948242 398.6400146484375 15.40999984741211
114.4199981689453 400.3299865722656 14.81999969482422
115.379997253418 396.3900146484375 15.47999954223633
114.9599990844727 398.1099853515625 15.63000011444092
113.9300003051758 402.0400085449219 14.22999954223633
114.5299987792969 399.739990234375 14.98999977111816
115.2799987792969 396.9800109863281 15.68000030517578
113.5199966430664 403.7099914550781 14.23999977111816
115.5100021362305 395.8099975585938 15.30000019073486
113.7900009155273 402.6199951171875 14.25
112.8899993896484 405.760009765625 11.21000003814697
113.3000030517578 404.7999877929688 14.27999973297119
114.2399978637695 400.8599853515625 14.5600004196167
113.6800003051758 403.1499938964844 14.22999954223633
114.129997253418 401.4500122070312 14.35999965667725
115.9300003051758 394.1199951171875 14.72999954223633
113.1100006103516 405.4100036621094 14.28999996185303
113.4000015258789 404.25 14.28999996185303
115.1399993896484 397.5299987792969 15.85999965667725
112.7399978637695 406.3800048828125 11.23999977111816
114.6900024414062 399.1499938964844 15.23999977111816
116.2300033569336 396.2099914550781 15.31999969482422
116.1100006103516 396.75 15.56999969482422
115.4199981689453 399.6400146484375 15.15999984741211
115.8499984741211 397.989990234375 15.77999973297119
114.8499984741211 401.8299865722656 14.55000019073486
114.4000015258789 403.5 14.52999973297119
114.5699996948242 402.9599914550781 14.51000022888184
114.0100021362305 405.239990234375 14.60999965667725
114.25 404.1099853515625 14.59000015258789
114.6800003051758 402.3800048828125 14.5600004196167
115.1399993896484 400.7000122070312 14.72000026702881
115.5199966430664 399.0899963378906 15.31999969482422
115.25 400.1400146484375 14.94999980926514
113.870002746582 405.8299865722656 14.64000034332275
115.9800033569336 397.3800048828125 15.77000045776367
114.9899978637695 401.2699890136719 14.60000038146973
114.1100006103516 404.7000122070312 14.60000038146973
115.6699981689453 398.5299987792969 15.52999973297119
114.9300003051758 404.3900146484375 14.82999992370605
114.6500015258789 405.5599975585938 14.90999984741211
114.5199966430664 406.1000061035156 14.92000007629395
114.8199996948242 404.9599914550781 14.89999961853027
116.370002746582 395.5899963378906 15.15999984741211
116.5 395.0400085449219 14.94999980926514
116.9300003051758 393.260009765625 14.22000026702881
116.7699966430664 393.8699951171875 14.4399995803833
116.629997253418 394.4400024414062 14.63000011444092
116.6600036621094 397.6799926757812 15.80000019073486
116.0500030517578 399.8999938964844 15.10000038146973
115.9000015258789 400.4700012207031 14.88000011444092
115.8000030517578 401.010009765625 14.75
115.0599975585938 403.8699951171875 14.85999965667725
116.2399978637695 399.3200073242188 15.35000038146973
115.2399978637695 403.3200073242188 14.84000015258789
116.4800033569336 404.0199890136719 15.36999988555908
116.1900024414062 405.0899963378906 15.47000026702881
116.3600006103516 404.5499877929688 15.39999961853027
115.3600006103516 402.7699890136719 14.85000038146973
116.7799987792969 397.1000061035156 15.5600004196167
116.620002746582 403.4700012207031 15.40999984741211
116.4800033569336 398.25 15.72000026702881
116.9000015258789 396.5 15.35999965667725
116.7300033569336 402.9200134277344 15.46000003814697
115.9400024414062 406.25 15.43000030517578
115.4800033569336 402.1600036621094 14.88000011444092
116.0500030517578 405.6600036621094 15.46000003814697
116.379997253418 398.7799987792969 15.51000022888184
115.6100006103516 401.6199951171875 14.82999992370605
116.6500015258789 400.2000122070312 15.07999992370605
116.370002746582 401.3299865722656 15.11999988555908
115.8199996948242 403.5899963378906 15.07999992370605
116.2600021362305 401.8699951171875 15.07999992370605
116.5100021362305 400.7699890136719 15.07999992370605
115.9499969482422 403.0400085449219 15.11999988555908
115.3899993896484 405.3200073242188 15.09000015258789
116.9599990844727 399.1600036621094 15.48999977111816
116.0899963378906 402.4800109863281 15.14000034332275
115.6699981689453 404.1700134277344 15.10999965667725
115.5500030517578 404.760009765625 15.09000015258789
115.25 405.9200134277344 15.15999984741211
116.629997253418 406.6600036621094 15.68000030517578
116.7799987792969 406.0700073242188 15.63000011444092
116.9199981689453 405.510009765625 15.64999961853027
116.8300018310547 399.6700134277344 15.23999977111816
116.8899993896484 402.2999877929688 15.38000011444092
117.0400009155273 392.7099914550781 13.97000026702881
117.7200012207031 393.010009765625 13.96000003814697
117.1600036621094 395.3800048828125 14.96000003814697
117.0500030517578 395.9200134277344 15.17000007629395
117.5599975585938 393.6199951171875 14.31999969482422
117.3099975585938 394.7999877929688 14.72000026702881
117.4199981689453 394.239990234375 14.5
117.6600036621094 396.2300109863281 15.27999973297119
118.3099975585938 393.2999877929688 14.05000019073486
118.0400009155273 394.4700012207031 14.52999973297119
117.2200012207031 398.0199890136719 15.89999961853027
118.9700012207031 393.739990234375 14.15999984741211
117.0899963378906 398.5899963378906 15.60999965667725
118.6699981689453 394.8900146484375 14.64000034332275
117.870002746582 398.3399963378906 15.85999965667725
118.4400024414062 396.0400085449219 15.05000019073486
117.5199966430664 396.7999877929688 15.43000030517578
117.4000015258789 397.4299926757812 15.65999984741211
118.8000030517578 394.3099975585938 14.38000011444092
117.5899963378906 399.4100036621094 15.43000030517578
118.1600036621094 397.1900024414062 15.51000022888184
118.2699966430664 396.5799865722656 15.26000022888184
117.3099975585938 400.5799865722656 15.43000030517578
118.1999969482422 393.9200134277344 14.27999973297119
118.5400009155273 395.4200134277344 14.85999965667725
117.1900024414062 401.1499938964844 15.39999961853027
117.0100021362305 401.7300109863281 15.38000011444092
117.7300033569336 398.8500061035156 15.68000030517578
117.4800033569336 400 15.36999988555908
117.7600021362305 395.6799926757812 15.02000045776367
117.9100036621094 395.0499877929688 14.80000019073486
118.0299987792969 397.7300109863281 15.72000026702881
119.6699981689453 394.0799865722656 14.25
119.8099975585938 393.4700012207031 13.94999980926514
119.4100036621094 395.1900024414062 14.57999992370605
119.0199966430664 396.9500122070312 15.34000015258789
119.2799987792969 395.7799987792969 14.89999961853027
119.5800018310547 394.6000061035156 14.4399995803833
117.9300003051758 401.5400085449219 15.68000030517578
118.0699996948242 400.9200134277344 15.69999980926514
118.4599990844727 399.2799987792969 15.64999961853027
119.1399993896484 396.4100036621094 15.11999988555908
117.2099990844727 404.3599853515625 15.6899995803833
117.7900009155273 402.1000061035156 15.61999988555908
117.3399963378906 403.7699890136719 15.64999961853027
118.1800003051758 400.3800048828125 15.61999988555908
