117.5199966430664 226.8800048828125 7.889999866485596
116.8899993896484 224.4700012207031 8.649999618530273
116.7799987792969 223.8899993896484 8.800000190734863
117.0500030517578 225.0500030517578 8.430000305175781
117.379997253418 226.2799987792969 8.039999961853027
116.6100006103516 223.1999969482422 8.779999732971191
115.7799987792969 219.8399963378906 7.769999980926514
115.3300018310547 218.1799926757812 7.25
115.129997253418 217.3000030517578 6.989999771118164
116.1900024414062 221.5200042724609 8.270000457763672
117.8099975585938 228.0899963378906 7.510000228881836
117.6699981689453 227.4700012207031 7.650000095367432
114.4000015258789 216.4700012207031 6.789999961853027
114.5699996948242 217.25 7.119999885559082
114.7600021362305 218.0899963378906 7.349999904632568
115.370002746582 220.4900054931641 8.119999885559082
114.9899978637695 218.8800048828125 7.599999904632568
115.9700012207031 222.9499969482422 8.859999656677246
115.1900024414062 219.6699981689453 7.820000171661377
116.3199996948242 224.2299957275391 8.569999694824219
116.8000030517578 226.1000061035156 7.989999771118164
117.4199981689453 228.5299987792969 7.239999771118164
115.7799987792969 222.1499938964844 8.619999885559082
117.7300033569336 229.7299957275391 6.869999885559082
115.5599975585938 221.3500061035156 8.390000343322754
117.25 227.9400024414062 7.449999809265137
116.9499969482422 226.7200012207031 7.789999961853027
116.4899978637695 224.8800048828125 8.430000305175781
116.1600036621094 223.6000061035156 8.770000457763672
117.6699981689453 229.4499969482422 4.820000171661377
116.6100006103516 225.4400024414062 8.220000267028809
117.5400009155273 229.1499938964844 7.070000171661377
113.8899993896484 217.0599975585938 7.159999847412109
114.3000030517578 218.7100067138672 7.670000076293945
113.6600036621094 216.2599945068359 6.920000076293945
114.0699996948242 217.8600006103516 7.429999828338623
116.0699996948242 225.8800048828125 7.940000057220459
115.7699966430664 224.6300048828125 8.289999961853027
115.9400024414062 225.2599945068359 8.130000114440918
115.0599975585938 221.8999938964844 8.340000152587891
116.8399963378906 228.8999938964844 7.010000228881836
116.7099990844727 228.2899932861328 7.159999847412109
117.0100021362305 229.3600006103516 5.070000171661377
116.2200012207031 226.4600067138672 7.760000228881836
114.6800003051758 220.2400054931641 7.869999885559082
116.5500030517578 227.6699981689453 7.369999885559082
115.5899963378906 224.0700073242188 8.479999542236328
114.4800033569336 219.4299926757812 7.630000114440918
114.8499984741211 221.0800018310547 8.090000152587891
117 229.5099945068359 6.760000228881836
115.4599990844727 223.4600067138672 8.689999580383301
116.370002746582 227.1100006103516 7.579999923706055
113.5299987792969 218.6399993896484 7.71999979019165
114.4499969482422 222.3600006103516 8.289999961853027
113.3300018310547 217.9199981689453 7.619999885559082
114.8000030517578 223.8200073242188 8.409999847412109
114.2399978637695 221.5700073242188 8.020000457763672
114.6500015258789 223.1600036621094 8.470000267028809
115.1600036621094 225.0800018310547 8.060000419616699
114.0400009155273 220.7599945068359 7.78000020980835
115.9300003051758 228.1799926757812 7.110000133514404
116.1999969482422 229.1199951171875 6.199999809265137
115.5999984741211 226.9799957275391 7.460000038146973
115.4400024414062 226.3300018310547 7.659999847412109
116.2099990844727 229.25 5.070000171661377
113.6699981689453 219.2200012207031 7.570000171661377
113.8499984741211 219.9100036621094 7.519999980926514
115.3099975585938 225.6699981689453 7.880000114440918
114.9800033569336 224.4600067138672 8.260000228881836
116.0899963378906 228.7299957275391 6.880000114440918
113.1600036621094 219.7299957275391 7.289999961853027
113.5699996948242 221.3600006103516 7.679999828338623
114.75 226.2599945068359 7.699999809265137
113.7600021362305 222.1699981689453 7.929999828338623
113.3199996948242 220.4799957275391 7.429999828338623
115.4000015258789 228.6399993896484 6.960000038146973
115.2399978637695 228.0299987792969 7.199999809265137
115.5199966430664 229.1999969482422 6.650000095367432
112.9599990844727 219.0899963378906 7.460000038146973
114.9400024414062 226.8500061035156 7.519999980926514
115.0599975585938 227.4700012207031 7.369999885559082
115.5699996948242 229.2100067138672 5.170000076293945
114.3300018310547 224.4199981689453 8.210000038146973
114.4700012207031 225.0099945068359 8.079999923706055
112.8099975585938 218.4400024414062 7.690000057220459
114.1600036621094 223.8099975585938 8.390000343322754
114.5899963378906 225.6000061035156 7.869999885559082
112.5500030517578 219.5 7.21999979019165
112.4300003051758 218.9199981689453 7.409999847412109
113.3499984741211 222.6399993896484 7.849999904632568
113.9000015258789 224.8800048828125 8.279999732971191
112.9199981689453 220.9900054931641 7.380000114440918
114.0699996948242 225.5299987792969 8.060000419616699
113.129997253418 221.75 7.610000133514404
112.6999969482422 220.1399993896484 7.150000095367432
114.8600006103516 228.6199951171875 7.159999847412109
114.1900024414062 226.0800018310547 7.900000095367432
114.5100021362305 227.4100036621094 7.539999961853027
114.9800033569336 229.2299957275391 6.980000019073486
115.0199966430664 229.2599945068359 5.71999979019165
113.7399978637695 224.2200012207031 8.319999694824219
115.1699981689453 229.8200073242188 6.829999923706055
113.5400009155273 223.4199981689453 8.109999656677246
114.3899993896484 226.7799987792969 7.71999979019165
112.5999984741211 222.3300018310547 7.550000190734863
112.0500030517578 219.9199981689453 6.989999771118164
113.2300033569336 224.7400054931641 8.25
112.2200012207031 220.6300048828125 7.019999980926514
111.879997253418 219.2799987792969 7.239999771118164
112.4000015258789 221.5 7.309999942779541
113.4100036621094 225.4499969482422 8.340000152587891
113.0100021362305 224 8.050000190734863
113.5599975585938 226.0500030517578 8.170000076293945
113.8499984741211 227.2899932861328 7.789999961853027
114.2900009155273 229.0500030517578 7.090000152587891
113.7300033569336 226.6799926757812 7.989999771118164
114.1699981689453 228.4199981689453 7.269999980926514
113.9899978637695 227.7899932861328 7.429999828338623
114.4599990844727 229.6399993896484 6.889999866485596
111.8199996948242 221.9400024414062 7.210000038146973
112.2200012207031 223.5599975585938 7.690000057220459
111.6500015258789 221.1499938964844 7
112.0299987792969 222.7899932861328 7.489999771118164
112.9499969482422 226.3000030517578 5.949999809265137
113.5800018310547 228.9199981689453 7
113.2099990844727 227.4700012207031 6.940000057220459
112.8300018310547 226.0500030517578 8.390000343322754
113.5299987792969 228.6000061035156 4.900000095367432
112.6500015258789 225.2200012207031 8.149999618530273
113.1399993896484 227.3000030517578 8.039999961853027
113 226.6199951171875 8.270000457763672
112.4499969482422 224.3800048828125 7.920000076293945
113.7300033569336 229.4700012207031 6.75
111.4199981689453 220.3800048828125 6.800000190734863
111.129997253418 221.7299957275391 6.869999885559082
111.3199996948242 222.5700073242188 7.130000114440918
112.6900024414062 228.0099945068359 6.880000114440918
112.9000015258789 228.7799987792969 5.579999923706055
112.8600006103516 228.7100067138672 6.949999809265137
112.3300018310547 226.5800018310547 8.289999961853027
113.0100021362305 229.3600006103516 6.760000228881836
111.7200012207031 224.2400054931641 7.610000133514404
112.1399993896484 225.8000030517578 8.060000419616699
110.6699981689453 222.1900024414062 6.829999923706055
110.879997253418 223.0399932861328 7.079999923706055
111.4400024414062 225.4700012207031 7.789999961853027
111.6500015258789 226.2599945068359 8.010000228881836
111.5500030517578 225.5899963378906 5.099999904632568
111.0599975585938 223.7899932861328 7.239999771118164
111.2699966430664 224.6300048828125 7.570000171661377
110.129997253418 222.8099975585938 6.840000152587891
110.8300018310547 225.3099975585938 4.829999923706055
110.5299987792969 224.3300018310547 7.159999847412109
110.9199981689453 225.9299926757812 7.650000095367432
109.7799987792969 223.9900054931641 6.909999847412109
109.9899978637695 224.8200073242188 7.079999923706055
109.3199996948242 224.6999969482422 6.789999961853027
132.2599945068359 222.0700073242188 6.820000171661377
131.5800018310547 221.9199981689453 6.789999961853027
131.7899932861328 222.6699981689453 6.849999904632568
131.0399932861328 221.7599945068359 6.929999828338623
131.5500030517578 223.8099975585938 6.679999828338623
131.2299957275391 222.5700073242188 7.110000133514404
132.0399932861328 225.75 6.460000038146973
132.1300048828125 226.2200012207031 5.96999979019165
131.3399963378906 225.6900024414062 6.710000038146973
131.5099945068359 226.0700073242188 4.539999961853027
131.5200042724609 226.3999938964844 6.809999942779541
131.6300048828125 226.8200073242188 6.110000133514404
131.7899932861328 227.2799987792969 5.639999866485596
130.8600006103516 223.6399993896484 7.010000228881836
130.6900024414062 223.1000061035156 7.190000057220459
130.3099975585938 221.5700073242188 6.900000095367432
130.5399932861328 222.3500061035156 7.170000076293945
130.1199951171875 220.7299957275391 6.820000171661377
131 224.2599945068359 6.809999942779541
129.5700073242188 221.3500061035156 7.03000020980835
130.6100006103516 225.4900054931641 6.860000133514404
130.9299926757812 226.8500061035156 5.349999904632568
130.4100036621094 224.8099975585938 6.920000076293945
130.9900054931641 227.0500030517578 7.210000038146973
129.9299926757812 222.9900054931641 7.449999809265137
131.1799926757812 227.8099975585938 7.400000095367432
129.3500061035156 220.5599975585938 6.809999942779541
131.1499938964844 227.6799926757812 5.679999828338623
130.7400054931641 226.1799926757812 6.909999847412109
129.7799987792969 222.2200012207031 7.300000190734863
130.2899932861328 224.2400054931641 7.079999923706055
128.4799957275391 219.7400054931641 6.829999923706055
129.8600006103516 225.4100036621094 6.989999771118164
129.4299926757812 223.5899963378906 7.559999942779541
129.2599945068359 222.8899993896484 7.610000133514404
128.8200073242188 221.2200012207031 7.090000152587891
129.5500030517578 224.1399993896484 7.360000133514404
130.6600036621094 228.5800018310547 7.730000019073486
130.0500030517578 226.1699981689453 7.070000171661377
130.4900054931641 227.8300018310547 7.579999923706055
128.6499938964844 220.4400024414062 6.840000152587891
129.7200012207031 224.75 7.159999847412109
130.7599945068359 228.9400024414062 6.909999847412109
129.0200042724609 222.1100006103516 7.380000114440918
130.2799987792969 226.9600067138672 7.309999942779541
129.6799926757812 226.6999969482422 7.380000114440918
130.2299957275391 228.8999938964844 7.519999980926514
130.3200073242188 229.3899993896484 7.190000057220459
130.1499938964844 228.4400024414062 5.170000076293945
130.0299987792969 228.2299957275391 7.71999979019165
129.8500061035156 227.5399932861328 7.579999923706055
127.7099990844727 218.9799957275391 7.329999923706055
128.4600067138672 221.8500061035156 7.449999809265137
128.8200073242188 223.4600067138672 7.760000228881836
128.0500030517578 220.1699981689453 6.960000038146973
129.3000030517578 225.25 7.260000228881836
128.6300048828125 222.6799926757812 7.690000057220459
128.2299957275391 220.9900054931641 7.199999809265137
127.8499984741211 219.4900054931641 7.070000171661377
129.1699981689453 224.6799926757812 7.400000095367432
129.4799957275391 225.9100036621094 7.119999885559082
127.370002746582 220.1300048828125 7.170000076293945
127.2200012207031 219.5 7.300000190734863
127.1100006103516 218.9299926757812 7.460000038146973
127.9800033569336 222.4499969482422 7.760000228881836
128.6499938964844 225.1000061035156 7.53000020980835
127.5599975585938 220.8399963378906 7.28000020980835
128.3200073242188 223.9199981689453 7.829999923706055
129.3600006103516 228.0200042724609 7.650000095367432
129.6799926757812 229.3000030517578 7.269999980926514
128.5099945068359 224.5399932861328 7.650000095367432
128.1499938964844 223.3000030517578 8.039999961853027
128.7899932861328 225.7299957275391 7.349999904632568
127.7799987792969 221.6399993896484 7.460000038146973
129.1799926757812 227.3000030517578 7.650000095367432
129.8399963378906 229.8999938964844 7.079999923706055
129 226.5 7.449999809265137
129.9700012207031 230.3000030517578 6.449999809265137
129.5200042724609 228.6699981689453 7.440000057220459
126.8199996948242 220.6199951171875 7.340000152587891
126.6800003051758 219.9799957275391 7.409999847412109
127.4400024414062 223.1600036621094 8.119999885559082
126.5199966430664 219.3500061035156 7.590000152587891
127.620002746582 223.8500061035156 8.090000152587891
128.9199981689453 229 7.260000228881836
127.2300033569336 222.2700042724609 7.849999904632568
128.4799957275391 227.1799926757812 7.78000020980835
126.1699981689453 218.1600036621094 8.039999961853027
129.2299957275391 230.1999969482422 6.900000095367432
128.2400054931641 226.3200073242188 7.510000228881836
126.370002746582 218.7599945068359 7.78000020980835
127.0299987792969 221.5399932861328 7.619999885559082
128.7799987792969 228.3999938964844 7.429999828338623
128.1100006103516 225.7200012207031 7.590000152587891
129.0700073242188 229.6499938964844 7.090000152587891
129.4100036621094 230.9199981689453 6.929999828338623
128.6399993896484 227.8300018310547 7.659999847412109
127.9599990844727 225.1199951171875 7.730000019073486
125.6900024414062 218.8200073242188 8
126.0100021362305 220.0399932861328 7.639999866485596
126.1600036621094 220.6699981689453 7.519999980926514
125.9000015258789 219.4799957275391 7.820000171661377
126.9800033569336 223.8300018310547 8.359999656677246
127.1399993896484 224.4900054931641 8.199999809265137
126.7600021362305 223.1100006103516 8.25
127.7699966430664 227.1399993896484 7.889999866485596
126.5800018310547 222.2100067138672 7.929999828338623
127.9400024414062 227.8200073242188 7.889999866485596
128.2700042724609 229.1000061035156 7.480000019073486
125.5400009155273 218.1499938964844 8.199999809265137
128.5899963378906 230.3000030517578 7.099999904632568
126.3600006103516 221.4100036621094 7.679999828338623
128.1399993896484 228.4299926757812 7.659999847412109
128.7400054931641 230.8699951171875 6.929999828338623
127.3000030517578 225.0700073242188 7.96999979019165
127.4400024414062 225.6399993896484 7.849999904632568
128.4299926757812 229.7299957275391 7.320000171661377
127.5999984741211 226.2899932861328 7.659999847412109
128.8999938964844 231.4900054931641 6.789999961853027
128.1499938964844 230.6999969482422 7.190000057220459
128.0099945068359 230.1300048828125 7.420000076293945
128.3099975585938 231.3399963378906 7.010000228881836
127.6699981689453 228.8899993896484 7.75
127.8300018310547 229.5 7.579999923706055
128.4499969482422 231.9900054931641 6.820000171661377
124.7699966430664 217.2799987792969 8.369999885559082
124.9700012207031 218.0599975585938 8.460000038146973
125.4300003051758 219.8800048828125 7.900000095367432
125.9700012207031 222.0500030517578 8.029999732971191
126.5299987792969 224.3699951171875 8.399999618530273
126.9800033569336 226.2100067138672 7.880000114440918
127.1699981689453 226.9100036621094 7.949999809265137
126.8600006103516 225.6000061035156 8.029999732971191
126.379997253418 223.7200012207031 8.550000190734863
125.7600021362305 221.1999969482422 7.820000171661377
126.1800003051758 222.8699951171875 8.270000457763672
125.120002746582 218.6600036621094 8.300000190734863
127.3399963378906 227.6600036621094 8.100000381469727
125.5500030517578 220.4799957275391 7.739999771118164
127.5199966430664 228.2899932861328 7.909999847412109
125.2799987792969 219.2700042724609 8.050000190734863
124.3899993896484 218.5599975585938 8.470000267028809
124.1800003051758 217.6999969482422 8.210000038146973
125.2300033569336 221.9100036621094 8.140000343322754
125.4300003051758 222.7100067138672 8.380000114440918
124.0100021362305 216.9400024414062 7.96999979019165
124.8899993896484 220.4700012207031 7.989999771118164
124.7099990844727 219.9100036621094 8.140000343322754
126.1399993896484 225.4600067138672 8.340000152587891
125.9700012207031 224.9100036621094 8.479999542236328
127.3300018310547 230.1799926757812 7.590000152587891
126.2600021362305 226.1000061035156 8.149999618530273
127 228.8699951171875 8.039999961853027
125.0299987792969 221.0899963378906 7.869999885559082
127.7699966430664 231.8999938964844 7.110000133514404
127.9000015258789 232.5599975585938 6.940000057220459
127.4800033569336 230.7700042724609 7.449999809265137
126.4400024414062 226.7400054931641 8.020000457763672
124.5899963378906 219.2799987792969 8.359999656677246
125.8300018310547 224.2599945068359 8.640000343322754
127.1399993896484 229.5099945068359 7.800000190734863
127.5899963378906 231.3399963378906 7.269999980926514
125.6399993896484 223.5800018310547 8.729999542236328
126.6900024414062 227.6399993896484 8.310000419616699
126.8000030517578 228.2400054931641 8.180000305175781
127.5100021362305 233.7799987792969 6.869999885559082
123.9899978637695 219.8000030517578 8.439999580383301
123.2099990844727 216.5800018310547 7.650000095367432
123.5999984741211 218.2400054931641 8.149999618530273
124.7099990844727 222.6300048828125 8.520000457763672
124.1399993896484 220.4199981689453 8.289999961853027
125.2600021362305 224.8999938964844 8.710000038146973
124.9000015258789 223.4700012207031 8.779999732971191
125.7300033569336 226.6799926757812 8.260000228881836
125.5800018310547 226.1399993896484 8.380000114440918
125.4199981689453 225.5299987792969 8.539999961853027
125.0999984741211 224.2200012207031 8.930000305175781
124.5199966430664 221.7899932861328 8.279999732971191
124.3199996948242 220.9799957275391 8.130000114440918
123.3899993896484 217.4100036621094 7.880000114440918
126.9000015258789 231.2299957275391 7.539999961853027
126.4100036621094 229.3800048828125 8.090000152587891
125.9300003051758 227.4900054931641 8.460000038146973
127.0199966430664 231.8500061035156 7.369999885559082
126.5999984741211 230.0299987792969 7.940000057220459
126.7399978637695 230.6100006103516 7.71999979019165
127.3499984741211 233.0800018310547 7.019999980926514
127.1999969482422 232.4900054931641 7.150000095367432
126.0899963378906 228.1900024414062 8.460000038146973
126.25 228.8300018310547 8.25
123.8099975585938 219.0399932861328 8.420000076293945
122.7099990844727 217.1799926757812 7.539999961853027
122.5100021362305 216.3399963378906 7.309999942779541
123.8899993896484 221.7799987792969 8.319999694824219
124.0500030517578 222.5899963378906 8.590000152587891
124.4599990844727 224.2299957275391 9.130000114440918
124.2900009155273 223.3800048828125 8.840000152587891
124.8099975585938 225.4600067138672 8.75
123.3499984741211 219.6900024414062 8.350000381469727
124.9199981689453 226.0700073242188 8.630000114440918
123.6900024414062 221.0599975585938 8.340000152587891
125.9400024414062 230.1000061035156 8.119999885559082
125.3000030517578 227.4199981689453 8.529999732971191
126.5999984741211 232.5200042724609 7.429999828338623
126.120002746582 230.7200012207031 7.960000038146973
126.75 233.1000061035156 7.21999979019165
123.129997253418 218.8000030517578 8.029999732971191
125.5 228.2200012207031 8.649999618530273
126.4000015258789 231.9100036621094 7.590000152587891
127.0299987792969 234.3000030517578 6.849999904632568
122.9100036621094 217.9700012207031 7.800000190734863
124.6100006103516 224.8399963378906 8.970000267028809
125.120002746582 226.6699981689453 8.449999809265137
126.879997253418 233.6999969482422 7.039999961853027
125.8099975585938 229.4199981689453 8.329999923706055
126.2699966430664 231.2899932861328 7.739999771118164
125.629997253418 228.7899932861328 8.489999771118164
121.8899993896484 215.9400024414062 7.010000228881836
122.7300033569336 219.2400054931641 8.060000419616699
122.0999984741211 216.7599945068359 7.269999980926514
123.4599990844727 222.3600006103516 8.710000038146973
123.870002746582 224.0200042724609 9.229999542236328
122.3099975585938 217.5500030517578 7.489999771118164
123.6800003051758 223.1900024414062 8.930000305175781
123.2900009155273 221.5200042724609 8.390000343322754
123.0899963378906 220.8899993896484 8.560000419616699
125.0500030517578 228.6600036621094 8.699999809265137
124.4100036621094 226.0200042724609 8.819999694824219
125.3899993896484 229.8899993896484 8.399999618530273
125.6999969482422 231.1100006103516 8.029999732971191
125.2099990844727 229.2799987792969 8.529999732971191
122.4899978637695 218.4499969482422 7.769999980926514
124.25 225.3800048828125 9.020000457763672
124.8899993896484 228.0599975585938 8.890000343322754
126.4700012207031 234.1999969482422 7.099999904632568
126.3399963378906 233.6000061035156 7.28000020980835
126.1500015258789 232.9499969482422 7.480000019073486
124.7300033569336 227.2700042724609 8.590000152587891
126.6600036621094 234.8699951171875 6.860000133514404
125.9899978637695 232.3399963378906 7.630000114440918
122.9499969482422 220.1600036621094 8.390000343322754
124.0500030517578 224.7599945068359 9.210000038146973
124.5299987792969 226.5700073242188 8.649999618530273
125.5400009155273 230.5 8.170000076293945
125.8499984741211 231.6900024414062 7.869999885559082
121.379997253418 216.4199981689453 7.010000228881836
121.1600036621094 215.6300048828125 6.909999847412109
122.5899963378906 221.4199981689453 8.529999732971191
122.1999969482422 219.7899932861328 8.029999732971191
123.1900024414062 223.8200073242188 9.239999771118164
123.3899993896484 224.6300048828125 9.489999771118164
122 218.9499969482422 7.739999771118164
123.5500030517578 225.2400054931641 9.300000190734863
123.0100021362305 223.0800018310547 9.060000419616699
122.379997253418 220.6600036621094 8.270000457763672
121.5899963378906 217.3000030517578 7.239999771118164
122.7799987792969 222.2200012207031 8.770000457763672
124.8399963378906 230.4799957275391 8.359999656677246
124.1800003051758 227.8300018310547 8.880000114440918
123.7099990844727 225.8699951171875 9.149999618530273
124.6999969482422 229.7700042724609 8.409999847412109
125.6500015258789 233.5399932861328 7.579999923706055
123.870002746582 226.4799957275391 8.920000076293945
124.0100021362305 227.0599975585938 8.75
125.0100021362305 231.1699981689453 8.260000228881836
121.7600021362305 218.0599975585938 7.46999979019165
125.1699981689453 231.7100067138672 8.079999923706055
125.9499969482422 234.6900024414062 7.099999904632568
126.0999984741211 235.2799987792969 6.789999961853027
124.3499984741211 228.4799957275391 8.720000267028809
125.7300033569336 233.7700042724609 5.130000114440918
124.4899978637695 229.0899963378906 8.529999732971191
125.4899978637695 232.8800048828125 7.71999979019165
121.9899978637695 222.0299987792969 8.899999618530273
122.4499969482422 223.7400054931641 9.409999847412109
122.6100006103516 224.5399932861328 9.649999618530273
123.2900009155273 227.0500030517578 9.010000228881836
122.2200012207031 222.8699951171875 9.159999847412109
124.0299987792969 230.0399932861328 8.140000343322754
123.1500015258789 226.4900054931641 9.159999847412109
123.5599975585938 228.2899932861328 8.680000305175781
122.9599990844727 225.8500061035156 9.369999885559082
122.8099975585938 225.1699981689453 9.529999732971191
123.7200012207031 228.8300018310547 8.479999542236328
123.9000015258789 229.4600067138672 8.300000190734863
124.8899993896484 233.4700012207031 7.840000152587891
125.1699981689453 234.4299926757812 6.869999885559082
124.4100036621094 231.5700073242188 8.399999618530273
123.4100036621094 227.6699981689453 8.850000381469727
125.2900009155273 235.0500030517578 6.659999847412109
124.5500030517578 232.2100067138672 8.199999809265137
125.0299987792969 234.0099945068359 7.619999885559082
124.6999969482422 232.8099975585938 8.020000457763672
124.25 230.8699951171875 8.25
121.2200012207031 218.75 7.920000076293945
120.8099975585938 217.0899963378906 7.329999923706055
120.629997253418 216.3500061035156 7.090000152587891
121.629997253418 220.4199981689453 8.390000343322754
121.0199966430664 217.9199981689453 7.599999904632568
122.8399963378906 228.0399932861328 8.579999923706055
123.0299987792969 228.7100067138672 8.359999656677246
121.8399963378906 221.25 8.630000114440918
123.3300018310547 229.9400024414062 8.010000228881836
123.7300033569336 231.4799957275391 8.140000343322754
121.4199981689453 219.5599975585938 8.140000343322754
120.4000015258789 215.5500030517578 6.880000114440918
124.370002746582 234 7.769999980926514
124.2300033569336 233.4400024414062 8.060000419616699
124.120002746582 232.8500061035156 5.300000190734863
122.7099990844727 227.4299926757812 8.720000267028809
123.1500015258789 229.2700042724609 8.180000305175781
123.9199981689453 232.2299957275391 8.409999847412109
123.5199966430664 230.6199951171875 7.880000114440918
119.7099990844727 215.3600006103516 6.889999866485596
119.9000015258789 216.1399993896484 7.199999809265137
120.7300033569336 219.5 8.229999542236328
121.3199996948242 222.0800018310547 9
120.5 218.7100067138672 7.949999809265137
122.4199981689453 226.2899932861328 9.119999885559082
122.2099990844727 225.6399993896484 9.329999923706055
122.0899963378906 225.0399932861328 9.460000038146973
123.4499969482422 232.5700073242188 8.340000152587891
122.5599975585938 226.8600006103516 8.949999809265137
120.1100006103516 217.0099945068359 7.389999866485596
121.9000015258789 224.3999938964844 9.670000076293945
123.6500015258789 233.2700042724609 8.260000228881836
121.7399978637695 223.6300048828125 9.520000457763672
120.3000030517578 217.8500061035156 7.710000038146973
123.4400024414062 232.3099975585938 4.769999980926514
120.9199981689453 220.4299926757812 8.5
121.5500030517578 222.8600006103516 9.289999961853027
123.5299987792969 232.6100006103516 5.349999904632568
118.9599990844727 214.4600067138672 6.880000114440918
120.3399963378906 220.0700073242188 8.520000457763672
120.7600021362305 221.7599945068359 9.029999732971191
119.5199966430664 216.8099975585938 7.53000020980835
119.3499984741211 216.0500030517578 7.239999771118164
121.3300018310547 224.1600036621094 9.689999580383301
120.9499969482422 222.5599975585938 9.289999961853027
120.5500030517578 220.9299926757812 8.75
121.9899978637695 226.6799926757812 8.869999885559082
119.120002746582 215.2400054931641 6.96999979019165
121.6699981689453 225.3999938964844 9.260000228881836
122.7600021362305 229.6799926757812 7.96999979019165
122.2900009155273 227.8600006103516 8.539999961853027
122.9100036621094 230.2599945068359 7.769999980926514
119.9400024414062 218.4600067138672 8.039999961853027
123.0899963378906 231 7.869999885559082
122.5599975585938 229.0399932861328 8.180000305175781
121.4700012207031 224.7299957275391 9.460000038146973
120.1399993896484 219.2899932861328 8.260000228881836
119.6999969482422 217.6399993896484 7.730000019073486
122.379997253418 230.6900024414062 7.539999961853027
122.4100036621094 228.3999938964844 8.350000381469727
123.2900009155273 231.8000030517578 8.100000381469727
122.1399993896484 227.2599945068359 8.710000038146973
122.5500030517578 231.5299987792969 7.769999980926514
122.75 232.3300018310547 8.039999961853027
121.1500015258789 223.3800048828125 9.609999656677246
121.8000030517578 226.0099945068359 9.100000381469727
118.4599990844727 214.9900054931641 7.070000171661377
119.2600021362305 218.2899932861328 8.090000152587891
118.6399993896484 215.7599945068359 7.269999980926514
119.8899993896484 220.8099975585938 8.939999580383301
120.8000030517578 224.4900054931641 9.460000038146973
119.4700012207031 219.1000061035156 8.319999694824219
120.9599990844727 225.1199951171875 9.25
121.129997253418 225.75 9.020000457763672
120.4899978637695 223.2700042724609 9.630000114440918
118.2200012207031 214.1100006103516 6.789999961853027
121.4000015258789 226.9199981689453 8.689999580383301
121.2699966430664 226.3300018310547 8.869999885559082
121.5899963378906 227.5700073242188 8.5
119.6800003051758 219.9700012207031 8.630000114440918
121.1500015258789 228.5899963378906 8
119.0299987792969 217.4199981689453 7.840000152587891
121.75 228.1900024414062 8.279999732971191
118.8499984741211 216.6000061035156 7.570000171661377
121.9000015258789 228.8000030517578 8.079999923706055
122.0299987792969 229.3800048828125 7.920000076293945
120.9899978637695 227.9799957275391 8.239999771118164
122.1900024414062 230.0200042724609 7.739999771118164
122.25 232.9400024414062 6.920000076293945
121.9499969482422 231.8699951171875 7.679999828338623
121.4199981689453 229.8099975585938 7.650000095367432
120.2600021362305 222.4900054931641 9.409999847412109
122.1100006103516 232.4199981689453 7.380000114440918
121.5999984741211 230.4100036621094 7.449999809265137
121.7799987792969 231.1000061035156 7.420000076293945
120.620002746582 223.9400024414062 9.619999885559082
121.2699966430664 229.1699981689453 7.840000152587891
118.2900009155273 217.3399963378906 7.889999866485596
119.0999984741211 220.5099945068359 8.829999923706055
118.4899978637695 218.1100006103516 8.090000152587891
119.6900024414062 222.9700012207031 9.569999694824219
118.7099990844727 218.9199981689453 8.399999618530273
119.4899978637695 222.1600036621094 9.329999923706055
120.6699981689453 226.8200073242188 8.550000190734863
120.8099975585938 227.3899993896484 8.390000343322754
119.3199996948242 221.3899993896484 9.119999885559082
120.0199966430664 224.3300018310547 9.340000152587891
119.8600006103516 223.6499938964844 9.529999732971191
118.129997253418 216.5399932861328 7.619999885559082
120.1600036621094 224.8999938964844 9.170000076293945
121.0599975585938 230.8999938964844 7.190000057220459
121.870002746582 234.1300048828125 6.800000190734863
121.2699966430664 231.6799926757812 7.360000133514404
120.5299987792969 226.1999969482422 8.760000228881836
121.7399978637695 233.5599975585938 6.989999771118164
121.4100036621094 232.3899993896484 7.360000133514404
120.370002746582 225.5800018310547 8.979999542236328
118.8899993896484 219.7899932861328 8.609999656677246
118.3600006103516 220.3099975585938 8.510000228881836
119.3199996948242 224.1600036621094 9.260000228881836
119.629997253418 225.3699951171875 8.880000114440918
119.7799987792969 225.9799957275391 8.729999542236328
117.9700012207031 218.6399993896484 8.029999732971191
120.0999984741211 227.1499938964844 8.329999923706055
119.4700012207031 224.7200012207031 9.060000419616699
120.2600021362305 227.7599945068359 8.140000343322754
119 222.75 9.199999809265137
118.5800018310547 221.1199951171875 8.760000228881836
120.879997253418 230.2599945068359 7.340000152587891
118.1699981689453 219.4199981689453 8.289999961853027
119.2099990844727 223.5599975585938 9.420000076293945
120.6100006103516 229.0399932861328 7.730000019073486
119.9400024414062 226.6000061035156 8.520000457763672
120.4400024414062 228.4100036621094 7.949999809265137
120.75 229.5899963378906 7.599999904632568
118.3300018310547 222.3000030517578 8.930000305175781
119.1600036621094 225.6999969482422 8.649999618530273
119.5100021362305 226.9799957275391 8.25
118.1399993896484 221.5099945068359 8.630000114440918
119.7799987792969 228.1300048828125 7.889999866485596
120.5699996948242 231.2299957275391 7.010000228881836
119.6500015258789 227.5800018310547 8.100000381469727
118.879997253418 224.4900054931641 9.029999732971191
120.7600021362305 231.9799957275391 7.239999771118164
121.0800018310547 233.2400054931641 6.949999809265137
119.3199996948242 226.3699951171875 8.420000076293945
120.9300003051758 232.6499938964844 7.190000057220459
118.9899978637695 225.1000061035156 8.850000381469727
118.6999969482422 223.8699951171875 9.229999542236328
120.1100006103516 229.3300018310547 7.510000228881836
118.5100021362305 223.0399932861328 9.130000114440918
120.4300003051758 230.5800018310547 7.159999847412109
121.25 233.9100036621094 6.809999942779541
119.9499969482422 228.75 7.730000019073486
120.2900009155273 230.0099945068359 7.349999904632568
118.4400024414062 225.4700012207031 8.609999656677246
118.75 226.6699981689453 8.220000267028809
118.5899963378906 226.0599975585938 8.399999618530273
118.2900009155273 224.7899932861328 8.810000419616699
118.0100021362305 223.6000061035156 9.050000190734863
119.5299987792969 229.6900024414062 7.28000020980835
118.1699981689453 224.2200012207031 8.930000305175781
120.5500030517578 233.6100006103516 6.679999828338623
119.3899993896484 229.1000061035156 7.489999771118164
120.379997253418 233.0299987792969 6.880000114440918
119.9000015258789 231.0200042724609 6.920000076293945
120.0500030517578 231.6900024414062 6.909999847412109
119.7300033569336 230.3500061035156 7.070000171661377
120.2600021362305 232.4700012207031 7.090000152587891
119.2099990844727 228.4900054931641 7.630000114440918
118.5 228.2799987792969 7.610000133514404
119.4800033569336 232.0800018310547 6.820000171661377
119.6500015258789 232.7400054931641 6.880000114440918
119.0599975585938 227.8399963378906 7.860000133514404
119.1399993896484 230.6999969482422 6.820000171661377
118.9000015258789 227.2400054931641 8.010000228881836
118.6800003051758 228.9100036621094 7.440000057220459
118.9599990844727 230.0800018310547 7.059999942779541
118.7900009155273 229.4900054931641 7.210000038146973
118.370002746582 227.6999969482422 7.760000228881836
118.0400009155273 226.4900054931641 8.159999847412109
118.2200012207031 227.1000061035156 7.920000076293945
118.0199966430664 228.75 7.349999904632568
118.2900009155273 229.9700012207031 6.949999809265137
118.9800033569336 232.7200012207031 6.730000019073486
118.1399993896484 229.3300018310547 7.159999847412109
118.4899978637695 230.6000061035156 6.71999979019165
109.0599975585938 224.4700012207031 6.880000114440918
109.1800003051758 225.0800018310547 6.940000057220459
109.8300018310547 225.0899963378906 4.800000190734863
109.6900024414062 224.3999938964844 6.920000076293945
109.5100021362305 223.7700042724609 6.840000152587891
109.9100036621094 225.3399963378906 5.96999979019165
109.8099975585938 224.9700012207031 7.119999885559082
110.5599975585938 225.6999969482422 7.539999961853027
110.0800018310547 223.7799987792969 6.960000038146973
110.4100036621094 225.0899963378906 7.349999904632568
109.9300003051758 223.1699981689453 6.789999961853027
110.2099990844727 224.4100036621094 7.170000076293945
110.5899963378906 225.9100036621094 5.489999771118164
111.1999969482422 225.6600036621094 7.800000190734863
111.0400009155273 225.0299987792969 7.619999885559082
111.3099975585938 226.2100067138672 7.71999979019165
110.6999969482422 223.7700042724609 7.230000019073486
110.8899993896484 224.4400024414062 7.389999866485596
110.5699996948242 223.1900024414062 7.010000228881836
110.379997253418 222.5099945068359 6.800000190734863
112.5999984741211 228.7400054931641 5.679999828338623
112.6900024414062 228.9700012207031 6.829999923706055
112.2600021362305 227.4799957275391 5.170000076293945
112.3300018310547 227.5800018310547 5.78000020980835
111.5599975585938 224.3699951171875 7.590000152587891
111.2300033569336 223.0500030517578 7.199999809265137
111.370002746582 223.7599945068359 7.389999866485596
111.0699996948242 222.4199981689453 7.010000228881836
111.8899993896484 225.6499938964844 8
110.879997253418 221.8200073242188 6.809999942779541
111.7200012207031 225.0099945068359 7.809999942779541
113.4199981689453 229.3899993896484 6.75
112.0500030517578 226.2899932861328 8.189999580383301
112.9499969482422 227.5700073242188 6.860000133514404
112.4899978637695 225.5200042724609 8.149999618530273
112.7399978637695 226.6999969482422 8.289999961853027
112.6100006103516 226.1199951171875 8.380000114440918
112.5400009155273 228.3800048828125 6.840000152587891
111.9899978637695 223.6399993896484 7.599999904632568
111.5400009155273 221.7899932861328 7.050000190734863
113.1399993896484 228.2299957275391 7.079999923706055
111.8399963378906 222.9799957275391 7.400000095367432
112.3300018310547 224.9100036621094 7.949999809265137
111.6699981689453 222.3699951171875 7.269999980926514
112.129997253418 224.2799987792969 7.800000190734863
113.3000030517578 228.8600006103516 6.929999828338623
111.3499984741211 221.1199951171875 6.849999904632568
113.8199996948242 228.8099975585938 7.039999961853027
113.4899978637695 227.6300048828125 7.110000133514404
112.9800033569336 225.5 8.380000114440918
113.129997253418 226.1300048828125 8.289999961853027
112.6699981689453 224.2200012207031 8.020000457763672
113.3099975585938 226.6900024414062 8.109999656677246
113.4400024414062 227.2400054931641 7.920000076293945
112.3399963378906 222.8999938964844 7.599999904632568
112.8300018310547 224.9199981689453 8.189999580383301
111.5800018310547 219.8800048828125 6.889999866485596
112.2200012207031 222.3500061035156 7.420000076293945
112.0599975585938 221.7200012207031 7.210000038146973
111.9100036621094 221.1199951171875 7.059999942779541
113.6699981689453 228.2700042724609 7.21999979019165
112.5 223.6199951171875 7.800000190734863
113.9400024414062 229.3800048828125 6.840000152587891
112.25 219.8500061035156 7.03000020980835
111.7300033569336 220.4799957275391 6.909999847412109
112.1100006103516 219.25 7.199999809265137
112.379997253418 220.4499969482422 7.119999885559082
114.7099990844727 229.8399963378906 6.840000152587891
114.3199996948242 228.1699981689453 7.360000133514404
113.620002746582 225.4299926757812 8.229999542236328
113.8899993896484 226.4900054931641 7.929999828338623
113.4800033569336 224.8699951171875 8.399999618530273
113.1699981689453 223.5800018310547 8.060000419616699
114.4700012207031 228.75 7.179999828338623
114.5999984741211 229.3200073242188 7
113.7799987792969 225.9700012207031 8.050000190734863
114.0299987792969 227.0399932861328 7.78000020980835
113.0400009155273 222.9900054931641 7.849999904632568
113.3199996948242 224.25 8.229999542236328
112.5400009155273 221.0599975585938 7.309999942779541
112.7200012207031 221.6999969482422 7.519999980926514
114.1500015258789 227.5700073242188 7.570000171661377
115.3899993896484 229.6999969482422 6.659999847412109
114.9599990844727 228.0299987792969 7.21999979019165
112.8600006103516 222.3999938964844 7.690000057220459
114.4300003051758 225.7899932861328 7.880000114440918
114.6999969482422 226.9400024414062 7.550000190734863
113.8199996948242 223.4600067138672 8.25
113.5199966430664 222.2599945068359 7.880000114440918
114.3000030517578 225.2400054931641 8.020000457763672
114.1600036621094 224.6799926757812 8.199999809265137
114.8300018310547 227.4900054931641 7.389999866485596
113.9800033569336 224.0899963378906 8.390000343322754
115.0999984741211 228.5899963378906 7.059999942779541
113.6800003051758 222.8200073242188 8.100000381469727
115.2600021362305 229.1600036621094 6.889999866485596
113.25 221.0399932861328 7.519999980926514
112.629997253418 218.6399993896484 7.519999980926514
112.7900009155273 219.1999969482422 7.409999847412109
112.4899978637695 218.1300048828125 7.730000019073486
114.5400009155273 226.3800048828125 7.71999979019165
113.3600006103516 221.6199951171875 7.699999809265137
112.9300003051758 219.7799987792969 7.199999809265137
113.0800018310547 220.3600006103516 7.340000152587891
115.9400024414062 229.3999938964844 6.099999904632568
115.5299987792969 227.7700042724609 7.119999885559082
115.3899993896484 227.2200012207031 7.28000020980835
115.8300018310547 228.9400024414062 6.690000057220459
114.7300033569336 224.5 8.140000343322754
115.6600036621094 228.3500061035156 6.949999809265137
114.4599990844727 223.3600006103516 8.479999542236328
114.879997253418 225.0200042724609 7.940000057220459
115.129997253418 226.1199951171875 7.619999885559082
115.0199966430664 225.6100006103516 7.760000228881836
113.5199966430664 219.5700073242188 7.380000114440918
114.1399993896484 222.1199951171875 8.119999885559082
113.0800018310547 217.8399963378906 7.710000038146973
115.2699966430664 226.7100067138672 7.440000057220459
113.25 218.4499969482422 7.710000038146973
113.9899978637695 221.4499969482422 7.900000095367432
113.370002746582 218.9499969482422 7.550000190734863
113.8499984741211 220.8699951171875 7.699999809265137
114.5999984741211 223.8899993896484 8.329999923706055
113.6500015258789 220.1799926757812 7.519999980926514
114.2900009155273 222.7799987792969 8.270000457763672
116.379997253418 229.1499938964844 5.039999961853027
115.4899978637695 225.5899963378906 7.920000076293945
115.25 224.4199981689453 8.260000228881836
114.9400024414062 223.3099975585938 8.619999885559082
115.9199981689453 227.2700042724609 7.389999866485596
114.4800033569336 221.5200042724609 8.100000381469727
115.629997253418 226.1399993896484 7.730000019073486
116.3499984741211 228.9299926757812 6.820000171661377
114.8000030517578 222.6900024414062 8.430000305175781
114 219.5700073242188 7.519999980926514
115.8000030517578 226.6699981689453 7.599999904632568
114.6699981689453 222.0899963378906 8.260000228881836
113.7600021362305 218.4499969482422 7.71999979019165
115.370002746582 224.9900054931641 8.100000381469727
114.3199996948242 220.8000030517578 7.900000095367432
116.0400009155273 227.8200073242188 7.199999809265137
116.1800003051758 228.3600006103516 7.03000020980835
114.1699981689453 220.25 7.71999979019165
113.4000015258789 217.1600036621094 7.340000152587891
115.1100006103516 223.8699951171875 8.479999542236328
113.5699996948242 217.8099975585938 7.539999961853027
113.9100036621094 219.0399932861328 7.630000114440918
117.0699996948242 229.4600067138672 6.800000190734863
116.4000015258789 226.6999969482422 7.670000076293945
116.120002746582 225.5500030517578 8.060000419616699
116.620002746582 227.7799987792969 7.360000133514404
116 225.0500030517578 8.220000267028809
115.7099990844727 223.8800048828125 8.569999694824219
116.9499969482422 229.1000061035156 4.909999847412109
115.4400024414062 222.7700042724609 8.689999580383301
114.5800018310547 219.5500030517578 7.699999809265137
115.8499984741211 224.4600067138672 8.340000152587891
116.9000015258789 228.8699951171875 7
114.7799987792969 220.1900024414062 7.909999847412109
113.8499984741211 216.4799957275391 6.989999771118164
115.0800018310547 221.4900054931641 8.289999961853027
116.5 227.2100067138672 7.53000020980835
113.9899978637695 217.1300048828125 7.199999809265137
114.3300018310547 218.3699951171875 7.550000190734863
114.4400024414062 218.9700012207031 7.789999961853027
116.7600021362305 228.2700042724609 7.210000038146973
116.2699966430664 226.1499938964844 7.849999904632568
114.1399993896484 217.7299957275391 7.389999866485596
114.9400024414062 220.8200073242188 8.090000152587891
115.2600021362305 222.0800018310547 8.510000228881836
117.7399978637695 229.5 6.989999771118164
117.5599975585938 228.9100036621094 7.119999885559082
115.5500030517578 223.3899993896484 8.720000267028809
117.4599990844727 228.3600006103516 7.309999942779541
117.3000030517578 227.8399963378906 7.429999828338623
116.75 225.5299987792969 8.180000305175781
116.4700012207031 224.3699951171875 8.539999961853027
115.7699966430664 221.4900054931641 8.420000076293945
117.0500030517578 226.6499938964844 7.860000133514404
116.8899993896484 226.1499938964844 8.010000228881836
114.9700012207031 218.3099975585938 7.480000019073486
115.9100036621094 222.1000061035156 8.600000381469727
116.6399993896484 224.9900054931641 8.340000152587891
114.6500015258789 217.0299987792969 7.090000152587891
114.4700012207031 216.3999938964844 6.849999904632568
116.3300018310547 223.8800048828125 8.729999542236328
115.4300003051758 220.2100067138672 8.060000419616699
115.620002746582 220.8699951171875 8.220000267028809
117.1600036621094 227.2799987792969 7.639999866485596
114.7799987792969 217.6999969482422 7.21999979019165
115.1500015258789 219 7.619999885559082
116.2099990844727 223.3099975585938 8.880000114440918
115.3000030517578 219.6100006103516 7.880000114440918
116.0699996948242 222.7400054931641 8.840000152587891
116.8199996948242 223.2400054931641 8.859999656677246
116.9899978637695 223.8699951171875 8.800000190734863
116.6600036621094 222.6100006103516 8.649999618530273
116.5199966430664 221.9799957275391 8.439999580383301
116.3399963378906 221.3300018310547 8.289999961853027
116.1900024414062 220.6699981689453 8.090000152587891
115.0999984741211 216.3399963378906 6.860000133514404
115.25 216.9299926757812 6.889999866485596
115.5299987792969 218.2100067138672 7.300000190734863
115.3899993896484 217.5899963378906 7.110000133514404
115.8499984741211 219.3999938964844 7.670000076293945
115.6999969482422 218.8000030517578 7.5
116.0199966430664 220.0200042724609 7.820000171661377
117.370002746582 225.5099945068359 8.340000152587891
117.2300033569336 224.9900054931641 8.510000228881836
117.0999984741211 224.3800048828125 8.670000076293945
117.6699981689453 226.6600036621094 7.989999771118164
117.5 226.0599975585938 8.140000343322754
117.7399978637695 224.8999938964844 8.590000152587891
117.3199996948242 223.2200012207031 8.729999542236328
116.870002746582 221.3800048828125 8.210000038146973
116.6900024414062 220.6999969482422 8.020000457763672
117.1399993896484 222.6399993896484 8.560000419616699
116.5199966430664 220.0899963378906 7.849999904632568
115.870002746582 217.5899963378906 7.079999923706055
115.5500030517578 216.3000030517578 6.800000190734863
117.4800033569336 223.8200073242188 8.949999809265137
116.0199966430664 218.2100067138672 7.300000190734863
115.7200012207031 216.9199981689453 6.940000057220459
116.2200012207031 218.8399963378906 7.460000038146973
116.4000015258789 219.5200042724609 7.659999847412109
117.5899963378906 224.3699951171875 8.800000190734863
117.0199966430664 222 8.390000343322754
117.5899963378906 221.9400024414062 8.560000419616699
116.8199996948242 218.8699951171875 7.730000019073486
116.3000030517578 216.9799957275391 7.119999885559082
116.6699981689453 218.25 7.550000190734863
117.7399978637695 222.6100006103516 8.789999961853027
117.25 220.6399993896484 8.229999542236328
117.120002746582 220.0599975585938 8.029999732971191
117.4300003051758 221.3000030517578 8.420000076293945
116.0299987792969 215.7200012207031 6.809999942779541
116.9599990844727 219.4299926757812 7.860000133514404
116.1399993896484 216.3200073242188 6.900000095367432
116.4700012207031 217.5800018310547 7.300000190734863
117.2900009155273 218.1900024414062 7.699999809265137
116.7600021362305 216.2299957275391 7.159999847412109
117.5899963378906 219.4299926757812 8.069999694824219
117.75 220.0700073242188 8.279999732971191
116.9599990844727 216.8500061035156 7.28000020980835
116.4599990844727 215 6.820000171661377
116.6100006103516 215.6199951171875 6.929999828338623
117.129997253418 217.5299987792969 7.559999942779541
117.4199981689453 218.7599945068359 7.909999847412109
116.8899993896484 214.2599945068359 6.789999961853027
117.2399978637695 215.5700073242188 7.130000114440918
117.0800018310547 214.8999938964844 6.989999771118164
117.7099990844727 217.4400024414062 7.690000057220459
117.4000015258789 216.1900024414062 7.329999923706055
117.5599975585938 216.8000030517578 7.480000019073486
117.7200012207031 215.5 7.28000020980835
117.4199981689453 214.25 6.949999809265137
117.5599975585938 214.8699951171875 7.119999885559082
117.2600021362305 213.6000061035156 6.809999942779541
119.0400009155273 232.3300018310547 6.800000190734863
118.5999984741211 230.5399932861328 6.78000020980835
117.8099975585938 227.2200012207031 7.800000190734863
118.3099975585938 229.3800048828125 7.119999885559082
118.1800003051758 228.7799987792969 7.28000020980835
118.4800033569336 229.9700012207031 6.900000095367432
118.0299987792969 228.2799987792969 7.449999809265137
117.9000015258789 227.7299957275391 7.639999866485596
117.879997253418 230.0399932861328 6.760000228881836
120.4000015258789 233.4499969482422 6.809999942779541
120.1600036621094 232.3600006103516 7.079999923706055
119.7099990844727 230.5599975585938 7.019999980926514
119.5599975585938 229.9600067138672 7.199999809265137
120.2699966430664 232.9199981689453 6.929999828338623
119.4300003051758 229.3999938964844 7.380000114440918
119.8099975585938 231.1100006103516 6.809999942779541
118.7099990844727 226.6300048828125 8.180000305175781
