242.1699981689453 286.3800048828125 6.340000152587891
242.5299987792969 286.3099975585938 7.489999771118164
239.4600067138672 287.5899963378906 6.5
241.8200073242188 286.989990234375 6.760000228881836
238.8699951171875 287.7699890136719 6.489999771118164
242.5299987792969 286.8200073242188 6.230000019073486
240.0599975585938 287.4299926757812 6.599999904632568
241.2299957275391 287.1700134277344 6.710000038146973
243.1100006103516 286.7000122070312 6.099999904632568
240.6100006103516 287.2999877929688 6.639999866485596
241.5599975585938 287.7099914550781 6.429999828338623
241.8099975585938 287.7099914550781 6.53000020980835
242.8899993896484 287.4400024414062 5.670000076293945
242.4799957275391 286.8699951171875 6.25
241.3899993896484 287.1300048828125 6.739999771118164
239.0800018310547 287.6799926757812 6.539999961853027
239.6100006103516 287.5599975585938 6.489999771118164
241.9900054931641 286.9700012207031 6.670000076293945
243.5899963378906 286.5499877929688 4.75
243.6900024414062 286.5299987792969 5.949999809265137
240.1699981689453 287.4400024414062 6.610000133514404
243.1000061035156 286.7099914550781 6.110000133514404
240.7700042724609 287.2699890136719 6.670000076293945
243.1900024414062 286.0199890136719 6.039999961853027
243.7100067138672 285.8999938964844 5.440000057220459
241.0399932861328 286.5899963378906 7.019999980926514
242.75 286.1400146484375 7.550000190734863
241.5899963378906 286.4299926757812 7.090000152587891
238.0599975585938 287.3099975585938 6.650000095367432
242.0899963378906 286.2900085449219 6.329999923706055
239.2899932861328 286.989990234375 6.809999942779541
243.6000061035156 285.9200134277344 4.21999979019165
239.8399963378906 286.8800048828125 6.900000095367432
240.4299926757812 286.739990234375 6.949999809265137
236.3099975585938 287.7300109863281 6.449999809265137
237.5399932861328 287.4200134277344 6.610000133514404
238.7100067138672 287.1400146484375 6.769999980926514
242.6399993896484 286.1499938964844 6.199999809265137
236.9100036621094 287.6000061035156 6.489999771118164
241.8000030517578 285.8299865722656 6.389999866485596
242.4199981689453 285.6799926757812 7.369999885559082
240.6999969482422 286.0899963378906 7.300000190734863
240.0700073242188 286.2699890136719 7.230000019073486
238.9600067138672 286.5299987792969 7.090000152587891
238.4400024414062 286.6499938964844 7.03000020980835
241.9400024414062 285.8299865722656 7.489999771118164
239.5299987792969 286.4100036621094 7.159999847412109
241.2700042724609 285.9700012207031 7.389999866485596
237.8300018310547 286.8200073242188 6.909999847412109
234.9600067138672 287.5299987792969 6.519999980926514
236.6999969482422 287.0799865722656 6.820000171661377
242.3300018310547 285.6700134277344 6.289999961853027
236.0899963378906 287.239990234375 6.690000057220459
242.9700012207031 285.5400085449219 6.150000095367432
237.2599945068359 286.9500122070312 6.849999904632568
235.5399932861328 287.4100036621094 6.659999847412109
243.5 285.3800048828125 5.760000228881836
243.5700073242188 284.739990234375 4.389999866485596
243.7299957275391 284.7000122070312 5.849999904632568
243.2100067138672 284.8299865722656 6.059999942779541
241.6399993896484 285.2300109863281 7.769999980926514
242.1000061035156 285.1199951171875 6.329999923706055
238.1399993896484 286.1199951171875 7.300000190734863
236.9900054931641 286.3800048828125 7.170000076293945
242.2200012207031 285.0799865722656 7.369999885559082
238.7599945068359 285.9500122070312 7.389999866485596
239.3800048828125 285.7999877929688 7.440000057220459
240.5099945068359 285.5499877929688 7.619999885559082
235.25 286.8599853515625 6.949999809265137
236.3800048828125 286.5599975585938 7.059999942779541
239.9199981689453 285.6600036621094 7.53000020980835
242.6300048828125 285 6.21999979019165
234.6499938964844 286.9599914550781 6.869999885559082
241.1199951171875 285.3999938964844 7.679999828338623
235.7599945068359 286.7099914550781 6.989999771118164
237.6199951171875 286.239990234375 7.25
241.8800048828125 284.489990234375 7.429999828338623
243.5500030517578 284.0799865722656 5.96999979019165
241.7899932861328 284.5 6.409999847412109
241.3300018310547 284.6600036621094 7.809999942779541
240.7599945068359 284.7999877929688 7.880000114440918
242.3600006103516 284.3599853515625 6.320000171661377
236.1300048828125 285.9100036621094 7.429999828338623
236.7799987792969 285.7699890136719 7.449999809265137
239.5700073242188 285.0899963378906 7.880000114440918
235.0399932861328 286.2000122070312 7.230000019073486
238.4400024414062 285.3699951171875 7.710000038146973
240.1499938964844 284.9299926757812 7.920000076293945
237.9400024414062 285.510009765625 7.650000095367432
237.3300018310547 285.6499938964844 7.53000020980835
239.0599975585938 285.1900024414062 7.789999961853027
242.9100036621094 284.2200012207031 6.150000095367432
235.5899963378906 286.0499877929688 7.349999904632568
243.6100006103516 283.3900146484375 5.940000057220459
242.5299987792969 283.6600036621094 6.289999961853027
242.0299987792969 283.8200073242188 7.380000114440918
240.3300018310547 284.2099914550781 7.639999866485596
240.8899993896484 284.1000061035156 7.570000171661377
236.9100036621094 285.1000061035156 7.869999885559082
238.6199951171875 284.6700134277344 7.829999923706055
241.4700012207031 283.9400024414062 7.440000057220459
239.7799987792969 284.3500061035156 7.699999809265137
235.6900024414062 285.3999938964844 7.670000076293945
238.0800018310547 284.7900085449219 7.909999847412109
239.2700042724609 284.489990234375 7.849999904632568
235.1199951171875 285.5400085449219 7.610000133514404
236.2799987792969 285.239990234375 7.75
241.9799957275391 283.8399963378906 6.369999885559082
243.0599975585938 283.5599975585938 6.130000114440918
237.4900054931641 284.9599914550781 7.940000057220459
243.3699951171875 282.8699951171875 6.050000190734863
242.8099975585938 283.0199890136719 6.239999771118164
242.2200012207031 283.1799926757812 6.340000152587891
241.1399993896484 283.4500122070312 7.190000057220459
241.75 283.3200073242188 7.170000076293945
242.3099975585938 283.1600036621094 7.659999847412109
240.5399932861328 283.5899963378906 7.28000020980835
239.3999938964844 283.8800048828125 7.449999809265137
238.8800048828125 284.0400085449219 7.489999771118164
237.2100067138672 284.4700012207031 7.739999771118164
238.3200073242188 284.1499938964844 7.610000133514404
239.9400024414062 283.7699890136719 7.340000152587891
235.4799957275391 284.8900146484375 8.010000228881836
236.0500030517578 284.7200012207031 7.929999828338623
236.6499938964844 284.6000061035156 7.820000171661377
237.7899932861328 284.3200073242188 7.690000057220459
241.3500061035156 282.75 6.789999961853027
240.2599945068359 283.0299987792969 7.050000190734863
240.8600006103516 282.8599853515625 6.880000114440918
242.0099945068359 282.6000061035156 7.340000152587891
241.9400024414062 282.5799865722656 6.429999828338623
236.8099975585938 283.8900146484375 7.449999809265137
238.5599975585938 283.4599914550781 7.21999979019165
239.1699981689453 283.2999877929688 7.110000133514404
237.4499969482422 283.7000122070312 7.440000057220459
239.6999969482422 283.1300048828125 7.099999904632568
237.9900054931641 283.6000061035156 7.28000020980835
235.6699981689453 284.1600036621094 7.570000171661377
235.1199951171875 284.2900085449219 7.679999828338623
236.2899932861328 284.0299987792969 7.550000190734863
237.1199951171875 283.0700073242188 7.110000133514404
236.5299987792969 283.2099914550781 7.159999847412109
237.6699981689453 282.9299926757812 6.980000019073486
235.9700012207031 283.3699951171875 7.170000076293945
239.3200073242188 282.5499877929688 6.789999961853027
238.2200012207031 282.8099975585938 6.949999809265137
238.7799987792969 282.6499938964844 6.949999809265137
237.2899932861328 282.3900146484375 6.710000038146973
236.8099975585938 282.5400085449219 7.579999923706055
236.1000061035156 282.6900024414062 6.880000114440918
235.5599975585938 282.8399963378906 6.920000076293945
236.7200012207031 282.510009765625 6.909999847412109
236.7700042724609 282.3500061035156 7.460000038146973
235.8999938964844 282.6000061035156 6.800000190734863
236.1199951171875 283.2300109863281 7.119999885559082
235.0200042724609 283.489990234375 7.420000076293945
235.5700073242188 283.3800048828125 7.190000057220459
236.7799987792969 283.0400085449219 7.050000190734863
243.3600006103516 282.2000122070312 4.989999771118164
237.1399993896484 283.7099914550781 7.409999847412109
235.3399963378906 284.1499938964844 7.849999904632568
236.5399932861328 283.8900146484375 7.489999771118164
239.0099945068359 283.239990234375 7.110000133514404
235.9100036621094 284.0299987792969 7.550000190734863
238.4400024414062 283.4100036621094 7.25
237.8000030517578 283.5400085449219 7.340000152587891
241.4799957275391 282.6600036621094 6.71999979019165
240.8200073242188 282.7900085449219 6.900000095367432
240.2599945068359 282.9400024414062 6.940000057220459
238.6900024414062 284.0199890136719 7.460000038146973
239.2799987792969 283.8500061035156 7.409999847412109
240.5599975585938 283.5199890136719 7.260000228881836
242.25 283.1400146484375 6.349999904632568
238.0800018310547 284.1499938964844 7.590000152587891
242.8500061035156 283 6.170000076293945
239.8999938964844 283.7200012207031 7.349999904632568
241.8300018310547 283.2099914550781 7.110000133514404
243.4100036621094 282.8299865722656 5.989999771118164
241.1399993896484 283.3999938964844 7.139999866485596
237.4600067138672 284.3299865722656 7.679999828338623
236.1900024414062 284.6199951171875 7.860000133514404
235.5899963378906 284.7699890136719 7.929999828338623
236.8500061035156 284.489990234375 7.789999961853027
237.0200042724609 284.9800109863281 7.920000076293945
237.6900024414062 284.8200073242188 7.909999847412109
239.5700073242188 284.3500061035156 7.690000057220459
238.3500061035156 284.6499938964844 7.860000133514404
241.3600006103516 283.8999938964844 7.420000076293945
240.7599945068359 284.0499877929688 7.570000171661377
242.0099945068359 283.7699890136719 7.340000152587891
242.25 283.7099914550781 6.349999904632568
241.7299957275391 283.8599853515625 6.610000133514404
242.9100036621094 283.5599975585938 6.230000019073486
238.9600067138672 284.5299987792969 7.75
240.1300048828125 284.2000122070312 7.639999866485596
236.25 285.2099914550781 7.78000020980835
234.9400024414062 285.5400085449219 7.659999847412109
235.6499938964844 285.3299865722656 7.71999979019165
242.1399993896484 284.4299926757812 7.289999961853027
242.5 284.3500061035156 6.28000020980835
239.7400054931641 285 7.889999866485596
243.0299987792969 284.2200012207031 6.179999828338623
241.8200073242188 284.510009765625 6.429999828338623
241.0399932861328 284.7000122070312 7.860000133514404
241.6199951171875 284.5499877929688 7.710000038146973
239 285.1900024414062 7.739999771118164
240.4100036621094 284.8299865722656 7.900000095367432
234.9400024414062 286.2099914550781 7.28000020980835
237.7100067138672 285.5400085449219 7.579999923706055
238.3099975585938 285.3800048828125 7.659999847412109
236.2899932861328 285.8699951171875 7.409999847412109
243.1699981689453 284.9599914550781 6.090000152587891
236.9499969482422 285.7200012207031 7.5
242.6000061035156 285.0899963378906 6.269999980926514
235.6100006103516 286.0700073242188 7.289999961853027
235.6399993896484 286.8500061035156 6.900000095367432
235.0399932861328 286.989990234375 6.829999923706055
237.0899963378906 286.489990234375 7.099999904632568
238.5 286.1199951171875 7.289999961853027
241.1600036621094 285.4700012207031 7.679999828338623
239.1399993896484 285.9700012207031 7.389999866485596
236.3800048828125 286.6600036621094 7.019999980926514
241.9700012207031 285.2699890136719 6.369999885559082
240.5 285.6099853515625 7.539999961853027
242.3200073242188 285.1700134277344 7.300000190734863
239.7899932861328 285.7900085449219 7.460000038146973
237.8200073242188 286.2699890136719 7.25
241.7799987792969 285.3099975585938 7.619999885559082
236.5200042724609 287.3800048828125 6.679999828338623
237.2299957275391 287.1600036621094 6.75
235.8099975585938 287.5599975585938 6.550000190734863
240.6399993896484 286.3099975585938 7.150000095367432
242.3600006103516 285.9100036621094 6.28000020980835
242.0899963378906 285.9800109863281 7.440000057220459
241.7599945068359 286.0400085449219 6.539999961853027
238.5500030517578 286.8299865722656 6.909999847412109
235.1300048828125 287.7200012207031 6.510000228881836
239.9499969482422 286.510009765625 7.119999885559082
239.2400054931641 286.6600036621094 6.989999771118164
241.3600006103516 286.1300048828125 7.260000228881836
237.8999938964844 287.0299987792969 6.789999961853027
242.9400024414062 285.7699890136719 6.139999866485596
243.5599975585938 286.2099914550781 5.980000019073486
238.0099945068359 287.6199951171875 6.550000190734863
239.9799957275391 287.1099853515625 6.78000020980835
239.3000030517578 287.2799987792969 6.690000057220459
242.3600006103516 286.489990234375 6.28000020980835
242.9600067138672 286.3599853515625 6.139999866485596
237.3300018310547 287.75 6.550000190734863
238.6300048828125 287.4299926757812 6.599999904632568
241.9100036621094 286.6300048828125 6.559999942779541
241.3399963378906 286.7799987792969 6.960000038146973
240.6699981689453 286.9400024414062 6.880000114440918
240 287.75 6.550000190734863
243.0800018310547 287 4.320000171661377
241.3999938964844 287.4400024414062 6.610000133514404
242.5500030517578 287.1300048828125 6.260000228881836
240.6900024414062 287.5700073242188 6.519999980926514
243.1199951171875 286.9800109863281 6.039999961853027
242.1300048828125 287.2200012207031 6.75
243.0200042724609 287.75 5.559999942779541
234.7400054931641 287.3299865722656 6.489999771118164
235.3999938964844 287.5199890136719 6.539999961853027
236.1999969482422 287.6799926757812 6.53000020980835
235.9400024414062 287.1199951171875 6.769999980926514
235.2799987792969 286.9200134277344 6.820000171661377
237.4799957275391 287.4800109863281 6.590000152587891
236.7599945068359 287.2799987792969 6.639999866485596
238.1799926757812 287.6199951171875 6.550000190734863
235.25 286.9500122070312 5.260000228881836
237.4700012207031 286.7999877929688 6.900000095367432
235.2700042724609 286.2999877929688 5.409999847412109
235.8899993896484 286.4599914550781 7.130000114440918
240.3399963378906 287.510009765625 6.559999942779541
238.2299957275391 286.989990234375 6.809999942779541
239.6900024414062 287.3599853515625 6.599999904632568
236.7299957275391 286.6499938964844 7.03000020980835
241.1100006103516 287.7000122070312 6.550000190734863
235.1600036621094 286.260009765625 7.210000038146973
238.9100036621094 287.1499938964844 6.739999771118164
235.7200012207031 285.6400146484375 7.519999980926514
236.4100036621094 285.8500061035156 7.440000057220459
235.4199981689453 285.6000061035156 5.159999847412109
241.75 287.1300048828125 6.760000228881836
237.9700012207031 286.1799926757812 7.230000019073486
237.2299957275391 286 7.340000152587891
240.9900054931641 286.9200134277344 6.809999942779541
243.0299987792969 287.4200134277344 5.570000171661377
239.4400024414062 286.5400085449219 7.039999961853027
240.2400054931641 286.7799987792969 6.940000057220459
238.6600036621094 286.3800048828125 7.110000133514404
237.0200042724609 285.3299865722656 7.679999828338623
235.4499969482422 284.9500122070312 7.840000152587891
237.8200073242188 285.5199890136719 7.510000228881836
239.2400054931641 285.8699951171875 7.340000152587891
240.6999969482422 286.2300109863281 7.139999866485596
241.4799957275391 286.4500122070312 7.090000152587891
240.0099945068359 286.0499877929688 7.25
243.3600006103516 286.8800048828125 6.150000095367432
242.5899963378906 286.6799926757812 6.179999828338623
238.5299987792969 285.7000122070312 7.440000057220459
236.2299957275391 285.1300048828125 7.730000019073486
235.2700042724609 284.9500122070312 5.260000228881836
235.3999938964844 284.9700012207031 6.53000020980835
237.4600067138672 284.9400024414062 7.880000114440918
239.7400054931641 285.489990234375 7.610000133514404
238.9400024414062 285.2699890136719 7.699999809265137
238.1799926757812 285.1099853515625 7.760000228881836
240.5399932861328 285.6900024414062 7.5
243.3099975585938 286.3399963378906 6.079999923706055
236.1000061035156 284.5700073242188 7.920000076293945
241.2299957275391 285.8299865722656 7.389999866485596
242.5399932861328 286.1600036621094 6.190000057220459
241.9499969482422 286.0199890136719 7.5
236.7400054931641 284.739990234375 7.900000095367432
236.8600006103516 284.2099914550781 7.670000076293945
238.9400024414062 284.7300109863281 7.880000114440918
242.5800018310547 285.6000061035156 7.400000095367432
240.9799957275391 285.239990234375 7.789999961853027
242.5 285.5899963378906 6.199999809265137
241.8600006103516 285.4400024414062 7.590000152587891
239.5299987792969 284.8800048828125 7.949999809265137
240.3200073242188 285.0700073242188 7.889999866485596
243.2200012207031 285.7799987792969 6.039999961853027
238.25 284.5400085449219 7.869999885559082
237.5700073242188 284.3800048828125 7.78000020980835
237.5599975585938 283.7099914550781 7.539999961853027
238.9400024414062 284.0700073242188 7.550000190734863
243.2200012207031 285.1199951171875 6.070000171661377
240.2599945068359 284.3699951171875 7.760000228881836
240.9299926757812 284.5299987792969 7.869999885559082
239.5700073242188 284.2000122070312 7.670000076293945
238.3600006103516 283.3200073242188 7.210000038146973
239.0200042724609 283.4700012207031 7.320000171661377
241.6300048828125 284.1400146484375 7.559999942779541
240.3600006103516 283.8299865722656 7.449999809265137
239.7299957275391 283.6400146484375 7.400000095367432
243.1000061035156 284.510009765625 6.079999923706055
240.9700012207031 283.9500122070312 7.559999942779541
242.2899932861328 284.2799987792969 6.159999847412109
240.1999969482422 283.2000122070312 7.360000133514404
240.9499969482422 283.3800048828125 7.320000171661377
242.8899993896484 283.8999938964844 6.170000076293945
243.7799987792969 284.1099853515625 5.880000114440918
241.6999969482422 283.5799865722656 7.329999923706055
241.6600036621094 282.9299926757812 7.230000019073486
242.8200073242188 283.2300109863281 6.199999809265137
242.0899963378906 283.0199890136719 7.739999771118164
242.0500030517578 283.0700073242188 6.349999904632568
243.6799926757812 283.4299926757812 5.96999979019165
243.0899963378906 282.6000061035156 5.539999961853027
243.5599975585938 282.7200012207031 5.980000019073486
243.2299957275391 282.3699951171875 5.659999847412109
241.4900054931641 282.6700134277344 6.829999923706055
240.8500061035156 282.5400085449219 6.789999961853027
242.1600036621094 282.8599853515625 6.329999923706055
241.9900054931641 282.7999877929688 7.409999847412109
242.8099975585938 282.9800109863281 6.21999979019165
243.4499969482422 283.1799926757812 6.050000190734863
238.3200073242188 282.5 6.78000020980835
237.75 282.3999938964844 6.78000020980835
239.4600067138672 282.7999877929688 7.050000190734863
242.9299926757812 283.6900024414062 7.190000057220459
243.1699981689453 283.7000122070312 6.099999904632568
243.75 283.8900146484375 5.900000095367432
242.3200073242188 283.5400085449219 7.550000190734863
241.2400054931641 283.2300109863281 7.099999904632568
241.7400054931641 283.3999938964844 7.199999809265137
240.5899963378906 283.1000061035156 7.070000171661377
240.1100006103516 282.9800109863281 6.980000019073486
242.5899963378906 283.5599975585938 6.239999771118164
238.6000061035156 283.1799926757812 7.070000171661377
237.4100036621094 282.8599853515625 6.989999771118164
236.8000030517578 282.739990234375 7
238.0099945068359 283.0199890136719 7.03000020980835
242.0599975585938 284.0299987792969 7.369999885559082
242.8200073242188 284.2099914550781 6.230000019073486
242.2899932861328 284.1099853515625 6.320000171661377
241.4100036621094 283.8699951171875 7.46999979019165
239.1300048828125 283.3200073242188 7.130000114440918
239.6799926757812 283.4299926757812 7.21999979019165
240.8500061035156 283.7300109863281 7.349999904632568
240.25 283.6099853515625 7.320000171661377
243.5 284.3800048828125 5.989999771118164
236.9799957275391 283.4400024414062 7.21999979019165
236.3699951171875 283.2799987792969 7.239999771118164
243.0800018310547 284.9800109863281 6.099999904632568
241.5700073242188 284.6199951171875 7.840000152587891
242.4700012207031 284.8299865722656 6.230000019073486
240.4199981689453 284.3299865722656 7.710000038146973
239.8600006103516 284.1900024414062 7.599999904632568
238.7299957275391 283.8800048828125 7.460000038146973
242.3300018310547 284.7900085449219 7.21999979019165
243.7700042724609 285.1199951171875 5.409999847412109
239.3200073242188 284.0400085449219 7.559999942779541
241.0099945068359 284.4500122070312 7.789999961853027
238.1499938964844 283.7300109863281 7.389999866485596
237.5800018310547 283.5799865722656 7.360000133514404
235.4199981689453 283.8699951171875 7.510000228881836
235.9900054931641 283.9800109863281 7.559999942779541
236.5700073242188 284.1300048828125 7.659999847412109
235.0200042724609 283.7200012207031 6.519999980926514
242.7100067138672 285.6499938964844 6.21999979019165
241.8500061035156 285.4400024414062 7.650000095367432
243.3600006103516 285.7999877929688 6
239.4100036621094 284.8399963378906 7.920000076293945
241.2200012207031 285.3200073242188 7.739999771118164
238.8800048828125 284.7300109863281 7.909999847412109
237.7599945068359 284.4299926757812 7.78000020980835
240.0099945068359 284.9800109863281 7.909999847412109
240.5899963378906 285.1300048828125 7.860000133514404
242.0899963378906 285.5 6.309999942779541
237.1399993896484 284.2999877929688 7.739999771118164
238.2700042724609 284.5899963378906 7.840000152587891
241.6399993896484 286.0599975585938 7.380000114440918
240.4499969482422 285.760009765625 7.489999771118164
243.0299987792969 286.3999938964844 6.110000133514404
239.8899993896484 285.6199951171875 7.559999942779541
238.6300048828125 285.2900085449219 7.739999771118164
236.7899932861328 284.8399963378906 7.920000076293945
238.0299987792969 285.1600036621094 7.820000171661377
243.6499938964844 286.5199890136719 5.96999979019165
236.2200012207031 284.6799926757812 7.929999828338623
235.6000061035156 284.5400085449219 7.829999923706055
241.0800018310547 285.9200134277344 7.400000095367432
239.2299957275391 285.4700012207031 7.690000057220459
242.5 286.2699890136719 6.269999980926514
237.4400024414062 284.989990234375 7.929999828338623
243.4199981689453 287.0599975585938 6.090000152587891
242.7799987792969 286.8599853515625 6.199999809265137
241.4400024414062 286.5799865722656 7.099999904632568
240.7799987792969 286.3800048828125 7.139999866485596
238.9700012207031 285.9700012207031 7.440000057220459
238.4400024414062 285.8299865722656 7.460000038146973
236.6300048828125 285.3599853515625 7.699999809265137
242.1499938964844 286.75 6.289999961853027
235.4299926757812 285.0199890136719 4.730000019073486
235.4400024414062 285.0899963378906 7.900000095367432
235.9799957275391 285.2200012207031 7.730000019073486
240.1499938964844 286.2200012207031 7.239999771118164
237.8600006103516 285.6799926757812 7.480000019073486
237.1900024414062 285.489990234375 7.650000095367432
239.5899963378906 286.0799865722656 7.340000152587891
240.5800018310547 286.9500122070312 6.840000152587891
241.1699981689453 287.1000061035156 6.760000228881836
238.7700042724609 286.5 7.050000190734863
239.9900054931641 286.7999877929688 6.949999809265137
241.7700042724609 287.2699890136719 6.679999828338623
236.9600067138672 286.0499877929688 7.309999942779541
238.1399993896484 286.3399963378906 7.190000057220459
239.4299926757812 286.6700134277344 6.96999979019165
237.5500030517578 286.2099914550781 7.230000019073486
243.1900024414062 287.6099853515625 5.579999923706055
236.3099975585938 285.8800048828125 7.429999828338623
235.1100006103516 285.5899963378906 7.53000020980835
235.6699981689453 285.760009765625 7.46999979019165
240.2400054931641 287.6300048828125 6.489999771118164
239.6399993896484 287.489990234375 6.590000152587891
236.1100006103516 286.6099853515625 7.090000152587891
238.5200042724609 287.1700134277344 6.800000190734863
234.9600067138672 286.2900085449219 7.150000095367432
240.8699951171875 287.7699890136719 6.440000057220459
235.5200042724609 286.4599914550781 7.190000057220459
236.6799926757812 286.75 6.989999771118164
237.9100036621094 287.0299987792969 6.789999961853027
237.3200073242188 286.8800048828125 6.909999847412109
239.0500030517578 287.3500061035156 6.690000057220459
237.7100067138672 287.6499938964844 6.539999961853027
237.0899963378906 287.510009765625 6.550000190734863
236.4799957275391 287.3599853515625 6.639999866485596
234.6699981689453 286.8900146484375 6.78000020980835
235.8000030517578 287.2099914550781 6.75
235.2799987792969 287.0499877929688 6.789999961853027
235.1199951171875 287.6499938964844 6.53000020980835
243.3200073242188 282.5299987792969 5.849999904632568
241.9499969482422 282.7900085449219 7.449999809265137
240.7700042724609 282.5199890136719 6.75
242.9700012207031 283.0700073242188 6.159999847412109
243.5800018310547 283.2000122070312 5.949999809265137
242.4700012207031 282.9100036621094 6.25
241.3899993896484 282.6499938964844 6.769999980926514
240.2599945068359 282.3500061035156 6.920000076293945
241.8600006103516 282.760009765625 6.420000076293945
237.5800018310547 282.3699951171875 6.690000057220459
237.0099945068359 282.2099914550781 6.659999847412109
239.8999938964844 282.9500122070312 6.980000019073486
239.3300018310547 282.7799987792969 6.929999828338623
238.7299957275391 282.6600036621094 6.869999885559082
241.6499938964844 283.3599853515625 7.179999828338623
242.25 283.5299987792969 7.489999771118164
240.4600067138672 283.0599975585938 7.050000190734863
242.6999969482422 283.6700134277344 6.230000019073486
243.3000030517578 283.8099975585938 6.059999942779541
241.0200042724609 283.2099914550781 7.079999923706055
243.8699951171875 283.9400024414062 5.820000171661377
242.8099975585938 283.6600036621094 7.090000152587891
242.1000061035156 283.5199890136719 6.360000133514404
238.3699951171875 283.2999877929688 7.199999809265137
236.6199951171875 282.8699951171875 7.110000133514404
237.7599945068359 283.1600036621094 7.050000190734863
238.9400024414062 283.4800109863281 7.210000038146973
239.5800018310547 283.6000061035156 7.329999923706055
237.1999969482422 283.0400085449219 7.070000171661377
236.0299987792969 282.739990234375 6.909999847412109
241.2400054931641 284.0199890136719 7.539999961853027
243.3899993896484 284.5799865722656 6.010000228881836
242.2899932861328 284.2999877929688 6.329999923706055
240.6900024414062 283.8900146484375 7.460000038146973
242.8500061035156 284.4599914550781 6.159999847412109
240.1100006103516 283.7699890136719 7.389999866485596
241.6900024414062 284.1799926757812 6.409999847412109
241.8200073242188 284.1700134277344 7.480000019073486
235.6499938964844 283.3500061035156 7.289999961853027
238.4600067138672 284.0499877929688 7.559999942779541
237.3200073242188 283.739990234375 7.440000057220459
239.0800018310547 284.2099914550781 7.670000076293945
241.3999938964844 284.7799987792969 7.900000095367432
237.8899993896484 283.9100036621094 7.539999961853027
240.1600036621094 284.4800109863281 7.809999942779541
241.9400024414062 284.9299926757812 7.550000190734863
239.6399993896484 284.3200073242188 7.699999809265137
236.2100067138672 283.4500122070312 7.28000020980835
241.8000030517578 284.8999938964844 6.389999866485596
236.7599945068359 283.6199951171875 7.320000171661377
240.7899932861328 284.6099853515625 7.829999923706055
243.5099945068359 285.3200073242188 5.369999885559082
242.9700012207031 285.1700134277344 6.130000114440918
242.4100036621094 285.0599975585938 6.349999904632568
235.1999969482422 283.8599853515625 7.510000228881836
236.3500061035156 284.1499938964844 7.699999809265137
237.5399932861328 284.4500122070312 7.800000190734863
239.3500061035156 284.9100036621094 7.900000095367432
235.7700042724609 284.0199890136719 7.670000076293945
236.9799957275391 284.3200073242188 7.690000057220459
238.1300048828125 284.6000061035156 7.880000114440918
238.7200012207031 284.739990234375 7.920000076293945
240.4199981689453 285.1799926757812 7.769999980926514
242.0700073242188 285.6199951171875 7.480000019073486
242.5599975585938 285.760009765625 6.309999942779541
240.9400024414062 285.3399963378906 7.730000019073486
243.5700073242188 286.0400085449219 4.619999885559082
241.9799957275391 285.5899963378906 6.369999885559082
243.6300048828125 286.010009765625 5.630000114440918
239.8899993896484 285.0400085449219 7.820000171661377
243.1000061035156 285.8999938964844 6.090000152587891
241.5399932861328 285.4599914550781 7.599999904632568
235.0800018310547 284.5299987792969 8.420000076293945
236.6699981689453 284.9500122070312 7.869999885559082
235.5500030517578 284.6900024414062 7.880000114440918
237.8300018310547 285.2200012207031 7.820000171661377
236.1199951171875 284.7999877929688 7.920000076293945
238.3500061035156 285.3900146484375 7.679999828338623
241.7700042724609 286.2300109863281 7.25
239.5 285.6499938964844 7.489999771118164
240.0299987792969 285.7900085449219 7.429999828338623
241.6699981689453 286.2200012207031 6.429999828338623
242.8600006103516 286.5400085449219 6.199999809265137
240.5899963378906 285.9599914550781 7.369999885559082
238.9400024414062 285.5400085449219 7.610000133514404
237.2100067138672 285.0700073242188 7.889999866485596
243.4600067138672 286.6700134277344 5.989999771118164
242.2899932861328 286.3900146484375 6.269999980926514
241.2299957275391 286.0799865722656 7.320000171661377
235.1699981689453 285.3500061035156 7.690000057220459
235.6900024414062 285.5 7.639999866485596
237.4600067138672 285.9400024414062 7.360000133514404
238.6000061035156 286.2300109863281 7.239999771118164
236.8999938964844 285.7999877929688 7.510000228881836
239.7799987792969 286.5199890136719 7.099999904632568
236.3099975585938 285.6199951171875 7.559999942779541
240.8300018310547 286.760009765625 6.960000038146973
242.4700012207031 287.1799926757812 6.199999809265137
242 287.0899963378906 6.869999885559082
239.1699981689453 286.3800048828125 7.139999866485596
238.0099945068359 286.0599975585938 7.320000171661377
241.3500061035156 286.9299926757812 6.840000152587891
243.0299987792969 287.3599853515625 5.570000171661377
240.3000030517578 286.6499938964844 6.989999771118164
238.2100067138672 286.7999877929688 6.900000095367432
235.4100036621094 286.0899963378906 7.28000020980835
238.8000030517578 286.9500122070312 6.869999885559082
239.3099975585938 287.0700073242188 6.789999961853027
241.0299987792969 287.5 6.539999961853027
237.6600036621094 286.6799926757812 7.019999980926514
236.4900054931641 286.3800048828125 7.150000095367432
240.4400024414062 287.3500061035156 6.619999885559082
239.8999938964844 287.2300109863281 6.690000057220459
235.9700012207031 286.2200012207031 7.230000019073486
237.0299987792969 286.5299987792969 7.110000133514404
241.5700073242188 287.6400146484375 6.489999771118164
234.8800048828125 285.9400024414062 7.429999828338623
236.7599945068359 287.0400085449219 6.78000020980835
238.4199981689453 287.5 6.559999942779541
235.0200042724609 286.6300048828125 7.03000020980835
236.1199951171875 286.8800048828125 6.880000114440918
239.0399932861328 287.6499938964844 6.5
239.6100006103516 287.7900085449219 6.5
237.8899993896484 287.3399963378906 6.630000114440918
235.5399932861328 286.760009765625 6.940000057220459
237.2899932861328 287.1700134277344 6.71999979019165
235.2100067138672 287.3800048828125 6.610000133514404
236.3000030517578 287.6400146484375 6.510000228881836
235.8099975585938 287.510009765625 6.550000190734863
234.7100067138672 287.2099914550781 6.670000076293945
242.8300018310547 284.2699890136719 6.199999809265137
242.2799987792969 284.1300048828125 6.380000114440918
239.9199981689453 283.5499877929688 7.190000057220459
241.3200073242188 283.9299926757812 7.449999809265137
241.6499938964844 283.9800109863281 6.590000152587891
238.4799957275391 283.1900024414062 7.050000190734863
243.5899963378906 284.4500122070312 4.670000076293945
239.2299957275391 283.4100036621094 7.230000019073486
243.3800048828125 284.4200134277344 6.019999980926514
241.9299926757812 284.0899963378906 7.389999866485596
240.6399993896484 283.7300109863281 7.289999961853027
237.2100067138672 282.8800048828125 6.929999828338623
237.8200073242188 283.0299987792969 7
243.75 285.1600036621094 5.099999904632568
241.6399993896484 284.6700134277344 6.579999923706055
241.4700012207031 284.6099853515625 7.809999942779541
240.8200073242188 284.4500122070312 7.75
242.5 284.8699951171875 7.179999828338623
238.7200012207031 283.9200134277344 7.460000038146973
242.7899932861328 284.9400024414062 6.190000057220459
241.9700012207031 284.7699890136719 7.480000019073486
243.3899993896484 285.0599975585938 6.03000020980835
238.0700073242188 283.760009765625 7.409999847412109
242.2100067138672 284.7799987792969 6.329999923706055
235.9799957275391 283.2799987792969 7.170000076293945
235.3699951171875 283.1000061035156 7.179999828338623
239.4400024414062 284.1400146484375 7.570000171661377
236.7200012207031 283.4400024414062 7.170000076293945
237.3999938964844 283.5899963378906 7.309999942779541
240.0800018310547 284.2900085449219 7.599999904632568
243.4700012207031 285.8800048828125 5.940000057220459
242.8500061035156 285.7099914550781 6.190000057220459
243.7599945068359 285.9100036621094 5.119999885559082
241.7299957275391 285.4599914550781 6.489999771118164
242.2700042724609 285.5799865722656 6.320000171661377
236.8099975585938 284.239990234375 7.590000152587891
238.1600036621094 284.5700073242188 7.78000020980835
239.5599975585938 284.9100036621094 7.940000057220459
236.1799926757812 284.0799865722656 7.559999942779541
240.8500061035156 285.2300109863281 7.820000171661377
242.1000061035156 285.5400085449219 7.510000228881836
238.8600006103516 284.7799987792969 7.889999866485596
237.4900054931641 284.4299926757812 7.730000019073486
235.5399932861328 283.9100036621094 7.539999961853027
241.4700012207031 285.3800048828125 7.699999809265137
240.25 285.1099853515625 7.849999904632568
243.0099945068359 286.4500122070312 6.110000133514404
241.8099975585938 286.1799926757812 6.460000038146973
240.9199981689453 285.9500122070312 7.389999866485596
242.4199981689453 286.2900085449219 6.260000228881836
237.8800048828125 285.1900024414062 7.869999885559082
240.3300018310547 285.8200073242188 7.460000038146973
238.4499969482422 285.3599853515625 7.730000019073486
243.5800018310547 286.5799865722656 5.71999979019165
239.1000061035156 285.5 7.690000057220459
235.8899993896484 284.7300109863281 7.889999866485596
237.25 285.0299987792969 7.960000038146973
242.8600006103516 286.4500122070312 7.510000228881836
236.5399932861328 284.8900146484375 7.880000114440918
239.6600036621094 285.6400146484375 7.559999942779541
241.5399932861328 286.0899963378906 7.360000133514404
237.7899932861328 285.8299865722656 7.440000057220459
238.4499969482422 285.9700012207031 7.380000114440918
236.0200042724609 285.3900146484375 7.699999809265137
236.5700073242188 285.5299987792969 7.630000114440918
235.3999938964844 285.2099914550781 7.760000228881836
237.1999969482422 285.6499938964844 7.570000171661377
241.5899963378906 286.7699890136719 6.929999828338623
242.6199951171875 286.9800109863281 6.199999809265137
243.1799926757812 287.1499938964844 5.929999828338623
242.0299987792969 286.8399963378906 6.340000152587891
240.3300018310547 286.4200134277344 7.159999847412109
241.0099945068359 286.6099853515625 7.010000228881836
239.7599945068359 286.2900085449219 7.199999809265137
239.1000061035156 286.1499938964844 7.329999923706055
239.1100006103516 286.8599853515625 6.949999809265137
241.5200042724609 287.4299926757812 6.570000171661377
240.3200073242188 287.1600036621094 6.75
240.9799957275391 287.3099975585938 6.650000095367432
237.8399963378906 286.5199890136719 7.099999904632568
234.8200073242188 285.760009765625 7.630000114440918
238.5399932861328 286.7099914550781 7.019999980926514
236.0099945068359 286.0599975585938 7.340000152587891
237.2799987792969 286.3800048828125 7.150000095367432
235.3699951171875 285.9200134277344 7.400000095367432
236.6300048828125 286.25 7.260000228881836
239.75 287.0199890136719 6.860000133514404
235.2899932861328 286.7000122070312 7.039999961853027
237.1000061035156 287.1099853515625 6.78000020980835
239.6499938964844 287.7200012207031 6.489999771118164
238.4199981689453 287.4500122070312 6.619999885559082
235.8800048828125 286.7999877929688 6.960000038146973
239.0500030517578 287.5799865722656 6.550000190734863
237.7599945068359 287.2699890136719 6.71999979019165
236.5200042724609 286.9599914550781 6.869999885559082
236.4400024414062 287.5899963378906 4.380000114440918
237.1999969482422 287.7900085449219 6.449999809265137
235.9700012207031 287.4800109863281 6.599999904632568
236.6199951171875 287.6600036621094 6.489999771118164
235.3600006103516 287.3599853515625 6.650000095367432
243.2400054931641 283.760009765625 6.079999923706055
242.4900054931641 283.6000061035156 7.380000114440918
239.7599945068359 282.8900146484375 7
239.0200042724609 282.7099914550781 6.78000020980835
241.8000030517578 283.4100036621094 7.159999847412109
241.0800018310547 283.260009765625 7.039999961853027
240.3999938964844 283.0599975585938 7
237.75 282.3999938964844 6.769999980926514
242.1000061035156 283.4800109863281 6.360000133514404
238.3899993896484 282.5599975585938 6.78000020980835
243.8500061035156 283.9299926757812 5.789999961853027
242.7100067138672 283.6199951171875 6.300000190734863
242.6199951171875 282.9400024414062 6.230000019073486
241.9799957275391 282.7799987792969 6.440000057220459
243.1600036621094 283.0400085449219 6.110000133514404
243.7400054931641 283.2099914550781 5.889999866485596
241.4299926757812 282.6199951171875 6.769999980926514
240.7599945068359 282.4700012207031 6.670000076293945
244.0099945068359 283.0799865722656 5.96999979019165
243.6999969482422 284.2000122070312 5.860000133514404
243.5299987792969 283.5199890136719 6
243.3500061035156 282.8900146484375 6.03000020980835
243.1300048828125 284.010009765625 6.130000114440918
243.5700073242188 285.8699951171875 5.75
242.8000030517578 282.7099914550781 6.400000095367432
242.9299926757812 283.3299865722656 6.199999809265137
243.3000030517578 284.6700134277344 6.079999923706055
243.6600036621094 286 4.570000171661377
243.4299926757812 285.2699890136719 6
242.3500061035156 283.6600036621094 7.570000171661377
242.3899993896484 283.75 6.28000020980835
242.2599945068359 283.1099853515625 6.329999923706055
243.0399932861328 286.2699890136719 7.519999980926514
242.9199981689453 285.7000122070312 6.179999828338623
242.5700073242188 284.4500122070312 6.25
243.2299957275391 287.0499877929688 5.980000019073486
242.1799926757812 282.8399963378906 7.429999828338623
242.7400054931641 285.0499877929688 6.230000019073486
242.5 284.1099853515625 7.159999847412109
243.0899963378906 286.3699951171875 6.119999885559082
241.3500061035156 282.3500061035156 6.849999904632568
241.75 283.9500122070312 7.429999828338623
242.3300018310547 286.1799926757812 6.28000020980835
242.1699981689453 285.5599975585938 6.340000152587891
241.9400024414062 284.6400146484375 7.360000133514404
242.1000061035156 285.4400024414062 7.510000228881836
242.5099945068359 286.7999877929688 4.650000095367432
242.2700042724609 286.0199890136719 7.460000038146973
241.8600006103516 284.239990234375 6.380000114440918
241.5299987792969 283.0599975585938 6.96999979019165
242.0299987792969 284.9299926757812 6.349999904632568
242.4799957275391 286.7999877929688 6.230000019073486
241.4600067138672 285.3200073242188 7.820000171661377
241.0299987792969 283.7200012207031 7.260000228881836
241.2799987792969 284.5799865722656 7.71999979019165
241.8899993896484 286.8399963378906 5.03000020980835
241.8600006103516 286.8500061035156 6.71999979019165
240.8000030517578 282.7999877929688 6.769999980926514
241.9799957275391 287.4500122070312 6.46999979019165
241.6999969482422 286.3699951171875 7.25
241.5700073242188 285.7999877929688 7.539999961853027
240.2700042724609 282.5400085449219 6.909999847412109
240.4499969482422 283.2900085449219 7.070000171661377
241.1399993896484 286.1700134277344 7.329999923706055
241.5800018310547 287.7200012207031 6.429999828338623
241.4100036621094 287.2300109863281 6.760000228881836
241.3699951171875 286.9200134277344 4.570000171661377
240.8600006103516 285.0299987792969 7.920000076293945
241.4600067138672 287.1300048828125 5.050000190734863
241.0299987792969 285.6199951171875 7.630000114440918
241.3000030517578 286.6499938964844 7.03000020980835
240.6499938964844 284.1799926757812 7.599999904632568
239.75 282.9200134277344 6.900000095367432
240.1900024414062 284.7000122070312 7.820000171661377
240.7799987792969 286.9800109863281 6.860000133514404
240.3200073242188 285.3599853515625 7.75
239.9700012207031 283.8200073242188 7.340000152587891
240.4799957275391 285.8599853515625 7.440000057220459
240.9299926757812 287.5499877929688 6.519999980926514
239.5800018310547 282.3800048828125 7.150000095367432
240.6000061035156 286.3900146484375 7.170000076293945
239.2100067138672 283.4599914550781 7.199999809265137
239.4400024414062 284.4200134277344 7.730000019073486
239.9100036621094 286.2699890136719 7.320000171661377
240.0500030517578 286.7900085449219 6.96999979019165
240.1600036621094 287.0799865722656 4.599999904632568
238.9600067138672 282.6099853515625 6.670000076293945
240.1900024414062 287.3399963378906 6.730000019073486
240.3300018310547 287.8599853515625 6.369999885559082
239.6000061035156 285.1600036621094 7.900000095367432
239.7400054931641 285.75 7.539999961853027
239.1999969482422 286.010009765625 7.409999847412109
239.6300048828125 287.6799926757812 6.440000057220459
239.4900054931641 287.010009765625 4.929999828338623
238.4700012207031 283.1199951171875 6.929999828338623
238.8800048828125 284.8699951171875 7.880000114440918
239.0399932861328 285.5299987792969 7.699999809265137
239.3099975585938 286.5799865722656 7.110000133514404
239.4600067138672 287.1499938964844 6.809999942779541
238.6999969482422 284.0400085449219 7.420000076293945
238.2400054931641 284.5 7.789999961853027
237.8000030517578 282.75 6.769999980926514
238.4100036621094 285.239990234375 7.789999961853027
238.9799957275391 287.4299926757812 6.679999828338623
238.8699951171875 286.8599853515625 6.940000057220459
238.0399932861328 283.6199951171875 7.28000020980835
238.7400054931641 286.3599853515625 7.230000019073486
238.5700073242188 285.7999877929688 7.489999771118164
237.0800018310547 282.4599914550781 6.869999885559082
237.2700042724609 283.2099914550781 7.050000190734863
237.5200042724609 284.1400146484375 7.539999961853027
238.1399993896484 286.5899963378906 7.079999923706055
237.7200012207031 284.9599914550781 7.900000095367432
238.3000030517578 287.2099914550781 6.769999980926514
238.4299926757812 287.7200012207031 6.429999828338623
237.8399963378906 285.5199890136719 7.639999866485596
238.2799987792969 287.0599975585938 4.940000057220459
237.9900054931641 286.0700073242188 7.389999866485596
236.9400024414062 284.7099914550781 7.889999866485596
236.3899993896484 282.4200134277344 7.369999885559082
236.75 283.7799987792969 7.340000152587891
237.4299926757812 286.4400024414062 7.190000057220459
237.5399932861328 286.9700012207031 6.889999866485596
237.1100006103516 285.3800048828125 7.78000020980835
237.6799926757812 287.510009765625 6.599999904632568
237.2599945068359 285.8800048828125 7.449999809265137
236.5299987792969 282.9800109863281 7.130000114440918
235.8899993896484 282.8399963378906 7.150000095367432
236.0599975585938 283.5299987792969 7.179999828338623
236.9900054931641 287.1700134277344 4.53000020980835
236.4600067138672 285.1499938964844 7.829999923706055
236.7599945068359 286.3099975585938 7.300000190734863
237.0099945068359 287.4100036621094 6.710000038146973
236.8600006103516 286.8299865722656 7
236.6100006103516 285.7300109863281 7.53000020980835
236.2700042724609 284.4500122070312 7.71999979019165
235.4400024414062 283.2200012207031 7.150000095367432
236.1799926757812 286.0799865722656 7.380000114440918
235.6799926757812 284.1099853515625 7.639999866485596
236.4499969482422 287.010009765625 4.96999979019165
236.5800018310547 287.4700012207031 4.400000095367432
236.3000030517578 286.6099853515625 7.079999923706055
236.0099945068359 285.489990234375 7.670000076293945
235.8500061035156 284.9500122070312 7.920000076293945
236.5899963378906 287.6600036621094 6.550000190734863
236.4400024414062 287.1700134277344 6.809999942779541
235.2799987792969 285.2699890136719 7.760000228881836
235.75 286.9100036621094 6.929999828338623
235.8600006103516 287.489990234375 6.619999885559082
235.5800018310547 286.3599853515625 7.210000038146973
235.1900024414062 284.7799987792969 8.260000228881836
235.4700012207031 285.8599853515625 7.519999980926514
234.8500061035156 286.260009765625 7.329999923706055
235.0899963378906 287.3099975585938 6.699999809265137
234.9600067138672 286.7799987792969 6.989999771118164
243.8800048828125 285.4500122070312 5.079999923706055
243.7100067138672 284.8699951171875 5.590000152587891
243.4600067138672 283.7799987792969 5.989999771118164
243.1600036621094 282.6000061035156 6.019999980926514
243.6000061035156 284.3800048828125 5.929999828338623
243.2899932861328 283.2300109863281 6.090000152587891
242.8600006103516 284.2799987792969 6.210000038146973
242.5899963378906 283.0799865722656 6.300000190734863
243.1900024414062 285.4100036621094 6.059999942779541
242.7100067138672 283.7099914550781 6.309999942779541
243.3200073242188 285.9500122070312 6.010000228881836
243.0399932861328 284.8500061035156 6.150000095367432
242.4400024414062 282.510009765625 6.239999771118164
243.3699951171875 286.3200073242188 4.800000190734863
243.4600067138672 286.510009765625 6
242.9600067138672 286.9700012207031 6.130000114440918
242.7599945068359 286.010009765625 7.409999847412109
242.8099975585938 286.3900146484375 6.239999771118164
243.0899963378906 287.4700012207031 5.650000095367432
242.6799926757812 285.7999877929688 6.260000228881836
241.9100036621094 285.3099975585938 7.659999847412109
241.9700012207031 285.6900024414062 6.360000133514404
242.5399932861328 285.2300109863281 6.269999980926514
242.4499969482422 284.8200073242188 7.260000228881836
242.0899963378906 286.260009765625 6.349999904632568
242.3899993896484 284.6600036621094 6.320000171661377
242.1499938964844 283.6300048828125 7.380000114440918
241.7899932861328 282.4100036621094 6.900000095367432
241.9600067138672 283.0199890136719 7.449999809265137
242.2599945068359 284.1799926757812 7.230000019073486
242.0599975585938 283.4500122070312 6.420000076293945
242.2400054931641 284.0599975585938 6.340000152587891
242.2400054931641 286.8500061035156 6.300000190734863
242.0599975585938 285.8800048828125 7.420000076293945
241.9100036621094 282.8500061035156 6.440000057220459
241.6900024414062 284.5299987792969 6.440000057220459
241.6100006103516 284.1099853515625 7.570000171661377
241.4400024414062 283.489990234375 7.21999979019165
241.8200073242188 285.1300048828125 6.389999866485596
241.1199951171875 282.2799987792969 6.599999904632568
241.7700042724609 284.75 7.789999961853027
241.2400054931641 282.8900146484375 6.869999885559082
241.7100067138672 287.3599853515625 6.570000171661377
241.5599975585938 286.8200073242188 6.920000076293945
240.8500061035156 283.9400024414062 7.510000228881836
240.6799926757812 283.2799987792969 7.130000114440918
241.0099945068359 284.5899963378906 7.840000152587891
240.5200042724609 282.6799926757812 6.820000171661377
241.1499938964844 285.2300109863281 7.789999961853027
241.4299926757812 286.2799987792969 7.25
241.3099975585938 285.7200012207031 7.5
240.4900054931641 285.0599975585938 7.849999904632568
240.9799957275391 287.1400146484375 6.730000019073486
240.1699981689453 283.8200073242188 7.380000114440918
240.6199951171875 285.6000061035156 7.550000190734863
