262.5799865722656 411.8299865722656 10.18000030517578
263.010009765625 413.5700073242188 10.21000003814697
263.1400146484375 413.989990234375 8.409999847412109
263.0499877929688 413.5400085449219 8.079999923706055
262.2900085449219 410.5299987792969 7.989999771118164
262.75 412.3099975585938 8.069999694824219
263.7699890136719 416.6199951171875 10.34000015258789
263.3500061035156 414.8200073242188 10.27999973297119
263.1700134277344 414.2099914550781 10.26000022888184
263.4599914550781 415.3900146484375 10.28999996185303
263.6099853515625 416.0400085449219 10.25
262.75 412.4400024414062 10.17000007629395
262.4500122070312 411.239990234375 10.14999961853027
262.9700012207031 416.3500061035156 10.19999980926514
261.760009765625 411.6199951171875 10.07999992370605
261.9100036621094 412.2099914550781 10.10999965667725
262.0599975585938 412.8399963378906 10.10999965667725
262.489990234375 414.5499877929688 10.13000011444092
262.6300048828125 415.0299987792969 8.050000190734863
262.2000122070312 413.3900146484375 10.11999988555908
262.7900085449219 415.7000122070312 10.19999980926514
262.6700134277344 415.1199951171875 10.18000030517578
262.3500061035156 413.7799987792969 8.340000152587891
262.3599853515625 413.9599914550781 10.18000030517578
261.9200134277344 414.9400024414062 10.07999992370605
262.2200012207031 416.1499938964844 10.10999965667725
262.0299987792969 415.489990234375 10.10000038146973
262.3299865722656 416.75 10.21000003814697
261.8099975585938 414.9200134277344 10.06999969482422
262.0299987792969 415.6499938964844 10.14000034332275
262.1799926757812 416.3299865722656 10.13000011444092
262.5899963378906 415.1000061035156 10.22000026702881
262.0299987792969 413.0299987792969 10.11999988555908
261.8599853515625 412.3099975585938 10.10000038146973
262.9200134277344 416.510009765625 10.27000045776367
262.2000122070312 413.7099914550781 10.11999988555908
262.7799987792969 415.8800048828125 10.15999984741211
262.4200134277344 414.4200134277344 10.17000007629395
263.2099914550781 415.3999938964844 10.27000045776367
262.6700134277344 413.1900024414062 10.19999980926514
262.8399963378906 413.9400024414062 10.1899995803833
262.3200073242188 411.8599853515625 10.11999988555908
262.489990234375 412.5 10.14000034332275
261.9800109863281 410.4500122070312 10.11999988555908
263.0400085449219 414.6600036621094 10.26000022888184
263.3999938964844 416.1099853515625 10.26000022888184
262.1700134277344 411.1499938964844 10.05000019073486
264.2000122070312 416.4700012207031 10.34000015258789
264.0199890136719 415.75 10.38000011444092
263.1400146484375 412.260009765625 10.21000003814697
263.4400024414062 413.6199951171875 10.28999996185303
262.739990234375 410.7300109863281 10.21000003814697
263.3099975585938 412.9500122070312 10.27999973297119
263.6600036621094 414.3200073242188 10.31999969482422
262.9200134277344 411.4800109863281 10.21000003814697
262.5899963378906 410.0700073242188 10.14000034332275
262.6600036621094 410.3800048828125 8.069999694824219
263.8399963378906 415.0299987792969 10.32999992370605
262.7699890136719 410.8999938964844 8.550000190734863
264.7999877929688 416 10.47999954223633
264.6499938964844 415.2900085449219 10.47999954223633
264.0899963378906 413.0700073242188 10.35000038146973
264.2799987792969 413.8099975585938 10.39999961853027
263.7699890136719 411.7300109863281 10.31999969482422
263.9200134277344 412.3999938964844 10.36999988555908
263.5700073242188 411.0700073242188 10.27000045776367
263.3399963378906 409.9599914550781 8.159999847412109
263.5 410.6799926757812 8.149999618530273
263.4100036621094 410.3599853515625 10.22000026702881
264.4500122070312 414.5799865722656 10.40999984741211
263.3200073242188 410.010009765625 9.479999542236328
264.5499877929688 412.0499877929688 10.38000011444092
263.9400024414062 409.7200012207031 10.65999984741211
264.1700134277344 410.5499877929688 10.35000038146973
264.3599853515625 411.2799987792969 10.42000007629395
263.5400085449219 408.1900024414062 10.77999973297119
264.7000122070312 412.739990234375 10.40999984741211
263.4500122070312 407.6900024414062 10.22999954223633
263.7099914550781 408.7300109863281 11.14000034332275
263.4500122070312 407.7999877929688 8.710000038146973
265.0400085449219 414.1799926757812 10.47999954223633
265.4100036621094 415.5799865722656 10.52000045776367
265.260009765625 414.8699951171875 10.52000045776367
265.5899963378906 416.260009765625 10.52000045776367
264.8999938964844 413.4200134277344 10.43000030517578
265.6799926757812 416.5 8.720000267028809
265.0499877929688 414.1799926757812 8.960000038146973
266.0400085449219 415.7099914550781 10.81999969482422
265.7300109863281 414.3099975585938 10.6899995803833
264.6499938964844 410.1799926757812 10.43000030517578
265.0299987792969 411.5400085449219 10.42000007629395
264.2300109863281 408.4400024414062 10.98999977111816
264.8299865722656 410.8299865722656 10.42000007629395
265.9100036621094 415.0199890136719 10.72999954223633
265.1799926757812 412.2099914550781 10.47000026702881
266.2099914550781 416.3900146484375 10.9399995803833
265.3500061035156 412.8699951171875 10.52000045776367
264.3900146484375 409.0199890136719 11.14999961853027
265.5199890136719 413.6300048828125 10.53999996185303
264.0899963378906 407.8599853515625 10.60000038146973
266.6199951171875 415.2099914550781 11.07999992370605
266.9400024414062 416.4299926757812 11.39000034332275
266.4400024414062 414.510009765625 10.97999954223633
266.0899963378906 413.1199951171875 10.85999965667725
266.7999877929688 415.8399963378906 11.22000026702881
265.9200134277344 412.510009765625 10.75
265.7900085449219 411.8299865722656 10.68000030517578
264.9500122070312 408.6700134277344 11.14000034332275
265.4200134277344 410.4299926757812 10.47999954223633
265.2099914550781 409.6000061035156 10.75
264.760009765625 407.760009765625 8.569999694824219
266.2999877929688 413.8800048828125 10.93000030517578
264.7099914550781 407.6799926757812 10.14000034332275
264.8500061035156 408.1000061035156 10.71000003814697
265.5799865722656 411.1000061035156 10.61999988555908
267.3599853515625 415.2699890136719 11.44999980926514
267.2200012207031 414.6000061035156 11.36999988555908
266.6600036621094 412.5199890136719 11.10000038146973
267.5700073242188 415.9700012207031 11.56999969482422
266.1700134277344 410.5499877929688 10.85999965667725
266.8800048828125 413.2099914550781 11.1899995803833
265.510009765625 407.9100036621094 10.36999988555908
265.7900085449219 408.9200134277344 11.17000007629395
266.5299987792969 411.8399963378906 11.01000022888184
265.5199890136719 407.7799987792969 9.229999542236328
266.0499877929688 409.8900146484375 10.77999973297119
267.0199890136719 413.9200134277344 11.27999973297119
266.3399963378906 411.1700134277344 10.96000003814697
265.6300048828125 408.3599853515625 10.89000034332275
267.739990234375 414.0599975585938 11.64000034332275
267.1000061035156 411.4200134277344 11.30000019073486
266.75 410 11.11999988555908
267.9299926757812 414.7300109863281 11.76000022888184
266.1700134277344 407.7999877929688 9.619999885559082
268.25 416.0299987792969 11.90999984741211
266.9100036621094 410.6799926757812 11.22000026702881
267.3900146484375 412.6799926757812 11.52000045776367
267.5899963378906 413.3900146484375 11.53999996185303
266.5700073242188 409.3200073242188 11.05000019073486
266.1600036621094 407.7699890136719 8.359999656677246
266.2099914550781 407.9599914550781 10.75
266.3800048828125 408.5700073242188 11.09000015258789
268.0700073242188 415.4200134277344 11.84000015258789
267.2300109863281 412.0299987792969 11.38000011444092
267.7200012207031 411.510009765625 11.60999965667725
267.5499877929688 410.8299865722656 11.5600004196167
267.3900146484375 410.1900024414062 11.47000026702881
266.7900085449219 407.7699890136719 9.159999847412109
267.0499877929688 408.8399963378906 11.30000019073486
267.2200012207031 409.5299987792969 11.39999961853027
266.8599853515625 408.1900024414062 11.19999980926514
268.8900146484375 416.2699890136719 12.35000038146973
268.7099914550781 415.6300048828125 12.15999984741211
268.5700073242188 414.8999938964844 12.05000019073486
268.0599975585938 412.8699951171875 11.77000045776367
268.2000122070312 413.5599975585938 11.92000007629395
267.8399963378906 412.1499938964844 11.75
268.3900146484375 414.25 11.98999977111816
269.4500122070312 415.7900085449219 12.56999969482422
268.9400024414062 413.7900085449219 12.27000045776367
268.6499938964844 412.4599914550781 12.13000011444092
268.4500122070312 411.75 12.0600004196167
268.1000061035156 410.4200134277344 11.86999988555908
269.260009765625 415.0199890136719 12.69999980926514
267.4500122070312 407.7699890136719 8.460000038146973
269.1499938964844 414.4700012207031 12.39000034332275
268.7799987792969 413.1300048828125 12.22000026702881
267.5899963378906 408.3299865722656 11.60999965667725
268.2799987792969 411.0899963378906 11.96000003814697
267.9599914550781 409.7300109863281 11.8100004196167
267.760009765625 409.0799865722656 11.72000026702881
267.4500122070312 407.75 9.840000152587891
269.6300048828125 416.3999938964844 12.67000007629395
267.489990234375 407.8299865722656 11.17000007629395
269.760009765625 413.9100036621094 12.56999969482422
270.3800048828125 416.2699890136719 12.31999969482422
268.3999938964844 408.4200134277344 12.03999996185303
268.75 409.8099975585938 12.17000007629395
269.0700073242188 411.0899963378906 12.42000007629395
270.1400146484375 415.489990234375 12.36999988555908
269.9500122070312 414.6799926757812 12.5
269.5899963378906 413.1700134277344 12.59000015258789
268.3599853515625 408.25 8.189999580383301
268.8800048828125 410.4200134277344 12.32999992370605
269.239990234375 411.75 12.47000026702881
268.25 407.7900085449219 10.44999980926514
269.3800048828125 412.4800109863281 12.52999973297119
268.2799987792969 407.9299926757812 11.6899995803833
268.5799865722656 409.1499938964844 12.10999965667725
270 412.0599975585938 12.47999954223633
269.4400024414062 409.8599853515625 12.59000015258789
270.7699890136719 415.1700134277344 12.06999969482422
270.3500061035156 413.6300048828125 12.3100004196167
270.5799865722656 414.4400024414062 12.10999965667725
269.6300048828125 410.6199951171875 12.60999965667725
268.9500122070312 407.7799987792969 8.100000381469727
268.9100036621094 407.7799987792969 10.92000007629395
270.9700012207031 415.8900146484375 12.01000022888184
270.1799926757812 412.9100036621094 12.28999996185303
269.8299865722656 411.3800048828125 12.52000045776367
269.2699890136719 409.1799926757812 12.48999977111816
269.0799865722656 408.489990234375 12.4399995803833
268.9299926757812 407.9599914550781 12.10000038146973
269.0599975585938 408.3399963378906 8.350000381469727
269.5700073242188 408.0599975585938 12.55000019073486
269.489990234375 407.760009765625 11.72999954223633
269.5 407.7999877929688 8.810000419616699
269.75 408.7799987792969 12.5600004196167
269.5 407.760009765625 10.3100004196167
269.3999938964844 407.4100036621094 8.239999771118164
270.7200012207031 412.6300048828125 12.07999992370605
270.8800048828125 413.2900085449219 12.10999965667725
270.510009765625 411.7999877929688 12.18000030517578
271.6799926757812 416.510009765625 11.61999988555908
271.4700012207031 415.7699890136719 11.67000007629395
271.2699890136719 414.9100036621094 11.77000045776367
270.1199951171875 410.2699890136719 12.35999965667725
271.1000061035156 414.1099853515625 12.02999973297119
270.3299865722656 411.0700073242188 12.25
269.9100036621094 409.5899963378906 12.44999980926514
271.6700134277344 413.6700134277344 12.28999996185303
272.2999877929688 416.3200073242188 11.27000045776367
271.1499938964844 411.7699890136719 11.8100004196167
271 411.0199890136719 11.88000011444092
271.3500061035156 412.5 11.69999980926514
270.3999938964844 408.6499938964844 12.26000022888184
270.2000122070312 407.9200134277344 12.15999984741211
270.2000122070312 407.7900085449219 9.479999542236328
271.9500122070312 414.7900085449219 11.53999996185303
270.2000122070312 407.8099975585938 10.94999980926514
272.1499938964844 415.5700073242188 11.38000011444092
271.5199890136719 413.1000061035156 12.06999969482422
270.760009765625 410.2300109863281 11.98999977111816
270.5700073242188 409.3800048828125 12.17000007629395
270.1400146484375 407.6799926757812 8.430000305175781
273.0400085449219 416.1799926757812 10.93000030517578
272.5299987792969 414.1700134277344 12.01000022888184
271.8900146484375 411.4700012207031 11.43000030517578
272.3299865722656 413.3299865722656 12.15999984741211
272.0400085449219 412.2300109863281 11.47000026702881
272.2200012207031 412.7799987792969 11.75
270.8200073242188 407.3299865722656 8.520000457763672
270.9200134277344 407.75 10.42000007629395
271.1199951171875 408.4299926757812 11.85999965667725
272.8099975585938 415.2099914550781 11.31999969482422
270.9700012207031 407.8800048828125 11.63000011444092
271.5 410 11.63000011444092
271.3399963378906 409.3099975585938 11.76000022888184
271.7099914550781 410.7699890136719 11.5
271 407.8699951171875 8.819999694824219
272.9599914550781 413.0799865722656 11.97000026702881
272.8200073242188 412.5400085449219 11.60999965667725
271.760009765625 408.2300109863281 11.47999954223633
272.1499938964844 409.7799987792969 11.28999996185303
272 409.0899963378906 11.35999965667725
271.6900024414062 407.8900146484375 9.210000038146973
271.6300048828125 407.739990234375 8.189999580383301
272.3399963378906 410.6000061035156 11.17000007629395
272.7000122070312 411.9700012207031 11.30000019073486
271.6600036621094 407.760009765625 10.92000007629395
272.5899963378906 411.4100036621094 11.05000019073486
273.6499938964844 415.7300109863281 10.97000026702881
273.8800048828125 416.6300048828125 10.52999973297119
273.3999938964844 414.6700134277344 11.75
273.1300048828125 413.6000061035156 12.30000019073486
273.6499938964844 413.2900085449219 12.19999980926514
273.260009765625 411.7099914550781 11.03999996185303
273.8099975585938 414.0899963378906 12.10000038146973
273.3699951171875 412.1600036621094 11.38000011444092
274.3800048828125 416.3299865722656 10.57999992370605
273.1099853515625 411.1000061035156 10.81999969482422
274.0799865722656 415.1199951171875 11.39000034332275
273.489990234375 412.739990234375 11.77000045776367
272.6900024414062 409.6099853515625 10.97999954223633
272.5299987792969 408.8299865722656 11.05000019073486
272.2999877929688 407.8699951171875 8.75
272.1300048828125 407.2699890136719 8.529999732971191
272.3399963378906 408.0700073242188 11.17000007629395
272.8900146484375 410.3399963378906 10.90999984741211
272.2300109863281 407.7699890136719 10.36999988555908
274.9100036621094 415.7000122070312 11.02999973297119
274.3699951171875 413.5199890136719 12.39999961853027
273.7099914550781 410.8800048828125 10.56999969482422
273.8500061035156 411.4400024414062 10.92000007629395
273.9800109863281 411.9700012207031 11.27000045776367
274.6600036621094 414.6099853515625 11.78999996185303
273.75 411.010009765625 8.840000152587891
272.9299926757812 407.760009765625 9.449999809265137
273.5199890136719 410.1300048828125 10.57999992370605
272.9599914550781 407.8299865722656 10.80000019073486
272.9400024414062 407.7099914550781 8.159999847412109
274.1000061035156 412.5 11.64000034332275
273.1199951171875 408.6000061035156 10.78999996185303
273.3399963378906 409.3999938964844 10.64999961853027
274.239990234375 413.0599975585938 11.98999977111816
275.0400085449219 413.239990234375 10.68000030517578
274.510009765625 411.1199951171875 10.67000007629395
274.6199951171875 411.6499938964844 11.03999996185303
273.9800109863281 409.0899963378906 10.5
274.2200012207031 409.8900146484375 8.829999923706055
274.7900085449219 412.1799926757812 11.36999988555908
274.4700012207031 410.8399963378906 8.529999732971191
273.6600036621094 407.7000122070312 10.3100004196167
274.8900146484375 412.6799926757812 11.77999973297119
274.4500122070312 410.8699951171875 9.75
273.6900024414062 407.739990234375 8.960000038146973
273.8099975585938 408.4299926757812 10.46000003814697
275.5799865722656 412.6799926757812 11.10000038146973
275.3800048828125 411.9100036621094 11.26000022888184
275.1300048828125 410.8699951171875 10.44999980926514
275.260009765625 411.3999938964844 10.86999988555908
275.010009765625 410.2699890136719 8.789999961853027
275.1799926757812 410.9500122070312 8.840000152587891
275.8800048828125 413.760009765625 10.53999996185303
275.7900085449219 411.0700073242188 10.65999984741211
275.9599914550781 411.6400146484375 10.98999977111816
275.8099975585938 411 8.159999847412109
276.010009765625 411.7699890136719 7.989999771118164
275.8399963378906 411.239990234375 9.010000228881836
275.6700134277344 410.5700073242188 10.34000015258789
276.3200073242188 413.2200012207031 10.75
276.0700073242188 412.1199951171875 11.34000015258789
276.4500122070312 410.9400024414062 8.939999580383301
276.5599975585938 411.4299926757812 10.89000034332275
276.4700012207031 410.8999938964844 10.48999977111816
276.8099975585938 413.6400146484375 8.949999809265137
276.3900146484375 412.6099853515625 11.28999996185303
276.2999877929688 413.5299987792969 8.149999618530273
276.1700134277344 413.6900024414062 10.52999973297119
276.2699890136719 413.1499938964844 10.85999965667725
276.5799865722656 411.8999938964844 11.14000034332275
274.9700012207031 415.9599914550781 11.02999973297119
275.0799865722656 415.4500122070312 11.39999961853027
275.5 413.9299926757812 10.39999961853027
275.7900085449219 413.1300048828125 8.119999885559082
276.3299865722656 410.75 10.47000026702881
275.8900146484375 412.2099914550781 11.28999996185303
275.6499938964844 413.3299865722656 10.81999969482422
275.7300109863281 412.8699951171875 11.09000015258789
276.1000061035156 411.4700012207031 10.77000045776367
274.1099853515625 416.5899963378906 10.52999973297119
274.5 415.0400085449219 11.5600004196167
275.1600036621094 412.3900146484375 11.39000034332275
275.010009765625 412.9200134277344 11.11999988555908
275.3999938964844 411.5299987792969 10.81999969482422
274.2200012207031 416.1000061035156 10.86999988555908
274.7099914550781 413.9800109863281 12.30000019073486
274.2099914550781 416.5799865722656 8.550000190734863
274.6000061035156 414.489990234375 11.9399995803833
274.3299865722656 415.5899963378906 11.19999980926514
274.9200134277344 413.2699890136719 12.02999973297119
275.5700073242188 410.7699890136719 10.46000003814697
273.5499877929688 416.2200012207031 10.80000019073486
273.7799987792969 415.2200012207031 11.46000003814697
273.6600036621094 415.739990234375 11.11999988555908
274.3900146484375 412.8099975585938 11.73999977111816
274.8599853515625 411.1499938964844 10.52000045776367
274.1400146484375 413.6099853515625 12.27000045776367
273.8900146484375 414.7200012207031 11.76000022888184
273.989990234375 414.2300109863281 12.09000015258789
274.6400146484375 411.9700012207031 11.11999988555908
273.5299987792969 416.6099853515625 9.850000381469727
272.9200134277344 416.6000061035156 9.199999809265137
273.1600036621094 415.4200134277344 11.3100004196167
272.8999938964844 416.4500122070312 10.80000019073486
273.0199890136719 415.9200134277344 10.98999977111816
274.2099914550781 411.25 10.64000034332275
274.6000061035156 410.0199890136719 8.899999618530273
273.9599914550781 412.1300048828125 11.26000022888184
273.7200012207031 413.010009765625 11.82999992370605
273.3900146484375 414.3099975585938 12.02999973297119
273.510009765625 413.7699890136719 12.31999969482422
273.2900085449219 414.8599853515625 11.6899995803833
272.2900085449219 416.5400085449219 10.53999996185303
272.7699890136719 414.489990234375 11.9399995803833
272.3399963378906 416.6199951171875 8.720000267028809
272.6300048828125 415.010009765625 11.5600004196167
272.3999938964844 416.1499938964844 11.26000022888184
273.7200012207031 410.8500061035156 10.47999954223633
273.2999877929688 412.489990234375 11.46000003814697
274.0799865722656 409.760009765625 8.979999542236328
273.8699951171875 410.2300109863281 10.46000003814697
273.0599975585938 413.25 12.02000045776367
272.8800048828125 413.989990234375 12.27999973297119
273.510009765625 411.6000061035156 10.86999988555908
273.9700012207031 410.260009765625 8.670000076293945
272.5199890136719 415.510009765625 11.28999996185303
271.8999938964844 415.1799926757812 11.47999954223633
272.0199890136719 414.6400146484375 11.78999996185303
272.3099975585938 413.489990234375 12.19999980926514
272.9700012207031 411.0499877929688 10.89999961853027
273.4400024414062 409.1400146484375 10.57999992370605
273.1300048828125 410.4100036621094 10.84000015258789
272.5700073242188 412.6300048828125 11.59000015258789
272.1700134277344 414.0799865722656 12.14000034332275
273.2699890136719 409.7999877929688 10.73999977111816
273.6099853515625 408.4800109863281 10.48999977111816
273.7999877929688 407.7900085449219 10.52000045776367
272.7699890136719 411.760009765625 10.98999977111816
271.6799926757812 416.5700073242188 8.180000305175781
271.7200012207031 415.8599853515625 11.53999996185303
271.6300048828125 416.5700073242188 9.970000267028809
271.5700073242188 416.4500122070312 11.60000038146973
271.0199890136719 416.6000061035156 9.229999542236328
271.010009765625 416.1900024414062 11.96000003814697
270.9400024414062 416.6099853515625 11.15999984741211
271.489990234375 414.3599853515625 11.97999954223633
272.3599853515625 410.9400024414062 11.14000034332275
271.3800048828125 414.9200134277344 11.73999977111816
273.0700073242188 408.2900085449219 10.85999965667725
271.8399963378906 413.010009765625 11.88000011444092
271.2000122070312 415.5 11.77999973297119
272.0400085449219 412.260009765625 11.34000015258789
272.7000122070312 409.6000061035156 10.97999954223633
271.5899963378906 413.8500061035156 12.30000019073486
272.9200134277344 408.8800048828125 10.85999965667725
272.5599975585938 410.239990234375 11.02000045776367
272.2000122070312 411.5799865722656 11.25
270.4100036621094 416.6099853515625 10.38000011444092
270.5199890136719 416.6099853515625 8.539999961853027
271.2000122070312 413.3299865722656 12.05000019073486
270.7099914550781 415.260009765625 12.09000015258789
270.3599853515625 416.5299987792969 12.14000034332275
271.3800048828125 412.5299987792969 11.68000030517578
272.3999938964844 408.5499877929688 11.13000011444092
271.0199890136719 413.9700012207031 12.23999977111816
271.9100036621094 410.489990234375 11.42000007629395
270.8999938964844 414.5899963378906 12.02000045776367
270.510009765625 415.9299926757812 12.18000030517578
272.2300109863281 409.2099914550781 11.22000026702881
272.0700073242188 409.8399963378906 11.28999996185303
271.6000061035156 411.8299865722656 11.55000019073486
272.5700073242188 407.8800048828125 11.13000011444092
271.7699890136719 411.1300048828125 11.47000026702881
269.7300109863281 416.5799865722656 11.85999965667725
269.9500122070312 415.5599975585938 12.5
269.7900085449219 416.7099914550781 10.23999977111816
270.4500122070312 413.6000061035156 12.22000026702881
270.3200073242188 414.260009765625 12.28999996185303
269.8399963378906 416.4500122070312 9.449999809265137
271 411.5599975585938 11.90999984741211
270.6700134277344 412.9200134277344 12.10000038146973
271.5 409.5499877929688 11.65999984741211
269.7900085449219 416.1900024414062 12.63000011444092
270.7999877929688 412.260009765625 12.05000019073486
271.6799926757812 408.8800048828125 11.5600004196167
271.2999877929688 410.2900085449219 11.72999954223633
271.1799926757812 410.8999938964844 11.80000019073486
270.1400146484375 414.8500061035156 12.42000007629395
271.8599853515625 408.25 11.53999996185303
269.0799865722656 416.3399963378906 12.36999988555908
269.1799926757812 415.739990234375 12.47999954223633
269.6900024414062 413.8599853515625 12.60000038146973
270.0299987792969 412.5299987792969 12.48999977111816
269.010009765625 416.6000061035156 11.18000030517578
270.1600036621094 411.8299865722656 12.34000015258789
270.5 410.5 12.1899995803833
270.8299865722656 409.2099914550781 12.01000022888184
270.3800048828125 411.1499938964844 12.27000045776367
269.4800109863281 414.510009765625 12.59000015258789
270.6700134277344 409.8299865722656 12.0600004196167
271.2099914550781 407.8800048828125 11.85999965667725
269.3399963378906 415.2200012207031 12.72999954223633
269.1300048828125 416.5700073242188 9.239999771118164
269.8200073242188 413.2000122070312 12.52000045776367
271 408.5599975585938 11.89999961853027
268.5199890136719 416.5700073242188 8.409999847412109
268.5499877929688 415.8599853515625 12.10000038146973
268.4700012207031 416.6199951171875 10.40999984741211
268.7099914550781 415.2200012207031 12.17000007629395
268.3999938964844 416.4700012207031 12.01000022888184
268.8900146484375 414.6600036621094 12.21000003814697
269.4599914550781 412.239990234375 12.59000015258789
269.2999877929688 412.8399963378906 12.47000026702881
269.0299987792969 414.0799865722656 12.34000015258789
269.1400146484375 413.4700012207031 12.39000034332275
270.2900085449219 408.9100036621094 12.27999973297119
269.6199951171875 411.6000061035156 12.68000030517578
269.75 411.0199890136719 12.57999992370605
269.9599914550781 410.3399963378906 12.5
270.4500122070312 408.2900085449219 12.21000003814697
270.1300048828125 409.6600036621094 12.38000011444092
269.7999877929688 408.6600036621094 12.5600004196167
269.989990234375 407.989990234375 12.48999977111816
267.9800109863281 416.0299987792969 11.8100004196167
267.9299926757812 416.5700073242188 9.550000190734863
267.9200134277344 416.5299987792969 11.21000003814697
268.1199951171875 415.4599914550781 11.89000034332275
268.8900146484375 412.3399963378906 12.27000045776367
269.0400085449219 411.7200012207031 12.32999992370605
268.2699890136719 414.8500061035156 11.90999984741211
268.4500122070312 414.25 12.03999996185303
268.6199951171875 413.6000061035156 12.13000011444092
269.4700012207031 409.9200134277344 12.63000011444092
269.3299865722656 410.5199890136719 12.53999996185303
269.6600036621094 409.3399963378906 12.64000034332275
269.1499938964844 411.1900024414062 12.78999996185303
268.75 413 12.17000007629395
269.2799987792969 408.25 12.52999973297119
269.1400146484375 408.8399963378906 12.4399995803833
267.3699951171875 416.1300048828125 11.44999980926514
267.5299987792969 415.4800109863281 11.52000045776367
267.3500061035156 416.5499877929688 8.649999618530273
267.6600036621094 414.9100036621094 11.61999988555908
267.8200073242188 414.2999877929688 11.6899995803833
268.4100036621094 411.8999938964844 12
268.7099914550781 410.6900024414062 12.19999980926514
269.010009765625 409.489990234375 12.39999961853027
268.5499877929688 411.2799987792969 12.07999992370605
268.8500061035156 410.1000061035156 12.22000026702881
267.9400024414062 413.75 11.77000045776367
268.0899963378906 413.1199951171875 11.82999992370605
268.25 412.489990234375 11.89999961853027
267.2799987792969 416.5299987792969 10.78999996185303
266.5799865722656 416.6300048828125 10.27000045776367
266.9700012207031 415.0599975585938 11.22999954223633
266.6199951171875 416.2999877929688 11.10999965667725
267.239990234375 413.8299865722656 11.42000007629395
267.1000061035156 414.4800109863281 11.32999992370605
267.7099914550781 411.9700012207031 11.6899995803833
268.1700134277344 410.1099853515625 11.90999984741211
268.2999877929688 409.5299987792969 12.03999996185303
268 410.7200012207031 11.82999992370605
268.5899963378906 408.3800048828125 12.17000007629395
266.7799987792969 415.6700134277344 11.1899995803833
268.4200134277344 408.9700012207031 12.10999965667725
267.5599975585938 412.6199951171875 11.59000015258789
267.4100036621094 413.239990234375 11.48999977111816
267.8399963378906 411.3500061035156 11.72000026702881
266.2900085449219 415.1600036621094 10.90999984741211
266.1199951171875 415.7699890136719 10.75
266.7300109863281 413.3900146484375 11.10999965667725
267.010009765625 412.1600036621094 11.27999973297119
265.9700012207031 416.6199951171875 9.270000457763672
266.5599975585938 413.9800109863281 11.07999992370605
265.989990234375 416.4599914550781 10.75
267.6000061035156 409.739990234375 11.60999965667725
267.1700134277344 411.5899963378906 11.35000038146973
267.3099975585938 410.9400024414062 11.42000007629395
268.0700073242188 407.9700012207031 11.89999961853027
267.4400024414062 410.4100036621094 11.53999996185303
267.9100036621094 408.4800109863281 11.78999996185303
266.4400024414062 414.5700073242188 10.96000003814697
267.7799987792969 409.1799926757812 11.75
266.8800048828125 412.8399963378906 11.18000030517578
265.7000122070312 415.5899963378906 9.149999618530273
265.6900024414062 415.3599853515625 10.57999992370605
265.8299865722656 414.7799987792969 10.6899995803833
265.510009765625 416.0199890136719 10.53999996185303
266.1400146484375 413.5799865722656 10.80000019073486
267.3099975585938 408.6700134277344 11.48999977111816
266.7200012207031 411.0799865722656 11.14000034332275
267.0199890136719 409.8299865722656 11.32999992370605
266.5599975585938 411.7099914550781 11.07999992370605
267.2000122070312 409.25 11.38000011444092
265.5299987792969 416.1600036621094 9.090000152587891
266.4299926757812 412.3299865722656 11
266.8999938964844 410.4100036621094 11.23999977111816
265.989990234375 414.2200012207031 10.78999996185303
266.2900085449219 412.9100036621094 10.88000011444092
265.3599853515625 416.6300048828125 10.5
267.4500122070312 408.1000061035156 11.60999965667725
265.3500061035156 414.2699890136719 10.53999996185303
265.2300109863281 414.8699951171875 10.47000026702881
265.6799926757812 413.0400085449219 10.56999969482422
265.1499938964844 415.5499877929688 8.539999961853027
266.1400146484375 411.260009765625 10.85000038146973
265.2000122070312 415.0799865722656 9.239999771118164
265.5499877929688 413.7200012207031 9
266.2900085449219 410.6099853515625 10.92000007629395
266.8900146484375 408.1600036621094 11.23999977111816
266.5499877929688 409.4299926757812 11.09000015258789
264.7300109863281 416.7999877929688 10.27000045776367
266.7000122070312 408.7699890136719 11.19999980926514
265.989990234375 411.8200073242188 10.72999954223633
264.8800048828125 416.1600036621094 10.38000011444092
265.0700073242188 415.489990234375 10.47999954223633
266.3999938964844 410 11.01000022888184
265.8200073242188 412.4500122070312 10.64000034332275
265.5 413.6700134277344 10.55000019073486
264.9599914550781 413.2300109863281 10.44999980926514
264.6499938964844 414.4800109863281 10.43000030517578
264.4800109863281 415.0899963378906 10.39000034332275
264.2999877929688 415.7300109863281 10.42000007629395
265.4299926757812 411.2900085449219 10.52000045776367
265.9599914550781 408.989990234375 11.22999954223633
265.2799987792969 411.9700012207031 10.52000045776367
264.8299865722656 413.9500122070312 8.859999656677246
264.1499938964844 416.3500061035156 10.36999988555908
265.8599853515625 409.489990234375 10.96000003814697
265.7200012207031 410.010009765625 10.71000003814697
265.5599975585938 410.6700134277344 10.56999969482422
265.1300048828125 412.5799865722656 10.44999980926514
264.7999877929688 413.8900146484375 10.40999984741211
266.1499938964844 408.2699890136719 10.89999961853027
265.6400146484375 407.8900146484375 10.75
265.4599914550781 408.5599975585938 10.96000003814697
263.4700012207031 416.6300048828125 10.21000003814697
264.1099853515625 414.0700073242188 10.35000038146973
263.6300048828125 415.989990234375 10.26000022888184
263.9800109863281 414.6700134277344 10.32999992370605
264.4400024414062 412.8800048828125 10.35000038146973
265.2999877929688 409.3399963378906 11.13000011444092
264.25 413.4800109863281 10.39000034332275
264.5700073242188 412.2200012207031 10.40999984741211
264.8999938964844 410.9500122070312 10.44999980926514
265.0599975585938 410.3399963378906 10.4399995803833
265.2000122070312 409.8099975585938 10.75
264.7200012207031 411.6000061035156 10.39999961853027
263.7900085449219 415.3500061035156 10.30000019073486
264.4599914550781 410.4800109863281 10.39000034332275
264.6000061035156 409.8999938964844 10.64999961853027
264.8200073242188 408.8699951171875 11.1899995803833
265.0700073242188 408.0199890136719 10.5600004196167
264.6900024414062 409.3999938964844 11.01000022888184
263.1300048828125 416.2000122070312 8.189999580383301
262.8999938964844 416.7900085449219 10.02000045776367
263.0199890136719 416.1799926757812 10.21000003814697
263.510009765625 414.3500061035156 10.31999969482422
264.2999877929688 411.1400146484375 10.36999988555908
263.6600036621094 413.7099914550781 10.26000022888184
263.7999877929688 413.0499877929688 10.34000015258789
263.1600036621094 415.6099853515625 10.23999977111816
264.25 411.6799926757812 8.210000038146973
263.989990234375 412.4200134277344 10.3100004196167
264.1099853515625 411.8200073242188 10.38000011444092
263.3299865722656 414.9400024414062 10.27000045776367
262.7799987792969 415.0400085449219 8.020000457763672
262.9500122070312 414.3699951171875 8.060000419616699
263.010009765625 413.8099975585938 10.27000045776367
263.1199951171875 413.1799926757812 10.25
262.8500061035156 414.4200134277344 10.15999984741211
263.2799987792969 413.0700073242188 8.039999961853027
263.0499877929688 413.7900085449219 8.270000457763672
263.5499877929688 411.9500122070312 8.359999656677246
262.6499938964844 415.0599975585938 10.14999961853027
263.4599914550781 412 10.25
263.7799987792969 410.7300109863281 10.3100004196167
262.510009765625 415.7200012207031 10.14000034332275
262.5499877929688 415.7799987792969 8.399999618530273
264.0199890136719 409.6499938964844 10.86999988555908
263.3099975585938 412.5799865722656 10.22000026702881
264.1499938964844 409.1099853515625 11.21000003814697
263.8800048828125 410.1199951171875 10.52000045776367
262.3299865722656 416.3500061035156 10.17000007629395
263.3699951171875 412.510009765625 8.229999542236328
263.5899963378906 411.3099975585938 10.27999973297119
264.3500061035156 408.2900085449219 10.72000026702881
262.3299865722656 413.8599853515625 7.929999828338623
262.2200012207031 413.9800109863281 10.11999988555908
262.3599853515625 413.3999938964844 10.14999961853027
262.5199890136719 412.75 10.17000007629395
262.8399963378906 411.4700012207031 10.19999980926514
262.4800109863281 413.260009765625 7.989999771118164
262.6799926757812 412.0899963378906 10.1899995803833
263.1700134277344 410.1499938964844 10.30000019073486
263.2699890136719 409.6499938964844 10.80000019073486
261.9200134277344 415.2699890136719 10.10000038146973
263.0599975585938 410.8599853515625 8.449999809265137
263.3599853515625 409.75 8.979999542236328
263.7999877929688 407.6900024414062 10.47999954223633
262.0499877929688 414.6400146484375 10.14000034332275
262.9400024414062 411.3999938964844 8.25
263.5700073242188 408.4700012207031 10.90999984741211
262.7999877929688 412.0599975585938 8.140000343322754
263 410.8200073242188 10.21000003814697
263.3800048828125 409.1700134277344 11.22999954223633
263.5899963378906 408.9200134277344 8.520000457763672
263.3800048828125 409.3800048828125 9.949999809265137
261.8699951171875 413 10.09000015258789
262.0199890136719 412.4100036621094 10.09000015258789
262.489990234375 410.5199890136719 10.15999984741211
262.8299865722656 409.3900146484375 8.699999809265137
262.1600036621094 411.7999877929688 10.10999965667725
262.3500061035156 411.1400146484375 10.11999988555908
263.2200012207031 407.9700012207031 8.180000305175781
261.75 413.6300048828125 10.01000022888184
263.0400085449219 408.6000061035156 8.229999542236328
262.4299926757812 411.0799865722656 8.029999732971191
261.8800048828125 410.7699890136719 10.07999992370605
261.75 411.3900146484375 10.05000019073486
262.0499877929688 410.1000061035156 10.13000011444092
262.7200012207031 408.25 8.289999961853027
262.3399963378906 410.1099853515625 10.15999984741211
262.0700073242188 411.2300109863281 10.07999992370605
261.9400024414062 411.7699890136719 10.11999988555908
262.2000122070312 410.6900024414062 10.11999988555908
261.8299865722656 412.3099975585938 10.10000038146973
263.1300048828125 409.3999938964844 8.720000267028809
263.6199951171875 407.7799987792969 10.51000022888184
262.8500061035156 410.5299987792969 8.329999923706055
262.7900085449219 411.1600036621094 10.23999977111816
262.3299865722656 412.9400024414062 10.13000011444092
262.489990234375 412.2900085449219 10.14999961853027
263.510009765625 408.4200134277344 10.92000007629395
262.7300109863281 411.0899963378906 8.359999656677246
262.6300048828125 411.7099914550781 10.15999984741211
262.0499877929688 414.0799865722656 10.11999988555908
263.3599853515625 408.9400024414062 11.27000045776367
261.9299926757812 414.6199951171875 10.14999961853027
262.2300109863281 413.4400024414062 10.13000011444092
263.0700073242188 410.0199890136719 10.22000026702881
262.5899963378906 411.6400146484375 8.189999580383301
262.8900146484375 410.6600036621094 10.21000003814697
264.1199951171875 408.3800048828125 10.86999988555908
263.3500061035156 411.2699890136719 10.25
263.489990234375 410.6700134277344 10.23999977111816
263.0400085449219 412.2699890136719 8.090000152587891
263.2799987792969 411.1600036621094 8.239999771118164
263.25 411.8200073242188 10.22999954223633
263.1400146484375 411.7099914550781 8.239999771118164
262.9100036621094 412.7999877929688 8.010000228881836
263.8299865722656 409.510009765625 10.86999988555908
264.239990234375 407.75 10.46000003814697
262.6099853515625 413.9599914550781 8.5
262.8200073242188 413.4599914550781 10.15999984741211
262.6700134277344 414.0499877929688 10.17000007629395
263.9400024414062 409.0299987792969 11.22999954223633
263.1099853515625 412.3599853515625 10.22000026702881
262.7699890136719 413.3599853515625 8.029999732971191
263.6799926757812 410.1099853515625 10.39999961853027
262.5700073242188 414.6199951171875 10.1899995803833
262.4200134277344 415.1700134277344 10.15999984741211
262.1199951171875 416.2799987792969 10.07999992370605
262.25 415.75 10.07999992370605
262.4700012207031 414.4700012207031 8.140000343322754
262.9599914550781 412.8800048828125 10.19999980926514
264.489990234375 409.5799865722656 10.86999988555908
264.3200073242188 410.1199951171875 10.48999977111816
264.0199890136719 411.2699890136719 10.34000015258789
264.8500061035156 407.8900146484375 10.52999973297119
263.75 412.3599853515625 10.28999996185303
264.7699890136719 408.4700012207031 10.9399995803833
263.8500061035156 411.7000122070312 8.210000038146973
263.9100036621094 411.7999877929688 10.28999996185303
263.6000061035156 412.9500122070312 10.25
264.2000122070312 410.6900024414062 10.36999988555908
263.1000061035156 414.5700073242188 8.039999961853027
264.6300048828125 409.0400085449219 11.18000030517578
262.9200134277344 415.8699951171875 10.1899995803833
263.2799987792969 413.9700012207031 8.340000152587891
263.6799926757812 412.2300109863281 8.239999771118164
263.489990234375 413.5599975585938 10.21000003814697
263.3599853515625 414.0899963378906 10.25
262.8399963378906 415.760009765625 8.170000076293945
263.0799865722656 415.2799987792969 10.26000022888184
263.3800048828125 413.4200134277344 8.119999885559082
263.1799926757812 414.7000122070312 10.26000022888184
262.7799987792969 416.3900146484375 10.14999961853027
265.5 408.4599914550781 10.92000007629395
265.2300109863281 409.6300048828125 10.77999973297119
265.0700073242188 410.1400146484375 10.48999977111816
264.3599853515625 413.0400085449219 10.36999988555908
264.5299987792969 412.489990234375 10.36999988555908
263.9500122070312 414.6900024414062 10.35000038146973
264.2300109863281 413.5700073242188 10.32999992370605
265.6199951171875 407.8999938964844 10.61999988555908
263.8099975585938 415.2699890136719 10.30000019073486
264.7999877929688 411.3399963378906 10.39999961853027
264.0799865722656 414.1499938964844 10.30000019073486
264.6499938964844 411.9299926757812 10.44999980926514
264.9500122070312 410.7900085449219 10.46000003814697
263.4599914550781 416.2999877929688 8.300000190734863
265.3699951171875 409.0599975585938 11.22999954223633
263.6600036621094 415.8699951171875 10.23999977111816
263.5499877929688 416.3999938964844 10.22999954223633
265.9299926757812 409.6300048828125 10.80000019073486
265.7999877929688 410.1499938964844 10.64000034332275
266.0700073242188 409.0599975585938 11.1899995803833
266.3200073242188 407.9500122070312 10.97000026702881
265.0700073242188 412.9599914550781 10.47999954223633
265.510009765625 411.2900085449219 10.51000022888184
265.1499938964844 412.2900085449219 8.430000305175781
265.2300109863281 412.3900146484375 10.51000022888184
265.3699951171875 411.8900146484375 10.47999954223633
264.75 414.0899963378906 8.939999580383301
264.6700134277344 414.6600036621094 10.43000030517578
264.3900146484375 415.8900146484375 10.35000038146973
266.1600036621094 408.5599975585938 10.97000026702881
264.8699951171875 413.4599914550781 9.020000457763672
265.0199890136719 412.8599853515625 8.470000267028809
264.5199890136719 415.2900085449219 10.39999961853027
264.9299926757812 413.5499877929688 10.43000030517578
264.239990234375 416.489990234375 10.34000015258789
265.6099853515625 410.760009765625 10.5600004196167
264.7799987792969 414.1400146484375 10.43000030517578
267.010009765625 407.9599914550781 11.27999973297119
266.8800048828125 408.5 11.22999954223633
266.2699890136719 410.7699890136719 10.92000007629395
266.1300048828125 411.3500061035156 10.8100004196167
266.6000061035156 409.6300048828125 11.05000019073486
266.4200134277344 410.2099914550781 10.94999980926514
265.7000122070312 413.0700073242188 10.60000038146973
265.010009765625 415.8699951171875 10.47999954223633
265.2999877929688 414.7000122070312 10.48999977111816
265.8299865722656 412.5400085449219 10.65999984741211
265.3999938964844 414.0400085449219 8.930000305175781
266.7099914550781 409.0299987792969 11.22000026702881
265.5700073242188 413.6099853515625 10.55000019073486
265.1600036621094 415.260009765625 10.47999954223633
266.0199890136719 411.9400024414062 10.72000026702881
265.4700012207031 414.1600036621094 10.48999977111816
264.8800048828125 416.4200134277344 10.42000007629395
267.3800048828125 409.2200012207031 11.47000026702881
267.6600036621094 408.0899963378906 11.69999980926514
266.7000122070312 411.9400024414062 11.09000015258789
267.25 409.739990234375 11.39000034332275
266.2699890136719 413.6600036621094 10.90999984741211
267.1099853515625 410.3099975585938 11.36999988555908
266.5499877929688 412.5299987792969 11.0600004196167
266.1300048828125 414.2200012207031 10.81999969482422
266.8299865722656 411.4100036621094 11.19999980926514
265.3500061035156 417.0299987792969 8.989999771118164
265.7000122070312 415.9299926757812 10.5600004196167
265.5499877929688 416.5299987792969 10.52000045776367
265.8500061035156 415.3599853515625 10.69999980926514
267.5499877929688 408.6199951171875 11.55000019073486
266.0199890136719 414.8299865722656 10.75
267.010009765625 410.8200073242188 11.26000022888184
266.4200134277344 413.0599975585938 10.96000003814697
268.3500061035156 408.5899963378906 11.98999977111816
268.4800109863281 407.989990234375 12.11999988555908
268.2099914550781 409.1400146484375 11.89000034332275
267.5 411.9700012207031 11.52000045776367
267.0799865722656 413.739990234375 11.27999973297119
268.0599975585938 409.6700134277344 11.85000038146973
267.9299926757812 410.260009765625 11.73999977111816
266.2799987792969 416.3699951171875 8.920000076293945
267.6199951171875 411.3900146484375 11.59000015258789
267.1799926757812 413.1700134277344 11.34000015258789
266.6700134277344 415.3599853515625 11.07999992370605
266.489990234375 415.9200134277344 11.01000022888184
266.7699890136719 414.8099975585938 11.10999965667725
266.3800048828125 416.4700012207031 10.90999984741211
266.8999938964844 414.2699890136719 11.1899995803833
267.3500061035156 412.5599975585938 11.43000030517578
267.7900085449219 410.8699951171875 11.67000007629395
269.1700134277344 407.989990234375 12.46000003814697
268.8900146484375 409.1700134277344 12.26000022888184
269.010009765625 408.6000061035156 12.35999965667725
268.0299987792969 412.5 11.77000045776367
267.6199951171875 414.1700134277344 11.57999992370605
268.2099914550781 411.9500122070312 11.85999965667725
267.75 413.6300048828125 11.65999984741211
267.3500061035156 415.3200073242188 11.38000011444092
266.989990234375 416.3399963378906 8.819999694824219
268.6000061035156 410.239990234375 12.14000034332275
267.0799865722656 416.4800109863281 11.3100004196167
268.739990234375 409.7099914550781 12.22000026702881
267.1799926757812 415.8999938964844 11.39999961853027
267.510009765625 414.760009765625 11.48999977111816
268.3200073242188 411.3399963378906 11.97999954223633
268.4800109863281 410.7900085449219 12.02000045776367
267.9200134277344 413.0400085449219 11.72999954223633
269.6799926757812 408.5 12.64999961853027
269.510009765625 409.0700073242188 12.61999988555908
269.8099975585938 407.9400024414062 12.59000015258789
269.3900146484375 409.6400146484375 12.55000019073486
268.9500122070312 411.3200073242188 12.28999996185303
268.5400085449219 413.0899963378906 12.06999969482422
269.239990234375 410.1700134277344 12.48999977111816
268.1300048828125 414.760009765625 11.85999965667725
267.9599914550781 415.2900085449219 11.73999977111816
268.6799926757812 412.4700012207031 12.13000011444092
267.8599853515625 415.8500061035156 11.75
268.2300109863281 414.1900024414062 11.92000007629395
267.7099914550781 416.4400024414062 11.63000011444092
268.8299865722656 411.8999938964844 12.1899995803833
268.3599853515625 413.6600036621094 11.94999980926514
269.0899963378906 410.760009765625 12.39000034332275
270.4400024414062 407.1900024414062 8.189999580383301
270.0299987792969 409.7699890136719 12.47000026702881
269.2099914550781 413.0899963378906 12.39999961853027
270.1799926757812 409.1799926757812 12.40999984741211
269.6499938964844 411.4200134277344 12.61999988555908
269.4800109863281 411.9500122070312 12.57999992370605
268.8099975585938 414.7699890136719 12.18000030517578
270.2900085449219 408.5599975585938 12.3100004196167
268.3500061035156 416.4800109863281 12
268.5199890136719 415.9400024414062 12.05000019073486
268.6300048828125 415.3399963378906 12.10999965667725
269.739990234375 410.8599853515625 12.56999969482422
269.9100036621094 410.3200073242188 12.51000022888184
268.9400024414062 414.25 12.27000045776367
269.0700073242188 413.6600036621094 12.30000019073486
270.4200134277344 407.989990234375 12.27999973297119
269.3500061035156 412.5299987792969 12.47999954223633
270.2300109863281 412.0499877929688 12.30000019073486
271.2300109863281 407.260009765625 8.239999771118164
270.6700134277344 410.2999877929688 12.10999965667725
269.7000122070312 414.3699951171875 12.57999992370605
269.5700073242188 414.9299926757812 12.63000011444092
270.9400024414062 409.1600036621094 11.96000003814697
270.8099975585938 409.75 12
269.8500061035156 413.8200073242188 12.56999969482422
270.3699951171875 411.4400024414062 12.27000045776367
270.5499877929688 410.8500061035156 12.17000007629395
271.0499877929688 408.6099853515625 11.89000034332275
269.010009765625 416.3500061035156 8.050000190734863
269.2900085449219 416.0199890136719 12.47000026702881
270.0899963378906 412.6099853515625 12.39999961853027
269.0799865722656 416.4299926757812 9.840000152587891
269.9700012207031 413.1700134277344 12.48999977111816
271.1900024414062 408.0199890136719 11.86999988555908
269.4200134277344 415.4400024414062 12.57999992370605
269.1600036621094 416.5400085449219 12.3100004196167
271.4800109863281 409.7699890136719 11.72999954223633
271.7300109863281 408.5599975585938 11.5600004196167
271.6199951171875 409.1799926757812 11.60999965667725
271.0700073242188 411.4599914550781 11.86999988555908
271.1700134277344 410.8999938964844 11.81999969482422
270.5199890136719 413.7000122070312 12.3100004196167
270.8099975585938 412.5499877929688 12.05000019073486
270.239990234375 414.8399963378906 12.35000038146973
269.989990234375 416 12.56999969482422
270.1400146484375 415.3800048828125 12.4399995803833
269.8299865722656 416.5700073242188 12.56999969482422
270.6400146484375 413.1499938964844 12.11999988555908
271.8699951171875 408 11.4399995803833
