210.9199981689453 294.739990234375 7.789999961853027
210.3500061035156 294.8800048828125 7.550000190734863
212.8300018310547 294.260009765625 8.300000190734863
218.0299987792969 292.9400024414062 7.550000190734863
212.4799957275391 293.7699890136719 8.199999809265137
211.2799987792969 294.1000061035156 7.809999942779541
210.6300048828125 294.25 7.670000076293945
213.1000061035156 293.6099853515625 8.380000114440918
210.0599975585938 294.3699951171875 7.460000038146973
211.8600006103516 293.9400024414062 7.989999771118164
225.7400054931641 290.489990234375 7.929999828338623
221.1000061035156 291.6499938964844 7.599999904632568
224.4400024414062 290.7900085449219 7.869999885559082
225.1000061035156 290.6199951171875 7.909999847412109
223.8200073242188 290.989990234375 7.829999923706055
222.4499969482422 291.3099975585938 7.670000076293945
219.0700073242188 292.1199951171875 7.420000076293945
214.3099975585938 293.3200073242188 8.699999809265137
221.7799987792969 291.4599914550781 7.619999885559082
218.3899993896484 292.2799987792969 7.409999847412109
223.1300048828125 291.1499938964844 7.710000038146973
213.6900024414062 293.4700012207031 8.560000419616699
216.7200012207031 292.7099914550781 7.960000038146973
217.5399932861328 292.510009765625 7.659999847412109
215.8999938964844 292.9599914550781 8.189999580383301
219.7799987792969 291.9599914550781 7.480000019073486
220.4400024414062 291.8099975585938 7.539999961853027
215.0800018310547 293.1499938964844 8.380000114440918
226.1000061035156 289.8999938964844 8.180000305175781
224.75 290.239990234375 8.050000190734863
220.6699981689453 291.25 7.710000038146973
222.0299987792969 290.9100036621094 7.849999904632568
225.4700012207031 290.0599975585938 8.119999885559082
219.3899993896484 291.5700073242188 7.590000152587891
222.7100067138672 290.760009765625 7.889999866485596
217.2599945068359 292.1000061035156 7.769999980926514
216.3899993896484 292.3299865722656 8.020000457763672
218.7599945068359 291.7200012207031 7.590000152587891
220.0399932861328 291.3900146484375 7.679999828338623
223.4100036621094 290.5700073242188 7.920000076293945
212.8300018310547 293.2300109863281 8.329999923706055
212.2100067138672 293.3800048828125 8.090000152587891
209.7899932861328 293.9700012207031 7.300000190734863
210.9100036621094 293.6700134277344 7.710000038146973
214.0899963378906 292.8900146484375 8.689999580383301
210.3200073242188 293.8399963378906 7.590000152587891
214.8200073242188 292.7300109863281 8.489999771118164
218 291.9100036621094 7.539999961853027
211.5899963378906 293.510009765625 7.900000095367432
213.4199981689453 293.0499877929688 8.470000267028809
224.0700073242188 290.4200134277344 7.989999771118164
215.6600036621094 292.5 8.260000228881836
224.9900054931641 289.5799865722656 8.25
223.6799926757812 289.9100036621094 8.140000343322754
223 290.0799865722656 8.079999923706055
218.9600067138672 291.0700073242188 7.789999961853027
224.3399963378906 289.7699890136719 8.239999771118164
221 290.5700073242188 7.909999847412109
222.3399963378906 290.239990234375 8.050000190734863
216.7799987792969 291.6199951171875 7.860000133514404
220.3500061035156 290.7200012207031 7.889999866485596
215.1499938964844 292.0299987792969 8.359999656677246
215.9400024414062 291.8299865722656 8.130000114440918
218.3000030517578 291.2300109863281 7.730000019073486
217.6199951171875 291.4299926757812 7.659999847412109
221.6900024414062 290.4299926757812 7.960000038146973
225.6300048828125 289.4400024414062 8.289999961853027
211.9499969482422 292.8299865722656 7.989999771118164
213.1499938964844 292.5299987792969 8.369999885559082
213.7299957275391 292.3800048828125 8.600000381469727
214.4199981689453 292.2099914550781 8.630000114440918
219.6799926757812 290.8999938964844 7.820000171661377
211.3000030517578 292.9700012207031 7.829999923706055
212.5 292.6799926757812 8.170000076293945
210.7400054931641 293.1499938964844 7.670000076293945
210.1300048828125 293.2900085449219 7.460000038146973
225.3899993896484 288.8200073242188 8.25
221.8399963378906 289.7000122070312 8.239999771118164
221.1199951171875 289.8699951171875 8.149999618530273
219.8399963378906 290.2000122070312 8.060000419616699
226.1000061035156 288.6499938964844 8.189999580383301
218.5200042724609 290.5299987792969 7.960000038146973
217.1799926757812 290.8599853515625 7.840000152587891
217.8600006103516 290.6900024414062 7.929999828338623
213.4499969482422 291.7900085449219 8.489999771118164
224.6799926757812 289.010009765625 8.289999961853027
212.8300018310547 291.9400024414062 8.300000190734863
215.6000061035156 291.2699890136719 8.25
212.1999969482422 292.1000061035156 8.100000381469727
219.1999969482422 290.3500061035156 8.020000457763672
209.75 292.6900024414062 7.349999904632568
220.5200042724609 290.0700073242188 8.130000114440918
222.5500030517578 289.5599975585938 8.25
210.9100036621094 292.4299926757812 7.730000019073486
210.3300018310547 292.5599975585938 7.519999980926514
211.5500030517578 292.25 7.940000057220459
214.8500061035156 291.4400024414062 8.470000267028809
223.8899993896484 289.1900024414062 8.319999694824219
216.4100036621094 291.0499877929688 8.039999961853027
223.2299957275391 289.3900146484375 8.329999923706055
214.0399932861328 291.6700134277344 8.640000343322754
210.6300048828125 291.9200134277344 7.650000095367432
210.0299987792969 292.0899963378906 7.429999828338623
225.0200042724609 288.3500061035156 8.090000152587891
224.3200073242188 288.5299987792969 8.140000343322754
223.6199951171875 288.7099914550781 8.140000343322754
222.1799926757812 289.0899963378906 8.289999961853027
221.4499969482422 289.239990234375 8.340000152587891
218.7400054931641 289.9500122070312 8.149999618530273
218.0800018310547 290.0799865722656 8.109999656677246
225.7400054931641 288.2200012207031 8
216.6799926757812 290.4599914550781 7.989999771118164
219.4299926757812 289.75 8.189999580383301
220.75 289.4500122070312 8.300000190734863
215.8399963378906 290.6600036621094 8.159999847412109
211.2599945068359 291.7999877929688 7.789999961853027
214.3200073242188 291.0599975585938 8.689999580383301
215.0800018310547 290.8200073242188 8.420000076293945
217.3500061035156 290.260009765625 8.020000457763672
213.1000061035156 291.3299865722656 8.350000381469727
211.8399963378906 291.6499938964844 7.989999771118164
212.4100036621094 291.5199890136719 8.210000038146973
222.8500061035156 288.8900146484375 8.25
220.0899963378906 289.6000061035156 8.239999771118164
213.7100067138672 291.2000122070312 8.5
226.2799987792969 287.5700073242188 7.829999923706055
224.8300018310547 287.9500122070312 7.920000076293945
224.0899963378906 288.1499938964844 7.980000019073486
225.6100006103516 287.739990234375 7.889999866485596
223.3800048828125 288.3099975585938 8.029999732971191
219.0599975585938 289.3800048828125 8.310000419616699
221.1199951171875 288.8900146484375 8.239999771118164
217.1000061035156 289.8999938964844 8.189999580383301
221.8999938964844 288.6799926757812 8.149999618530273
218.4100036621094 289.5599975585938 8.289999961853027
215.6999969482422 290.239990234375 8.239999771118164
216.3500061035156 290.0700073242188 8.140000343322754
214.8800048828125 290.4299926757812 8.460000038146973
222.6600036621094 288.510009765625 8.079999923706055
209.8000030517578 291.7000122070312 7.329999923706055
220.4499969482422 289.0299987792969 8.300000190734863
212.2200012207031 291.1099853515625 8.100000381469727
212.8500061035156 290.9100036621094 8.329999923706055
210.3699951171875 291.5700073242188 7.590000152587891
214.0700073242188 290.6400146484375 8.670000076293945
213.4400024414062 290.7799987792969 8.470000267028809
217.7100067138672 289.7200012207031 8.199999809265137
219.7299957275391 289.2099914550781 8.359999656677246
211.5399932861328 291.260009765625 7.920000076293945
210.9499969482422 291.3999938964844 7.71999979019165
225.9900054931641 287.0499877929688 7.639999866485596
224.5899963378906 287.4200134277344 7.71999979019165
221.7100067138672 288.1400146484375 7.949999809265137
223.1499938964844 287.75 7.849999904632568
218.1300048828125 289.0400085449219 8.239999771118164
219.5599975585938 288.6600036621094 8.149999618530273
217.3399963378906 289.239990234375 8.329999923706055
215.9100036621094 289.5599975585938 8.319999694824219
220.2899932861328 288.4700012207031 8.109999656677246
216.6499938964844 289.4100036621094 8.329999923706055
222.4700012207031 287.9299926757812 7.929999828338623
215.2400054931641 289.760009765625 8.329999923706055
214.4499969482422 289.9299926757812 8.590000152587891
223.9100036621094 287.5799865722656 7.760000228881836
211.9900054931641 290.5599975585938 8.010000228881836
213.1900024414062 290.2300109863281 8.420000076293945
210.1399993896484 290.989990234375 7.46999979019165
221 288.3200073242188 8
225.3000030517578 287.25 7.659999847412109
213.7700042724609 290.1300048828125 8.590000152587891
212.5399932861328 290.3900146484375 8.210000038146973
218.8399963378906 288.8800048828125 8.239999771118164
211.3500061035156 290.6900024414062 7.880000114440918
210.7599945068359 290.8599853515625 7.679999828338623
223.6900024414062 286.9599914550781 7.579999923706055
224.3399963378906 286.760009765625 7.550000190734863
225.1499938964844 286.5700073242188 7.460000038146973
225.8999938964844 286.4100036621094 7.380000114440918
219.3600006103516 288.0199890136719 7.909999847412109
220.6999969482422 287.6700134277344 7.840000152587891
222.8999938964844 287.1499938964844 7.630000114440918
217.1699981689453 288.5599975585938 8.119999885559082
214.9499969482422 289.1000061035156 8.470000267028809
213.5200042724609 289.4700012207031 8.510000228881836
216.4100036621094 288.7699890136719 8.239999771118164
220.0399932861328 287.8500061035156 7.860000133514404
209.8500061035156 290.3699951171875 7.369999885559082
217.8999938964844 288.3999938964844 8.039999961853027
210.9799957275391 290.0899963378906 7.75
214.1300048828125 289.3299865722656 8.640000343322754
210.3899993896484 290.2300109863281 7.550000190734863
212.8999938964844 289.6099853515625 8.310000419616699
212.2799987792969 289.7799987792969 8.119999885559082
218.6100006103516 288.1900024414062 8.029999732971191
222.2100067138672 287.3299865722656 7.670000076293945
215.6900024414062 288.9100036621094 8.289999961853027
211.6100006103516 289.9599914550781 7.949999809265137
225.5899963378906 285.8299865722656 7.059999942779541
224.8300018310547 285.9700012207031 7.159999847412109
220.4799957275391 287.0599975585938 7.610000133514404
222.6399993896484 286.5299987792969 7.420000076293945
218.9900054931641 287.4400024414062 7.710000038146973
217.5099945068359 287.8099975585938 7.849999904632568
221.8600006103516 286.739990234375 7.46999979019165
224.0800018310547 286.1700134277344 7.289999961853027
214.4100036621094 288.5799865722656 8.579999923706055
215.1699981689453 288.4100036621094 8.319999694824219
213.1499938964844 288.8900146484375 8.380000114440918
215.9499969482422 288.2000122070312 8.100000381469727
213.7700042724609 288.739990234375 8.590000152587891
212.5 289.0700073242188 8.189999580383301
210.0899963378906 289.6600036621094 7.480000019073486
211.9299926757812 289.1900024414062 7.989999771118164
210.7200012207031 289.4800109863281 7.679999828338623
211.3000030517578 289.3500061035156 7.829999923706055
223.3600006103516 286.3800048828125 7.349999904632568
221.1999969482422 286.9200134277344 7.550000190734863
219.7400054931641 287.239990234375 7.699999809265137
226.2299957275391 285.6400146484375 7.079999923706055
218.2799987792969 287.6400146484375 7.78000020980835
216.7700042724609 288 7.940000057220459
209.5099945068359 289.7999877929688 7.199999809265137
220.9499969482422 286.4299926757812 7.360000133514404
217.3899993896484 287.3200073242188 7.730000019073486
219.5500030517578 286.7900085449219 7.510000228881836
218.8600006103516 286.9299926757812 7.539999961853027
216.5299987792969 287.510009765625 7.949999809265137
218.0500030517578 287.1400146484375 7.619999885559082
215.0099945068359 287.9299926757812 8.420000076293945
211.0299987792969 288.9100036621094 7.78000020980835
215.7899932861328 287.7200012207031 8.210000038146973
214.1900024414062 288.1000061035156 8.649999618530273
212.25 288.5899963378906 8.140000343322754
211.6699981689453 288.739990234375 7.920000076293945
209.8500061035156 289.1499938964844 7.369999885559082
212.9299926757812 288.4100036621094 8.319999694824219
220.2200012207031 286.5899963378906 7.429999828338623
213.4900054931641 288.2900085449219 8.5
210.4499969482422 289.0499877929688 7.610000133514404
222.3399963378906 286.0899963378906 7.329999923706055
220.0200042724609 286.0299987792969 7.360000133514404
214.5899963378906 287.3900146484375 8.569999694824219
217.8399963378906 286.5899963378906 7.5
216.9799957275391 286.7999877929688 7.800000190734863
218.6199951171875 286.4200134277344 7.389999866485596
219.3000030517578 286.2099914550781 7.309999942779541
211.4400024414062 288.1799926757812 7.860000133514404
210.2299957275391 288.4700012207031 7.5
212.6600036621094 287.8999938964844 8.220000267028809
215.3500061035156 287.2300109863281 8.300000190734863
210.8899993896484 288.3399963378906 7.690000057220459
213.3099975585938 287.7099914550781 8.439999580383301
213.8800048828125 287.5700073242188 8.619999885559082
216.1199951171875 287.010009765625 8.060000419616699
209.6399993896484 288.6199951171875 7.300000190734863
212.0700073242188 288.0199890136719 8.039999961853027
217.6799926757812 285.9599914550781 7.340000152587891
212.4199981689453 287.2999877929688 8.149999618530273
213.0399932861328 287.1600036621094 8.390000343322754
210.5099945068359 287.760009765625 7.570000171661377
213.6499938964844 286.9800109863281 8.550000190734863
211.7799987792969 287.4599914550781 7.949999809265137
209.9799957275391 287.9100036621094 7.449999809265137
211.1399993896484 287.5799865722656 7.789999961853027
215.1300048828125 286.6099853515625 8.380000114440918
215.9100036621094 286.4100036621094 8.199999809265137
214.3000030517578 286.8200073242188 8.649999618530273
213.9400024414062 286.2699890136719 8.560000419616699
211.4799957275391 286.8699951171875 7.869999885559082
212.1100006103516 286.75 8.090000152587891
210.8800048828125 287.010009765625 7.679999828338623
213.3200073242188 286.4100036621094 8.470000267028809
209.6499938964844 287.3099975585938 7.309999942779541
210.2799987792969 287.1600036621094 7.510000228881836
212.6499938964844 286.5899963378906 8.239999771118164
211.2299957275391 286.3999938964844 7.769999980926514
210.6399993896484 286.5400085449219 7.639999866485596
210.0399932861328 286.6900024414062 7.460000038146973
209.8800048828125 286.6300048828125 7.340000152587891
211.0200042724609 286.2999877929688 7.659999847412109
210.4499969482422 286.4400024414062 7.53000020980835
210.1199951171875 287.1000061035156 7.429999828338623
210.7200012207031 286.9500122070312 7.630000114440918
212.3399963378906 286.5499877929688 8.130000114440918
209.6300048828125 287.25 7.28000020980835
211.8200073242188 286.7000122070312 7.929999828338623
212.9499969482422 286.3699951171875 8.310000419616699
211.2400054931641 286.8200073242188 7.769999980926514
213.4499969482422 286.2699890136719 8.479999542236328
211.1000061035156 287.5199890136719 7.730000019073486
212.1699981689453 287.25 8.079999923706055
209.9700012207031 287.7999877929688 7.420000076293945
213.2400054931641 286.989990234375 8.409999847412109
211.6600036621094 287.4100036621094 7.929999828338623
215.0200042724609 286.5199890136719 8.470000267028809
216.2299957275391 286.2699890136719 8.079999923706055
212.6900024414062 287.1000061035156 8.25
214.3800048828125 286.6900024414062 8.640000343322754
210.5299987792969 287.6600036621094 7.590000152587891
217.5700073242188 285.9400024414062 7.400000095367432
213.8000030517578 286.8599853515625 8.600000381469727
215.6100006103516 286.3999938964844 8.260000228881836
218.4900054931641 286.3900146484375 7.420000076293945
219.6699981689453 286.1000061035156 7.289999961853027
219.0500030517578 286.260009765625 7.349999904632568
217.8200073242188 286.5799865722656 7.559999942779541
220.2299957275391 285.9700012207031 7.309999942779541
209.6999969482422 288.6000061035156 7.289999961853027
212.4900054931641 287.9200134277344 8.159999847412109
213.0399932861328 287.7799987792969 8.359999656677246
210.2899932861328 288.4500122070312 7.46999979019165
215.4700012207031 287.1499938964844 8.310000419616699
210.8500061035156 288.2999877929688 7.679999828338623
213.5899963378906 287.6400146484375 8.529999732971191
211.8699951171875 288.0599975585938 7.980000019073486
216.0500030517578 286.989990234375 8.130000114440918
214.8300018310547 287.2999877929688 8.510000228881836
211.3699951171875 288.1700134277344 7.809999942779541
214.1499938964844 287.489990234375 8.670000076293945
217.2700042724609 286.7000122070312 7.730000019073486
216.6399993896484 286.8599853515625 7.920000076293945
209.5500030517578 289.3699951171875 7.320000171661377
213.4199981689453 288.3500061035156 8.420000076293945
214.5599975585938 288.0599975585938 8.569999694824219
215.7899932861328 287.7799987792969 8.189999580383301
218.2400054931641 287.1600036621094 7.639999866485596
217.6900024414062 287.2999877929688 7.690000057220459
218.8500061035156 287 7.570000171661377
212.3699951171875 288.6499938964844 8.100000381469727
220.6699981689453 286.5499877929688 7.420000076293945
221.2599945068359 286.4299926757812 7.349999904632568
212.8800048828125 288.510009765625 8.279999732971191
210.1300048828125 289.1799926757812 7.480000019073486
216.3800048828125 287.6300048828125 8
213.9900054931641 288.2000122070312 8.630000114440918
222.3800048828125 286.1400146484375 7.269999980926514
217.0500030517578 287.4599914550781 7.800000190734863
220.0800018310547 286.7200012207031 7.519999980926514
221.8099975585938 286.2699890136719 7.320000171661377
210.7299957275391 289.0599975585938 7.610000133514404
219.4900054931641 286.8500061035156 7.53000020980835
211.8000030517578 288.75 7.96999979019165
211.3000030517578 288.9299926757812 7.860000133514404
215.2100067138672 287.8999938964844 8.380000114440918
210.9600067138672 289.5700073242188 7.679999828338623
209.8200073242188 289.8699951171875 7.340000152587891
212.0299987792969 289.2999877929688 8.010000228881836
211.4799957275391 289.4400024414062 7.860000133514404
213.1999969482422 289 8.350000381469727
212.5599975585938 289.1799926757812 8.180000305175781
216.1699981689453 288.260009765625 8.060000419616699
210.3699951171875 289.75 7.550000190734863
219.6900024414062 287.3699951171875 7.730000019073486
220.8300018310547 287.0899963378906 7.650000095367432
216.7299957275391 288.1400146484375 8
217.8999938964844 287.8200073242188 7.889999866485596
213.7100067138672 288.8599853515625 8.539999961853027
223.9100036621094 286.3299865722656 7.409999847412109
217.3200073242188 287.9800109863281 7.940000057220459
220.2799987792969 287.2300109863281 7.670000076293945
221.4600067138672 286.9299926757812 7.599999904632568
215.6000061035156 288.3999938964844 8.25
219.0800018310547 287.5499877929688 7.760000228881836
218.5299987792969 287.7099914550781 7.829999923706055
214.9199981689453 288.5700073242188 8.449999809265137
226.25 285.7699890136719 7.03000020980835
222.0500030517578 286.8099975585938 7.519999980926514
214.3200073242188 288.739990234375 8.640000343322754
225.0899963378906 286.0400085449219 7.25
224.5200042724609 286.1700134277344 7.309999942779541
223.2599945068359 286.4800109863281 7.440000057220459
222.6900024414062 286.6600036621094 7.46999979019165
215.8200073242188 289.0400085449219 8.319999694824219
215.2400054931641 289.1600036621094 8.409999847412109
216.9700012207031 288.7300109863281 8.189999580383301
216.3600006103516 288.8999938964844 8.270000457763672
220.0700073242188 287.9800109863281 7.909999847412109
221.1699981689453 287.7000122070312 7.840000152587891
217.6399993896484 288.6000061035156 8.159999847412109
224.1399993896484 286.9800109863281 7.610000133514404
225.2599945068359 286.6799926757812 7.489999771118164
222.9700012207031 287.260009765625 7.670000076293945
218.1799926757812 288.4200134277344 8.100000381469727
226.5299987792969 286.3699951171875 7.389999866485596
218.8300018310547 288.2900085449219 8.029999732971191
221.7400054931641 287.5400085449219 7.760000228881836
219.4199981689453 288.1199951171875 7.949999809265137
220.6000061035156 287.8200073242188 7.860000133514404
225.8899993896484 286.5199890136719 7.440000057220459
224.7400054931641 286.8299865722656 7.550000190734863
222.3200073242188 287.4200134277344 7.75
223.5099945068359 287.1099853515625 7.619999885559082
212.3399963378906 289.8999938964844 8.109999656677246
214.5800018310547 289.3200073242188 8.560000419616699
214.0099945068359 289.4500122070312 8.630000114440918
213.4100036621094 289.6300048828125 8.449999809265137
211.3099975585938 290.1700134277344 7.789999961853027
210.1300048828125 290.4500122070312 7.440000057220459
211.8200073242188 290.0400085449219 7.960000038146973
210.7400054931641 290.3299865722656 7.670000076293945
212.8899993896484 289.7699890136719 8.310000419616699
209.5500030517578 290.5799865722656 7.329999923706055
222.0899963378906 288.1499938964844 8.010000228881836
222.6600036621094 288.0499877929688 7.96999979019165
221.4499969482422 288.3399963378906 8.039999961853027
225.0500030517578 287.4100036621094 7.75
226.1900024414062 287.1199951171875 7.679999828338623
224.5299987792969 287.5799865722656 7.809999942779541
223.8699951171875 287.7000122070312 7.869999885559082
223.2799987792969 287.8599853515625 7.869999885559082
225.6699981689453 287.2900085449219 7.690000057220459
209.8600006103516 291.239990234375 7.320000171661377
210.9799957275391 290.9500122070312 7.710000038146973
212.0700073242188 290.6600036621094 8.029999732971191
211.5500030517578 290.7900085449219 7.880000114440918
210.4199981689453 291.1000061035156 7.550000190734863
216.2200012207031 289.6199951171875 8.260000228881836
217.8999938964844 289.239990234375 8.359999656677246
215.0099945068359 289.9200134277344 8.420000076293945
219.6900024414062 288.75 8.210000038146973
216.7299957275391 289.510009765625 8.300000190734863
220.8200073242188 288.489990234375 8.090000152587891
215.6499938964844 289.760009765625 8.279999732971191
218.5299987792969 289.0799865722656 8.310000419616699
213.7599945068359 290.260009765625 8.569999694824219
219.0500030517578 288.9100036621094 8.239999771118164
214.3500061035156 290.0899963378906 8.640000343322754
220.25 288.6099853515625 8.130000114440918
217.3500061035156 289.3399963378906 8.310000419616699
212.6499938964844 290.5299987792969 8.220000267028809
213.25 290.3900146484375 8.369999885559082
210.3099975585938 291.7799987792969 7.46999979019165
211.9700012207031 291.3699951171875 8.039999961853027
210.8699951171875 291.6400146484375 7.650000095367432
211.4499969482422 291.4700012207031 7.829999923706055
215.3899993896484 290.4800109863281 8.350000381469727
215.9799957275391 290.3299865722656 8.159999847412109
213.0299987792969 291.0599975585938 8.329999923706055
217.7400054931641 289.8900146484375 8.170000076293945
218.8899993896484 289.6000061035156 8.25
212.5399932861328 291.2300109863281 8.189999580383301
209.6699981689453 291.9100036621094 7.389999866485596
213.5599975585938 290.9599914550781 8.5
214.1300048828125 290.7699890136719 8.670000076293945
218.3300018310547 289.7699890136719 8.199999809265137
223.6000061035156 288.4500122070312 8.060000419616699
219.5099945068359 289.4599914550781 8.310000419616699
223.0099945068359 288.5599975585938 8.149999618530273
220.1000061035156 289.2999877929688 8.340000152587891
220.7100067138672 289.1799926757812 8.350000381469727
216.5500030517578 290.1900024414062 8.109999656677246
214.7700042724609 290.6499938964844 8.529999732971191
225.9499969482422 287.8399963378906 7.880000114440918
221.2299957275391 289.010009765625 8.289999961853027
221.8200073242188 288.8900146484375 8.229999542236328
225.3399963378906 287.9800109863281 7.960000038146973
224.2400054931641 288.2900085449219 8.010000228881836
222.4100036621094 288.7200012207031 8.199999809265137
225.6499938964844 288.489990234375 8.100000381469727
217.1699981689453 290.0400085449219 8.119999885559082
224.75 288.1499938964844 7.980000019073486
226.1999969482422 288.3200073242188 8.090000152587891
215.0800018310547 291.1300048828125 8.409999847412109
216.8800048828125 290.6600036621094 7.929999828338623
214.4199981689453 291.260009765625 8.659999847412109
219.7700042724609 289.9599914550781 8.100000381469727
215.7299957275391 290.9700012207031 8.239999771118164
218.0099945068359 290.3800048828125 7.989999771118164
218.6000061035156 290.2300109863281 8.039999961853027
224.4700012207031 288.760009765625 8.199999809265137
223.8600006103516 288.8999938964844 8.270000457763672
222.6399993896484 289.2099914550781 8.329999923706055
217.4400024414062 290.5199890136719 7.940000057220459
222.0899963378906 289.3800048828125 8.289999961853027
220.8800048828125 289.6799926757812 8.229999542236328
225.0700073242188 288.6000061035156 8.170000076293945
216.3200073242188 290.8399963378906 8.079999923706055
221.4600067138672 289.5299987792969 8.260000228881836
223.2599945068359 289.0599975585938 8.289999961853027
220.3200073242188 289.7900085449219 8.189999580383301
219.1399993896484 290.1199951171875 8.100000381469727
209.9700012207031 292.4299926757812 7.409999847412109
213.3200073242188 291.5799865722656 8.430000305175781
212.7200012207031 291.7200012207031 8.210000038146973
212.1300048828125 291.8399963378906 8.079999923706055
213.8399963378906 291.4500122070312 8.590000152587891
211.5800018310547 291.989990234375 7.900000095367432
210.4799957275391 292.260009765625 7.590000152587891
211.0599975585938 292.1199951171875 7.739999771118164
209.6600036621094 293.1499938964844 7.309999942779541
210.2299957275391 293.0400085449219 7.510000228881836
211.8999938964844 292.5899963378906 7.989999771118164
212.4499969482422 292.4299926757812 8.159999847412109
213.5099945068359 292.1700134277344 8.489999771118164
214.6900024414062 291.8999938964844 8.560000419616699
214.0899963378906 292.0400085449219 8.640000343322754
216.5399932861328 291.4400024414062 7.96999979019165
217.7599945068359 291.1300048828125 7.760000228881836
213.0200042724609 292.3299865722656 8.340000152587891
210.8200073242188 292.8500061035156 7.659999847412109
220.1600036621094 290.5499877929688 7.96999979019165
221.2700042724609 290.2699890136719 8.060000419616699
215.8999938964844 291.5700073242188 8.180000305175781
222.9400024414062 289.8099975585938 8.159999847412109
222.3800048828125 289.989990234375 8.149999618530273
218.9499969482422 290.8399963378906 7.840000152587891
223.5099945068359 289.6600036621094 8.220000267028809
224.6999969482422 289.4100036621094 8.350000381469727
215.3399963378906 291.7099914550781 8.399999618530273
221.7700042724609 290.0899963378906 8.100000381469727
217.1199951171875 291.2699890136719 7.820000171661377
225.2400054931641 289.260009765625 8.329999923706055
218.3000030517578 290.989990234375 7.809999942779541
224.0800018310547 289.5199890136719 8.289999961853027
220.6900024414062 290.3800048828125 7.949999809265137
211.3800048828125 292.7099914550781 7.820000171661377
219.4900054931641 290.6900024414062 7.880000114440918
225.8399963378906 289.0700073242188 8.329999923706055
226.4700012207031 288.9599914550781 8.25
209.9400024414062 293.8299865722656 7.400000095367432
211.0599975585938 293.510009765625 7.71999979019165
213.2899932861328 292.9400024414062 8.399999618530273
210.5099945068359 293.6700134277344 7.559999942779541
211.5800018310547 293.3699951171875 7.880000114440918
216.8500061035156 292.0400085449219 7.920000076293945
215.0899963378906 292.5199890136719 8.449999809265137
215.6900024414062 292.3399963378906 8.25
212.7299957275391 293.0799865722656 8.260000228881836
219.8500061035156 291.2999877929688 7.699999809265137
218.0800018310547 291.7799987792969 7.570000171661377
219.2200012207031 291.4700012207031 7.619999885559082
214.3800048828125 292.6799926757812 8.649999618530273
221.5500030517578 290.9100036621094 7.789999961853027
217.4799957275391 291.8900146484375 7.75
223.3300018310547 290.4700012207031 7.96999979019165
213.8399963378906 292.7999877929688 8.529999732971191
225.6399993896484 289.8900146484375 8.170000076293945
222.6799926757812 290.5799865722656 7.920000076293945
223.8800048828125 290.3099975585938 8
220.9299926757812 291.0499877929688 7.769999980926514
212.1300048828125 293.260009765625 8.039999961853027
222.1600036621094 290.7300109863281 7.849999904632568
218.6699981689453 291.6000061035156 7.579999923706055
225.0500030517578 289.989990234375 8.119999885559082
216.2700042724609 292.2200012207031 8.109999656677246
220.3899993896484 291.1700134277344 7.760000228881836
224.5200042724609 290.1600036621094 8.029999732971191
226.1699981689453 289.7200012207031 8.180000305175781
216.5800018310547 292.760009765625 8.029999732971191
217.2899932861328 292.6300048828125 7.840000152587891
209.7299957275391 294.489990234375 7.329999923706055
210.3500061035156 294.3599853515625 7.519999980926514
210.9199981689453 294.2300109863281 7.71999979019165
211.4900054931641 294.0499877929688 7.849999904632568
212.5599975585938 293.760009765625 8.180000305175781
215.4100036621094 293.0499877929688 8.390000343322754
214.2100067138672 293.3900146484375 8.689999580383301
216 292.9100036621094 8.199999809265137
217.8999938964844 292.4500122070312 7.599999904632568
213.1000061035156 293.6600036621094 8.329999923706055
211.9799957275391 293.9400024414062 8.010000228881836
222 291.4400024414062 7.650000095367432
224.3200073242188 290.8599853515625 7.820000171661377
223.6799926757812 291 7.769999980926514
223.1100006103516 291.1499938964844 7.739999771118164
225.4100036621094 290.5599975585938 7.929999828338623
219.0800018310547 292.1400146484375 7.420000076293945
213.6399993896484 293.5199890136719 8.489999771118164
220.8500061035156 291.7000122070312 7.570000171661377
225.9600067138672 290.4400024414062 7.989999771118164
222.5299987792969 291.2799987792969 7.730000019073486
219.6900024414062 292.0199890136719 7.5
220.3200073242188 291.8800048828125 7.559999942779541
218.4799957275391 292.2900085449219 7.449999809265137
224.8600006103516 290.7200012207031 7.880000114440918
214.7700042724609 293.2099914550781 8.680000305175781
221.4100036621094 291.5700073242188 7.570000171661377
222.3099975585938 291.9100036621094 7.489999771118164
225.2299957275391 291.1700134277344 7.730000019073486
225.7899932861328 291.0299987792969 7.760000228881836
224.6699981689453 291.3200073242188 7.710000038146973
223.4400024414062 291.5899963378906 7.570000171661377
226.3099975585938 290.8599853515625 7.860000133514404
222.8399963378906 291.760009765625 7.519999980926514
224.0599975585938 291.4400024414062 7.610000133514404
211.1300048828125 294.6700134277344 7.75
212.2200012207031 294.3900146484375 8.119999885559082
212.7599945068359 294.25 8.239999771118164
211.6600036621094 294.5400085449219 7.920000076293945
214.5 293.8099975585938 8.630000114440918
213.3800048828125 294.0899963378906 8.460000038146973
210.0399932861328 294.9800109863281 7.46999979019165
218.7700042724609 292.7799987792969 7.380000114440918
215.1300048828125 293.6600036621094 8.399999618530273
217.5399932861328 293.0599975585938 7.71999979019165
218.1799926757812 292.8999938964844 7.559999942779541
210.5200042724609 294.8099975585938 7.630000114440918
216.3800048828125 293.3599853515625 8.060000419616699
213.8899993896484 293.9700012207031 8.600000381469727
221.0700073242188 292.1799926757812 7.409999847412109
219.9700012207031 292.4599914550781 7.269999980926514
221.7100067138672 292.0299987792969 7.420000076293945
216.9799957275391 293.2300109863281 7.869999885559082
215.7599945068359 293.5299987792969 8.239999771118164
220.5399932861328 292.3099975585938 7.340000152587891
209.75 295.6799926757812 7.349999904632568
211.4799957275391 295.239990234375 7.880000114440918
213.6199951171875 294.6799926757812 8.489999771118164
215.4299926757812 294.2300109863281 8.340000152587891
212.5500030517578 294.9700012207031 8.180000305175781
216.6300048828125 293.9500122070312 7.980000019073486
217.25 293.7999877929688 7.78000020980835
217.9100036621094 293.6400146484375 7.590000152587891
218.4900054931641 293.489990234375 7.429999828338623
210.2700042724609 295.5199890136719 7.550000190734863
214.2200012207031 294.5599975585938 8.689999580383301
213.0599975585938 294.8399963378906 8.369999885559082
222.5800018310547 292.4700012207031 7.309999942779541
212.0099945068359 295.0899963378906 8.029999732971191
214.7400054931641 294.4100036621094 8.550000190734863
216.0200042724609 294.0799865722656 8.159999847412109
210.8800048828125 295.3699951171875 7.730000019073486
223.1699981689453 292.3200073242188 7.329999923706055
224.9199981689453 291.8599853515625 7.480000019073486
225.4400024414062 291.7300109863281 7.550000190734863
226.0899963378906 291.5899963378906 7.579999923706055
223.7299957275391 292.1799926757812 7.420000076293945
222.0299987792969 292.6199951171875 7.340000152587891
224.3099975585938 292.0299987792969 7.449999809265137
209.9799957275391 296.3299865722656 7.440000057220459
212.1699981689453 295.75 8.090000152587891
210.5500030517578 296.1900024414062 7.650000095367432
211.1300048828125 296.0199890136719 7.78000020980835
213.3500061035156 295.4500122070312 8.430000305175781
213.8899993896484 295.3500061035156 8.600000381469727
211.6499938964844 295.8999938964844 7.949999809265137
217.5700073242188 294.3999938964844 7.730000019073486
215.1499938964844 295 8.439999580383301
214.5 295.1700134277344 8.569999694824219
215.7700042724609 294.8800048828125 8.270000457763672
216.9700012207031 294.5799865722656 7.869999885559082
218.7799987792969 294.1099853515625 7.409999847412109
218.1399993896484 294.260009765625 7.539999961853027
216.3600006103516 294.7200012207031 8.050000190734863
225.3000030517578 292.4700012207031 7.309999942779541
225.8300018310547 292.3599853515625 7.320000171661377
212.7899932861328 295.6000061035156 8.270000457763672
209.4100036621094 296.4700012207031 7.309999942779541
226.3899993896484 292.2099914550781 7.409999847412109
213.1199951171875 296.2300109863281 8.380000114440918
212.0299987792969 296.489990234375 8.060000419616699
216.6499938964844 295.3200073242188 7.989999771118164
216.0700073242188 295.4800109863281 8.140000343322754
214.2299957275391 295.9400024414062 8.659999847412109
213.6900024414062 296.0599975585938 8.5
217.3200073242188 295.1499938964844 7.820000171661377
215.4700012207031 295.6400146484375 8.359999656677246
214.8699951171875 295.75 8.550000190734863
218.5700073242188 294.8699951171875 7.389999866485596
212.6100006103516 296.3299865722656 8.220000267028809
217.9799957275391 295.0199890136719 7.590000152587891
209.7599945068359 297.0700073242188 7.360000133514404
211.5200042724609 296.5899963378906 7.929999828338623
210.3600006103516 296.9299926757812 7.599999904632568
210.9700012207031 296.7699890136719 7.75
218.8200073242188 295.3599853515625 7.420000076293945
209.4499969482422 297.7200012207031 7.349999904632568
210.0700073242188 297.5799865722656 7.460000038146973
212.2700042724609 297.0199890136719 8.100000381469727
211.1499938964844 297.2900085449219 7.800000190734863
211.7299957275391 297.1600036621094 7.96999979019165
210.5800018310547 297.4100036621094 7.659999847412109
212.8300018310547 296.8500061035156 8.319999694824219
215.2100067138672 296.2900085449219 8.449999809265137
217.6100006103516 295.6600036621094 7.699999809265137
215.8500061035156 296.1199951171875 8.229999542236328
217.0299987792969 295.7999877929688 7.909999847412109
214.5399932861328 296.4100036621094 8.619999885559082
213.4299926757812 296.7200012207031 8.430000305175781
213.9299926757812 296.5899963378906 8.600000381469727
218.2299957275391 295.5400085449219 7.550000190734863
216.4100036621094 295.9400024414062 8.079999923706055
210.9600067138672 298 7.730000019073486
212.5899963378906 297.5899963378906 8.25
214.2400054931641 297.1400146484375 8.659999847412109
212.0399932861328 297.6900024414062 8.050000190734863
211.5200042724609 297.8500061035156 7.889999866485596
215.4600067138672 296.8599853515625 8.359999656677246
218.5099945068359 296.0799865722656 7.449999809265137
216.6399993896484 296.5299987792969 8.020000457763672
216.0399932861328 296.6900024414062 8.180000305175781
213.6399993896484 297.2799987792969 8.539999961853027
213.1499938964844 297.4500122070312 8.399999618530273
217.2899932861328 296.3800048828125 7.849999904632568
217.9600067138672 296.239990234375 7.590000152587891
214.8200073242188 297 8.550000190734863
210.3300018310547 298.1199951171875 7.590000152587891
209.8000030517578 298.2900085449219 7.360000133514404
218.8699951171875 296.7099914550781 7.380000114440918
218.2599945068359 296.8599853515625 7.510000228881836
210.0899963378906 298.8699951171875 7.510000228881836
210.6399993896484 298.7799987792969 7.679999828338623
212.8699951171875 298.2099914550781 8.329999923706055
213.9799957275391 297.9299926757812 8.619999885559082
214.5800018310547 297.760009765625 8.590000152587891
213.4400024414062 298.0299987792969 8.460000038146973
217.6300048828125 296.989990234375 7.710000038146973
212.3099975585938 298.3399963378906 8.119999885559082
209.4799957275391 299.0199890136719 7.349999904632568
215.8500061035156 297.4500122070312 8.25
217.0399932861328 297.1499938964844 7.880000114440918
211.7100067138672 298.4599914550781 7.989999771118164
216.4600067138672 297.2799987792969 8.020000457763672
211.2299957275391 298.6199951171875 7.820000171661377
215.2400054931641 297.6199951171875 8.430000305175781
209.8600006103516 299.5799865722656 7.380000114440918
212.6799926757812 298.8699951171875 8.25
213.1999969482422 298.739990234375 8.399999618530273
211.6199951171875 299.1799926757812 7.960000038146973
213.7299957275391 298.6300048828125 8.579999923706055
216.1799926757812 298.0400085449219 8.199999809265137
215.5599975585938 298.1499938964844 8.319999694824219
214.3200073242188 298.4500122070312 8.710000038146973
218.0500030517578 297.5700073242188 7.619999885559082
214.9299926757812 298.2999877929688 8.520000457763672
210.4299926757812 299.4599914550781 7.599999904632568
217.3800048828125 297.7300109863281 7.809999942779541
218.6199951171875 297.3999938964844 7.420000076293945
216.7100067138672 297.8800048828125 7.960000038146973
212.1399993896484 299.0400085449219 8.079999923706055
211.0399932861328 299.3200073242188 7.760000228881836
212.3000030517578 299.5499877929688 8.119999885559082
214.0200042724609 299.1099853515625 8.640000343322754
212.8899993896484 299.3900146484375 8.340000152587891
217.0899963378906 298.3800048828125 7.869999885559082
217.6699981689453 298.2300109863281 7.690000057220459
215.2799987792969 298.8099975585938 8.409999847412109
213.4400024414062 299.260009765625 8.5
215.8999938964844 298.6400146484375 8.260000228881836
214.5800018310547 299 8.630000114440918
218.2700042724609 298.0700073242188 7.519999980926514
216.4799957275391 298.489990234375 8.060000419616699
218.9100036621094 297.9299926757812 7.460000038146973
215.4900054931641 299.4599914550781 8.350000381469727
216.6799926757812 299.1700134277344 8
214.8800048828125 299.6300048828125 8.550000190734863
218.5500030517578 298.7000122070312 7.420000076293945
217.3000030517578 299.010009765625 7.809999942779541
216.0800018310547 299.2799987792969 8.180000305175781
217.9600067138672 298.8599853515625 7.639999866485596
217.6799926757812 299.6199951171875 7.679999828338623
218.3000030517578 299.4800109863281 7.550000190734863
218.8899993896484 299.3200073242188 7.449999809265137
218.5299987792969 299.239990234375 7.46999979019165
219.1000061035156 299.1300048828125 7.329999923706055
217.9700012207031 299.3999938964844 7.630000114440918
217.3800048828125 299.5400085449219 7.840000152587891
217.6799926757812 298.7999877929688 7.710000038146973
215.4100036621094 299.3999938964844 8.409999847412109
217.1199951171875 298.9400024414062 7.849999904632568
214.3399963378906 299.6600036621094 8.659999847412109
218.75 298.5599975585938 7.380000114440918
214.8999938964844 299.5299987792969 8.539999961853027
218.2100067138672 298.6900024414062 7.550000190734863
216.5599975585938 299.0899963378906 8.029999732971191
215.9900054931641 299.2099914550781 8.210000038146973
213.3399963378906 299.1700134277344 8.449999809265137
215.0500030517578 298.75 8.5
216.75 298.3500061035156 7.980000019073486
217.3300018310547 298.1900024414062 7.820000171661377
214.4799957275391 298.8999938964844 8.630000114440918
217.8600006103516 298.0700073242188 7.639999866485596
219.0299987792969 297.7799987792969 7.349999904632568
212.7899932861328 299.3099975585938 8.279999732971191
211.6000061035156 299.6400146484375 7.940000057220459
212.1799926757812 299.4599914550781 8.130000114440918
216.2299957275391 298.489990234375 8.130000114440918
213.9700012207031 299.0299987792969 8.609999656677246
218.5 297.9299926757812 7.460000038146973
215.5899963378906 298.6199951171875 8.319999694824219
218.5299987792969 297.2099914550781 7.420000076293945
219.1000061035156 297.1099853515625 7.329999923706055
218 297.3500061035156 7.639999866485596
215.2100067138672 298.0599975585938 8.409999847412109
215.8399963378906 297.9299926757812 8.239999771118164
214.1600036621094 298.3299865722656 8.659999847412109
217.4499969482422 297.489990234375 7.760000228881836
213.5299987792969 298.4800109863281 8.489999771118164
211.1000061035156 299.0700073242188 7.769999980926514
209.8999938964844 299.3699951171875 7.420000076293945
210.4700012207031 299.2300109863281 7.610000133514404
216.9100036621094 297.6199951171875 7.940000057220459
214.6900024414062 298.1799926757812 8.600000381469727
216.3300018310547 297.7999877929688 8.109999656677246
212.8899993896484 298.6499938964844 8.289999961853027
212.3600006103516 298.7900085449219 8.119999885559082
211.7400054931641 298.9200134277344 7.949999809265137
218.2700042724609 296.7099914550781 7.53000020980835
215.4499969482422 297.4599914550781 8.340000152587891
218.8399963378906 296.5700073242188 7.380000114440918
214.8300018310547 297.5899963378906 8.529999732971191
217.6900024414062 296.8800048828125 7.679999828338623
212.5800018310547 298.1400146484375 8.199999809265137
214.3399963378906 297.739990234375 8.640000343322754
216.6199951171875 297.1700134277344 8.069999694824219
210.8000030517578 298.5799865722656 7.659999847412109
217.1100006103516 297 7.889999866485596
213.1900024414062 297.989990234375 8.420000076293945
213.7599945068359 297.8800048828125 8.529999732971191
211.3899993896484 298.4400024414062 7.869999885559082
216.0099945068359 297.2900085449219 8.189999580383301
210.2200012207031 298.75 7.5
209.6799926757812 298.8900146484375 7.449999809265137
219.3300018310547 296.4800109863281 7.230000019073486
211.9700012207031 298.3099975585938 8.029999732971191
219.0200042724609 295.8900146484375 7.360000133514404
215.7299957275391 296.7200012207031 8.279999732971191
216.8699951171875 296.4700012207031 7.96999979019165
214.1000061035156 297.1700134277344 8.670000076293945
213.4799957275391 297.3200073242188 8.470000267028809
211.6300048828125 297.739990234375 7.940000057220459
218.4299926757812 296.0599975585938 7.420000076293945
217.9199981689453 296.1900024414062 7.630000114440918
209.8500061035156 298.1700134277344 7.429999828338623
215.1399993896484 296.8699951171875 8.430000305175781
211.0599975585938 297.9200134277344 7.78000020980835
217.3699951171875 296.2999877929688 7.800000190734863
216.2799987792969 296.5899963378906 8.100000381469727
210.3800048828125 298.0499877929688 7.559999942779541
212.8000030517578 297.4800109863281 8.279999732971191
214.6399993896484 297.0199890136719 8.590000152587891
212.2700042724609 297.5899963378906 8.100000381469727
218.7400054931641 295.2799987792969 7.389999866485596
217.1000061035156 295.7000122070312 7.860000133514404
215.9900054931641 295.9800109863281 8.180000305175781
213.1100006103516 296.6799926757812 8.340000152587891
215.3399963378906 296.1499938964844 8.380000114440918
216.5399932861328 295.8200073242188 8.029999732971191
213.6900024414062 296.5199890136719 8.520000457763672
214.2599945068359 296.4299926757812 8.689999580383301
210.1499938964844 297.3900146484375 7.519999980926514
214.8200073242188 296.2799987792969 8.550000190734863
210.7200012207031 297.260009765625 7.679999828338623
217.6499938964844 295.5299987792969 7.730000019073486
212.5299987792969 296.8299865722656 8.199999809265137
218.2200012207031 295.4100036621094 7.5
211.3399963378906 297.1400146484375 7.840000152587891
211.9199981689453 296.9700012207031 8.010000228881836
218.9299926757812 294.5899963378906 7.329999923706055
218.4100036621094 294.7200012207031 7.429999828338623
217.3000030517578 295.010009765625 7.789999961853027
213.9900054931641 295.8500061035156 8.609999656677246
216.7799987792969 295.1300048828125 7.940000057220459
217.8200073242188 294.8900146484375 7.639999866485596
216.2100067138672 295.2699890136719 8.119999885559082
214.5299987792969 295.6799926757812 8.590000152587891
212.1900024414062 296.2799987792969 8.079999923706055
213.3800048828125 296.0199890136719 8.449999809265137
215.0899963378906 295.5599975585938 8.430000305175781
215.6399993896484 295.3999938964844 8.300000190734863
210.3200073242188 296.7300109863281 7.570000171661377
209.7400054931641 296.8599853515625 7.400000095367432
211.5599975585938 296.4500122070312 7.949999809265137
212.7400054931641 296.1499938964844 8.25
210.9499969482422 296.6000061035156 7.739999771118164
225.5800018310547 292.3999938964844 7.28000020980835
225.0200042724609 292.5499877929688 7.309999942779541
226.1799926757812 292.2699890136719 7.340000152587891
218.2100067138672 294.2699890136719 7.539999961853027
215.9100036621094 294.8099975585938 8.229999542236328
217.0599975585938 294.5599975585938 7.909999847412109
214.1999969482422 295.2699890136719 8.670000076293945
215.3399963378906 294.9500122070312 8.399999618530273
218.7400054931641 294.1000061035156 7.420000076293945
216.5099945068359 294.6700134277344 8.010000228881836
213.6300048828125 295.4100036621094 8.489999771118164
210.7200012207031 296.1300048828125 7.650000095367432
217.6000061035156 294.4100036621094 7.690000057220459
211.8899993896484 295.8099975585938 8.020000457763672
210.1000061035156 296.2699890136719 7.5
213.0899963378906 295.5299987792969 8.329999923706055
212.5 295.6600036621094 8.189999580383301
214.8000030517578 295.1400146484375 8.560000419616699
211.3300018310547 295.9599914550781 7.840000152587891
212.1499938964844 295.1300048828125 8.060000419616699
210.9299926757812 295.4500122070312 7.710000038146973
212.6799926757812 294.989990234375 8.239999771118164
210.2700042724609 295.5899963378906 7.519999980926514
211.5200042724609 295.3099975585938 7.920000076293945
209.6999969482422 295.7099914550781 7.409999847412109
225.2899932861328 291.8399963378906 7.489999771118164
222.9700012207031 292.4100036621094 7.360000133514404
226.3699951171875 291.5899963378906 7.579999923706055
225.8500061035156 291.7000122070312 7.550000190734863
217.2700042724609 293.8699951171875 7.800000190734863
218.9100036621094 293.4599914550781 7.400000095367432
216.7599945068359 294 7.949999809265137
224.6900024414062 292.0199890136719 7.5
217.8000030517578 293.7000122070312 7.639999866485596
213.9199981689453 294.6799926757812 8.600000381469727
215.6499938964844 294.2900085449219 8.340000152587891
224.1100006103516 292.1199951171875 7.440000057220459
222.4199981689453 292.5400085449219 7.329999923706055
223.5399932861328 292.2799987792969 7.340000152587891
215.0399932861328 294.4299926757812 8.470000267028809
216.1300048828125 294.1300048828125 8.130000114440918
218.3000030517578 293.6000061035156 7.449999809265137
214.4799957275391 294.5700073242188 8.630000114440918
213.3200073242188 294.8299865722656 8.409999847412109
224.2700042724609 291.3800048828125 7.639999866485596
223.0800018310547 291.6799926757812 7.539999961853027
222.4900054931641 291.8200073242188 7.5
221.3800048828125 292.1099853515625 7.400000095367432
