270.8500061035156 308.6499938964844 9.050000190734863
271.4700012207031 308.8500061035156 9.189999580383301
275.0899963378906 309.6900024414062 9.090000152587891
278.0899963378906 310.4100036621094 8.920000076293945
277.3399963378906 310.2300109863281 8.930000305175781
275.8800048828125 309.8999938964844 8.970000267028809
272.1700134277344 308.989990234375 9.319999694824219
273.5400085449219 309.3200073242188 9.380000114440918
276.4500122070312 309.3200073242188 9.149999618530273
277.989990234375 309.6900024414062 9.090000152587891
275.6600036621094 309.1000061035156 9.149999618530273
277.2000122070312 309.4700012207031 9.100000381469727
272.0199890136719 308.2099914550781 9.300000190734863
271.3299865722656 308.0799865722656 9.159999847412109
272.6300048828125 308.3500061035156 9.449999809265137
273.3299865722656 308.5299987792969 9.409999847412109
274.1900024414062 308.75 9.270000457763672
274.9400024414062 308.9599914550781 9.199999809265137
271.3299865722656 307.3800048828125 9.119999885559082
272.6199951171875 307.6900024414062 9.520000457763672
274.7799987792969 308.2200012207031 9.340000152587891
273.3299865722656 307.8500061035156 9.479999542236328
278.4299926757812 309.0899963378906 9.239999771118164
277.7099914550781 308.9500122070312 9.229999542236328
276.9400024414062 308.75 9.289999961853027
271.9700012207031 307.5400085449219 9.279999732971191
275.510009765625 308.3999938964844 9.300000190734863
276.239990234375 308.5599975585938 9.260000228881836
272.5400085449219 307.0199890136719 9.390000343322754
276.1000061035156 307.8699951171875 9.409999847412109
278.3800048828125 308.3900146484375 9.390000343322754
271.7999877929688 306.8399963378906 9.289999961853027
274.6099853515625 307.5199890136719 9.439999580383301
274.0499877929688 308.0199890136719 9.439999580383301
271.2000122070312 306.7000122070312 9.109999656677246
276.8699951171875 308.0299987792969 9.390000343322754
273.1199951171875 307.1300048828125 9.529999732971191
273.4200134277344 307.2200012207031 10.44999980926514
277.6499938964844 308.239990234375 9.329999923706055
275.3900146484375 307.6900024414062 9.449999809265137
271.1799926757812 305.9500122070312 9.130000114440918
275.4500122070312 306.9500122070312 9.319999694824219
274.7699890136719 306.8099975585938 9.350000381469727
271.9400024414062 306.0899963378906 9.199999809265137
276.8099975585938 307.2799987792969 9.470000267028809
272.6400146484375 306.2999877929688 9.210000038146973
274.0599975585938 306.6499938964844 9.260000228881836
276.1300048828125 307.1300048828125 9.350000381469727
278.2099914550781 307.6199951171875 9.560000419616699
273.4100036621094 306.4700012207031 9.220000267028809
277.4700012207031 307.4299926757812 9.539999961853027
271.239990234375 305.0899963378906 8.930000305175781
273.3699951171875 305.6099853515625 9.039999961853027
274.7200012207031 305.9299926757812 9.130000114440918
276.1900024414062 306.2900085449219 9.199999809265137
275.4700012207031 306.1400146484375 9.109999656677246
278.2799987792969 306.7999877929688 9.369999885559082
277.5899963378906 306.6499938964844 9.270000457763672
271.9500122070312 305.2699890136719 8.960000038146973
272.6000061035156 305.4299926757812 9.020000457763672
276.8599853515625 306.4500122070312 9.270000457763672
274.0599975585938 305.7999877929688 9.069999694824219
271.9299926757812 304.5700073242188 8.810000419616699
271.2799987792969 304.4299926757812 8.739999771118164
274.1099853515625 305.1000061035156 8.909999847412109
274.8299865722656 305.2900085449219 8.960000038146973
272.6199951171875 304.7699890136719 8.840000152587891
275.4800109863281 305.4299926757812 8.979999542236328
277.5899963378906 305.9500122070312 9.119999885559082
276.8399963378906 305.760009765625 9.050000190734863
273.3999938964844 304.9200134277344 8.890000343322754
278.25 306.1099853515625 9.170000076293945
276.1499938964844 305.5899963378906 9.079999923706055
271.8999938964844 303.9599914550781 8.659999847412109
274.7000122070312 304.6400146484375 8.840000152587891
275.3900146484375 304.7999877929688 8.850000381469727
276.8599853515625 305.1600036621094 8.939999580383301
276.1700134277344 304.9500122070312 8.869999885559082
273.3299865722656 304.2699890136719 8.710000038146973
277.5299987792969 305.3200073242188 8.979999542236328
271.260009765625 303.7900085449219 8.609999656677246
278.2699890136719 305.4800109863281 9.029999732971191
274.0599975585938 304.4400024414062 8.779999732971191
272.6300048828125 304.1300048828125 8.670000076293945
272.8200073242188 303.3999938964844 8.5
277.7200012207031 304.6000061035156 8.789999961853027
274.989990234375 303.9200134277344 8.630000114440918
272.1300048828125 303.239990234375 8.460000038146973
277.010009765625 304.4100036621094 8.770000457763672
275.6600036621094 304.1199951171875 8.699999809265137
274.260009765625 303.739990234375 8.630000114440918
276.3299865722656 304.2699890136719 8.720000267028809
278.4500122070312 304.7699890136719 8.850000381469727
273.5400085449219 303.5700073242188 8.539999961853027
275.7099914550781 303.260009765625 8.510000228881836
278.489990234375 303.8999938964844 8.729999542236328
274.989990234375 303.0599975585938 8.5
277.1300048828125 303.6099853515625 8.590000152587891
277.8099975585938 303.7699890136719 8.609999656677246
276.3500061035156 303.4299926757812 8.539999961853027
278.5199890136719 303.1799926757812 8.479999542236328
269.3999938964844 316.1400146484375 8.420000076293945
268.7799987792969 315.9599914550781 8.470000267028809
270.8399963378906 315.7900085449219 8.550000190734863
269.6799926757812 315.4700012207031 8.659999847412109
268.6900024414062 315.2200012207031 4.840000152587891
269.1900024414062 315.3200073242188 5.340000152587891
270.25 315.6199951171875 8.630000114440918
268.1499938964844 315.0799865722656 4.829999923706055
268.5899963378906 315.2200012207031 8.390000343322754
269.1400146484375 315.3599853515625 8.590000152587891
270.1300048828125 314.9400024414062 8.789999961853027
270.7200012207031 315.1199951171875 8.760000228881836
269.1400146484375 314.6400146484375 4.829999923706055
268.9400024414062 314.6499938964844 8.550000190734863
269.5299987792969 314.7999877929688 8.680000305175781
269.8099975585938 314.2900085449219 8.760000228881836
268.7000122070312 314.010009765625 8.460000038146973
269.2799987792969 314.0899963378906 5.75
269.25 314.1199951171875 8.640000343322754
270.3399963378906 314.4100036621094 8.880000114440918
269.5499877929688 313.5499877929688 8.739999771118164
268.9700012207031 313.3900146484375 8.579999923706055
270.6900024414062 313.8399963378906 8.949999809265137
270.1199951171875 313.7200012207031 8.840000152587891
269.1499938964844 313.4299926757812 4.809999942779541
268.7099914550781 312.6099853515625 8.449999809265137
270.8999938964844 313.1600036621094 9
269.260009765625 312.739990234375 8.670000076293945
270.3699951171875 313.0199890136719 8.930000305175781
269.7900085449219 312.8900146484375 8.779999732971191
268.8200073242188 312.6199951171875 4.989999771118164
269.2799987792969 312.75 5.659999847412109
269.2200012207031 312.0400085449219 4.889999866485596
268.5 311.8900146484375 8.399999618530273
269.6000061035156 312.1900024414062 8.720000267028809
270.7699890136719 312.5 8.949999809265137
269.0199890136719 312.0599975585938 8.579999923706055
270.2300109863281 312.3399963378906 8.840000152587891
269.3200073242188 311.4800109863281 8.640000343322754
270.3999938964844 311.75 8.909999847412109
269.8900146484375 311.6199951171875 8.800000190734863
269.3900146484375 311.4800109863281 5.590000152587891
268.75 311.3699951171875 8.510000228881836
268.4800109863281 310.5899963378906 8.489999771118164
269.0199890136719 310.7000122070312 8.590000152587891
269.6300048828125 310.8699951171875 8.729999542236328
270.7699890136719 311.1300048828125 8.989999771118164
270.2099914550781 310.989990234375 8.869999885559082
269.1799926757812 310.6799926757812 5.260000228881836
269.4200134277344 310.0299987792969 8.689999580383301
269.9100036621094 310.1300048828125 8.789999961853027
266 309.1600036621094 8.140000343322754
267.0400085449219 309.3599853515625 5.710000038146973
270.4700012207031 310.260009765625 8.930000305175781
267.5799865722656 309.5199890136719 6.019999980926514
268.8200073242188 309.8500061035156 8.489999771118164
266.4800109863281 309.25 5.820000171661377
267.0899963378906 309.4400024414062 8.199999809265137
266.510009765625 309.2900085449219 8.149999618530273
270.3500061035156 309.6000061035156 8.869999885559082
270.8599853515625 309.7099914550781 8.960000038146973
269.1900024414062 309.25 5.539999961853027
269.1700134277344 309.2699890136719 8.640000343322754
267.4100036621094 308.8299865722656 8.210000038146973
269.75 309.4400024414062 8.739999771118164
268.6000061035156 309.1400146484375 8.399999618530273
266.0799865722656 308.4800109863281 6.170000076293945
268.010009765625 309.0199890136719 8.300000190734863
266.8099975585938 308.6799926757812 8.189999580383301
266.25 308.5400085449219 8.130000114440918
270.4500122070312 309.0599975585938 8.949999809265137
269.9299926757812 308.9299926757812 8.819999694824219
269.3200073242188 308.7900085449219 8.649999618530273
268.8399963378906 308.6499938964844 8.5
266.3900146484375 308 5.800000190734863
265.8399963378906 307.8699951171875 5.539999961853027
266.5299987792969 308.0599975585938 8.149999618530273
267.6799926757812 308.3699951171875 8.229999542236328
265.9700012207031 307.9299926757812 8.069999694824219
267.0499877929688 308.1799926757812 8.159999847412109
268.25 308.4700012207031 8.260000228881836
270.6799926757812 308.510009765625 8.979999542236328
268.4500122070312 307.9400024414062 8.279999732971191
267.8399963378906 307.7799987792969 8.220000267028809
266.6099853515625 307.4700012207031 8.140000343322754
267.239990234375 307.6400146484375 8.199999809265137
270.1600036621094 308.3299865722656 8.880000114440918
266.0599975585938 307.3399963378906 8.090000152587891
266.3900146484375 307.3999938964844 6.510000228881836
268.9599914550781 308.0400085449219 8.579999923706055
269.5899963378906 308.2000122070312 8.689999580383301
270.8599853515625 307.8299865722656 9.029999732971191
270.3599853515625 307.6600036621094 8.880000114440918
267.5700073242188 306.9599914550781 8.199999809265137
265.8399963378906 306.5499877929688 8.020000457763672
266.9800109863281 306.8099975585938 8.149999618530273
266.2300109863281 306.6199951171875 6.159999847412109
269.25 307.4200134277344 8.670000076293945
268.1600036621094 307.1099853515625 8.239999771118164
266.4100036621094 306.6799926757812 8.109999656677246
268.739990234375 307.239990234375 8.409999847412109
269.7900085449219 307.510009765625 8.770000457763672
269.5899963378906 306.8399963378906 8.699999809265137
269.0199890136719 306.7000122070312 8.590000152587891
270.2300109863281 306.9700012207031 8.850000381469727
267.3099975585938 306.239990234375 8.149999618530273
270.739990234375 307.1000061035156 8.970000267028809
267.9299926757812 306.3900146484375 8.220000267028809
266.7099914550781 306.1000061035156 8.159999847412109
268.489990234375 306.5599975585938 8.289999961853027
266.1300048828125 305.9400024414062 8.100000381469727
270.3500061035156 306.4599914550781 8.890000343322754
268.75 306.0599975585938 8.399999618530273
269.8599853515625 306.2999877929688 8.739999771118164
270.9299926757812 306.5700073242188 9.029999732971191
269.2900085449219 306.1900024414062 8.680000305175781
266.3200073242188 305.3800048828125 5.940000057220459
266.4500122070312 305.4400024414062 8.130000114440918
268.1799926757812 305.8699951171875 8.279999732971191
266.2000122070312 305.3800048828125 6.599999904632568
266.9700012207031 305.6099853515625 8.180000305175781
265.8599853515625 305.3200073242188 8.060000419616699
267.6099853515625 305.760009765625 8.210000038146973
270.1000061035156 305.760009765625 8.899999618530273
269.510009765625 305.6300048828125 8.710000038146973
268.4100036621094 305.3299865722656 8.329999923706055
266.0299987792969 304.75 8.069999694824219
266.3500061035156 304.7999877929688 6.449999809265137
267.2000122070312 305.0400085449219 8.180000305175781
266.5599975585938 304.8699951171875 8.170000076293945
268.9299926757812 305.5 8.590000152587891
270.6700134277344 305.9299926757812 8.960000038146973
267.8099975585938 305.1900024414062 8.199999809265137
270.7900085449219 305.2799987792969 8.930000305175781
269.6900024414062 305 8.729999542236328
270.25 305.1400146484375 8.890000343322754
266.8500061035156 304.3099975585938 8.170000076293945
266.1900024414062 304.1199951171875 5.760000228881836
269.1600036621094 304.8699951171875 8.640000343322754
266.2699890136719 304.1400146484375 8.159999847412109
267.4500122070312 304.4299926757812 8.210000038146973
268.010009765625 304.6099853515625 8.289999961853027
268.6199951171875 304.7300109863281 8.340000152587891
270.0599975585938 304.5 8.760000228881836
268.3699951171875 304.1000061035156 8.289999961853027
269.4599914550781 304.3500061035156 8.680000305175781
270.6300048828125 304.6400146484375 8.779999732971191
268.8599853515625 304.1900024414062 8.560000419616699
267.75 303.9400024414062 8.260000228881836
267.1499938964844 303.7799987792969 8.149999618530273
267.6199951171875 303.8500061035156 5.840000152587891
270.8299865722656 304.1199951171875 8.659999847412109
268.6000061035156 303.5599975585938 8.460000038146973
269.0799865722656 303.6900024414062 8.560000419616699
270.2300109863281 303.9500122070312 8.619999885559082
269.6700134277344 303.8399963378906 8.609999656677246
270.0400085449219 303.2200012207031 8.510000228881836
270.6000061035156 303.3599853515625 8.489999771118164
278.6300048828125 303.3800048828125 8.489999771118164
278.0799865722656 303.2300109863281 8.399999618530273
275.3399963378906 303.1499938964844 8.560000419616699
277.739990234375 303.7799987792969 8.590000152587891
277.1700134277344 303.6000061035156 8.569999694824219
275.9700012207031 303.2999877929688 8.430000305175781
276.6099853515625 303.489990234375 8.520000457763672
278.3399963378906 303.8999938964844 8.619999885559082
278.5199890136719 304.6199951171875 8.819999694824219
276.7799987792969 304.1600036621094 8.659999847412109
277.3900146484375 304.3399963378906 8.699999809265137
275.0400085449219 303.7099914550781 8.609999656677246
273.9100036621094 303.4500122070312 8.449999809265137
277.9800109863281 304.4700012207031 8.720000267028809
275.5799865722656 303.8800048828125 8.619999885559082
274.4700012207031 303.5700073242188 8.560000419616699
276.2300109863281 304.0199890136719 8.649999618530273
273.239990234375 303.2699890136719 8.470000267028809
277.6300048828125 305.1099853515625 8.930000305175781
275.8500061035156 304.6700134277344 8.840000152587891
276.4500122070312 304.8299865722656 8.810000419616699
274.6600036621094 304.3699951171875 8.779999732971191
275.2200012207031 304.510009765625 8.850000381469727
273.510009765625 304.1300048828125 8.699999809265137
278.2099914550781 305.2999877929688 8.970000267028809
277.0599975585938 305.010009765625 8.819999694824219
274.0899963378906 304.2300109863281 8.699999809265137
272.9500122070312 303.9400024414062 8.649999618530273
272.3800048828125 303.7900085449219 8.619999885559082
271.7900085449219 303.6700134277344 8.569999694824219
271.1900024414062 303.510009765625 8.470000267028809
276.1700134277344 305.4400024414062 8.949999809265137
277.9200134277344 305.8699951171875 9.069999694824219
273.2000122070312 304.7000122070312 8.829999923706055
272.0400085449219 304.3999938964844 8.760000228881836
272.6300048828125 304.5499877929688 8.789999961853027
271.4200134277344 304.239990234375 8.739999771118164
274.4299926757812 305.0299987792969 8.859999656677246
275.010009765625 305.1400146484375 8.880000114440918
276.7799987792969 305.6199951171875 9.020000457763672
273.7900085449219 304.8399963378906 8.890000343322754
278.489990234375 306.0400085449219 9.119999885559082
277.3200073242188 305.760009765625 9.079999923706055
275.5700073242188 305.2900085449219 8.909999847412109
277.0499877929688 306.260009765625 9.189999580383301
274.6499938964844 305.6499938964844 9.039999961853027
277.6400146484375 306.4299926757812 9.260000228881836
275.2200012207031 305.7999877929688 9.039999961853027
272.989990234375 305.260009765625 8.949999809265137
276.4500122070312 306.1099853515625 9.100000381469727
275.8599853515625 305.9400024414062 9.140000343322754
272.3399963378906 305.1000061035156 8.890000343322754
271.2099914550781 304.8099975585938 8.869999885559082
271.7900085449219 304.9400024414062 8.850000381469727
273.5599975585938 305.3900146484375 8.960000038146973
274.0899963378906 305.5 9.010000228881836
277.3200073242188 306.9400024414062 9.319999694824219
276.1400146484375 306.6499938964844 9.260000228881836
277.8699951171875 307.0599975585938 9.380000114440918
274.3900146484375 306.1900024414062 9.159999847412109
275.510009765625 306.489990234375 9.220000267028809
273.1700134277344 305.8800048828125 9.090000152587891
272.6400146484375 305.760009765625 9.069999694824219
278.4700012207031 307.2099914550781 9.460000038146973
271.9800109863281 305.6099853515625 9.029999732971191
271.4400024414062 305.4599914550781 8.979999542236328
274.9599914550781 306.3599853515625 9.199999809265137
273.7999877929688 306.0299987792969 9.159999847412109
276.6900024414062 306.7900085449219 9.300000190734863
278.25 306.5499877929688 9.279999732971191
278.2200012207031 307.8099975585938 9.539999961853027
277.6199951171875 307.6600036621094 9.539999961853027
275.8200073242188 307.25 9.380000114440918
275.25 307.0599975585938 9.359999656677246
274.6499938964844 306.9500122070312 9.329999923706055
272.3299865722656 306.3699951171875 9.210000038146973
273.5299987792969 306.6400146484375 9.260000228881836
272.9599914550781 306.5199890136719 9.199999809265137
276.4599914550781 307.3800048828125 9.409999847412109
271.7900085449219 306.239990234375 9.180000305175781
274.1199951171875 306.7699890136719 9.329999923706055
271.1600036621094 306.0700073242188 9.109999656677246
277.0400085449219 307.510009765625 9.520000457763672
277.8099975585938 308.8999938964844 9.279999732971191
277.2200012207031 308.7300109863281 9.270000457763672
276.6000061035156 308.5899963378906 9.310000419616699
278.4400024414062 309.0199890136719 9.279999732971191
276 308.4500122070312 9.369999885559082
275.0499877929688 307.6199951171875 9.470000267028809
278.0400085449219 308.3500061035156 9.430000305175781
273.8599853515625 307.3099975585938 9.439999580383301
275.6499938964844 307.760009765625 9.439999580383301
272.7200012207031 307.0599975585938 9.380000114440918
271.5 306.7200012207031 9.159999847412109
276.8599853515625 308.0599975585938 9.399999618530273
274.5 307.4800109863281 9.449999809265137
273.2699890136719 307.1600036621094 9.470000267028809
276.2200012207031 307.9299926757812 9.470000267028809
278.6099853515625 308.5199890136719 9.390000343322754
277.4299926757812 308.25 9.439999580383301
272.1000061035156 306.8699951171875 9.329999923706055
275.3099975585938 308.2799987792969 9.380000114440918
274.7900085449219 308.1499938964844 9.420000076293945
274.1900024414062 307.9700012207031 9.420000076293945
272.7699890136719 307.6400146484375 10.64000034332275
272.4299926757812 307.5400085449219 9.380000114440918
271.3200073242188 307.25 9.119999885559082
271.8999938964844 307.4200134277344 9.289999961853027
273.0299987792969 307.7000122070312 9.510000228881836
273.5899963378906 307.8500061035156 9.510000228881836
274.489990234375 308.7099914550781 9.25
272.6600036621094 308.25 9.420000076293945
272.0499877929688 308.1000061035156 9.319999694824219
271.510009765625 307.9800109863281 9.199999809265137
273.8699951171875 308.5400085449219 9.369999885559082
276.8800048828125 309.3099975585938 9.119999885559082
273.2000122070312 308.3800048828125 9.5
275.6400146484375 308.989990234375 9.210000038146973
276.3099975585938 309.1400146484375 9.189999580383301
275.0599975585938 308.8800048828125 9.270000457763672
278.4299926757812 310.3999938964844 8.939999580383301
277.7900085449219 310.2799987792969 8.939999580383301
278.6499938964844 309.7300109863281 9.079999923706055
277.489990234375 309.4500122070312 9.090000152587891
278.0400085449219 309.5899963378906 9.100000381469727
276.4599914550781 310.5499877929688 8.850000381469727
275.8099975585938 310.3699951171875 8.930000305175781
271 309.1799926757812 9.020000457763672
275.2000122070312 310.25 9.029999732971191
272.7699890136719 309.6400146484375 9.430000305175781
272.2000122070312 309.489990234375 9.300000190734863
274.6300048828125 310.0899963378906 9.130000114440918
273.9599914550781 309.9200134277344 9.279999732971191
273.3399963378906 309.760009765625 9.449999809265137
271.5799865722656 309.3500061035156 9.210000038146973
276.6000061035156 309.989990234375 8.989999771118164
275.3399963378906 309.6700134277344 9.050000190734863
273.5299987792969 309.2200012207031 9.399999618530273
272.9500122070312 309.0799865722656 9.5
274.7699890136719 309.5 9.140000343322754
275.989990234375 309.8200073242188 9.020000457763672
274.1600036621094 309.3900146484375 9.289999961853027
271.8599853515625 308.7699890136719 9.25
271.25 308.6400146484375 9.100000381469727
277.2200012207031 310.1099853515625 8.960000038146973
272.3500061035156 308.9299926757812 9.390000343322754
277.0299987792969 310.6799926757812 8.850000381469727
278.2200012207031 311.010009765625 8.800000190734863
277.6300048828125 310.8599853515625 8.819999694824219
277.0899963378906 311.9500122070312 8.600000381469727
276.510009765625 311.8099975585938 8.729999542236328
277.7900085449219 312.0799865722656 8.460000038146973
275.8900146484375 311.6400146484375 8.800000190734863
275.260009765625 311.4700012207031 9.010000228881836
278.6700134277344 311.6600036621094 8.659999847412109
276.2300109863281 311.0499877929688 8.779999732971191
274.989990234375 310.760009765625 9.020000457763672
275.5599975585938 310.8800048828125 8.930000305175781
274.3599853515625 310.6000061035156 9.229999542236328
278.0299987792969 311.5 8.619999885559082
276.8200073242188 311.2000122070312 8.720000267028809
271.4100036621094 309.8500061035156 9.159999847412109
272.5799865722656 310.1600036621094 9.380000114440918
273.7699890136719 310.4400024414062 9.340000152587891
277.4800109863281 311.3599853515625 8.699999809265137
273.1300048828125 310.2799987792969 9.510000228881836
272.0199890136719 310.0199890136719 9.260000228881836
276.0899963378906 312.4599914550781 8.859999656677246
277.4200134277344 312.8099975585938 8.470000267028809
276.7799987792969 312.6499938964844 8.649999618530273
274.8500061035156 312.1499938964844 9.130000114440918
274.239990234375 312.010009765625 9.25
275.4299926757812 312.3399963378906 8.960000038146973
271.2900085449219 311.2900085449219 9.100000381469727
271.9100036621094 311.4299926757812 9.239999771118164
273.6499938964844 311.8800048828125 9.380000114440918
273.0700073242188 311.7300109863281 9.489999771118164
274.6799926757812 311.3500061035156 9.130000114440918
273.3800048828125 311.0299987792969 9.430000305175781
270.989990234375 310.4200134277344 9.020000457763672
272.7699890136719 310.8900146484375 9.489999771118164
272.1799926757812 310.6900024414062 9.340000152587891
274.010009765625 311.1600036621094 9.279999732971191
272.3900146484375 311.5400085449219 9.75
271.6199951171875 310.5499877929688 9.180000305175781
273.9200134277344 312.6700134277344 9.310000419616699
274.6099853515625 312.8200073242188 9.130000114440918
273.3299865722656 312.5 9.329999923706055
272.1199951171875 312.2200012207031 9.310000419616699
271.5199890136719 312.0499877929688 9.170000076293945
275.2200012207031 312.989990234375 9.029999732971191
270.9800109863281 311.9200134277344 9.020000457763672
272.7099914550781 312.3699951171875 9.390000343322754
276.4599914550781 313.2699890136719 8.699999809265137
275.7799987792969 313.1099853515625 8.869999885559082
277.0599975585938 313.4200134277344 8.600000381469727
276.0799865722656 313.7999877929688 8.829999923706055
274.8099975585938 313.5199890136719 9.109999656677246
272.4500122070312 312.9299926757812 9.229999542236328
276.7200012207031 313.9700012207031 8.640000343322754
274.260009765625 313.3699951171875 9.140000343322754
275.4299926757812 313.6400146484375 8.920000076293945
271.3099975585938 312.6199951171875 9.079999923706055
273.6700134277344 313.2000122070312 9.199999809265137
273.0599975585938 313.0799865722656 9.199999809265137
271.8599853515625 312.7799987792969 9.260000228881836
277.3699951171875 314.1499938964844 8.529999732971191
277.2999877929688 315.4800109863281 8.520000457763672
276.0400085449219 315.1700134277344 8.689999580383301
275.3999938964844 315.0199890136719 8.729999542236328
276.6700134277344 315.3299865722656 8.689999580383301
274.5499877929688 314.1000061035156 8.960000038146973
272.7699890136719 313.6300048828125 9.020000457763672
273.9400024414062 313.9500122070312 9
277 314.7099914550781 8.649999618530273
273.3399963378906 313.7900085449219 9
275.1600036621094 314.2200012207031 8.930000305175781
275.75 314.3900146484375 8.859999656677246
276.3800048828125 314.5299987792969 8.789999961853027
271.510009765625 313.3200073242188 9.140000343322754
272.1099853515625 313.4700012207031 9.069999694824219
276.4500122070312 315.9400024414062 8.520000457763672
275.239990234375 315.6400146484375 8.619999885559082
274.0400085449219 315.3500061035156 8.710000038146973
275.7799987792969 315.7799987792969 8.579999923706055
274.6700134277344 315.5 8.630000114440918
271.5400085449219 314.7000122070312 8.829999923706055
277.0299987792969 316.0599975585938 8.529999732971191
270.9299926757812 314.5499877929688 8.869999885559082
273.4200134277344 315.1900024414062 8.720000267028809
274.8099975585938 314.8800048828125 8.779999732971191
273.6400146484375 314.6000061035156 8.840000152587891
274.25 314.7300109863281 8.810000419616699
271.8800048828125 314.1700134277344 8.939999580383301
272.2099914550781 314.8800048828125 8.789999961853027
271.239990234375 313.9700012207031 9
273.1099853515625 314.4400024414062 8.850000381469727
272.7900085449219 315.0400085449219 8.739999771118164
272.4800109863281 314.3099975585938 8.920000076293945
274.8900146484375 316.1300048828125 8.460000038146973
274.2900085449219 315.989990234375 8.479999542236328
271.2799987792969 315.260009765625 8.699999809265137
273.1199951171875 315.7000122070312 8.590000152587891
272.510009765625 315.5499877929688 8.600000381469727
273.7200012207031 315.8399963378906 8.590000152587891
271.8900146484375 315.4299926757812 8.670000076293945
272.0599975585938 316.1099853515625 8.489999771118164
271.4700012207031 315.9200134277344 8.510000228881836
270.3800048828125 303.3999938964844 8.470000267028809
269.7999877929688 303.2699890136719 8.449999809265137
270 304.010009765625 8.659999847412109
268.9400024414062 303.760009765625 8.539999961853027
270.5499877929688 304.1400146484375 8.670000076293945
269.4299926757812 303.8900146484375 8.649999618530273
266.1000061035156 303.8500061035156 8.090000152587891
266.6900024414062 303.989990234375 8.180000305175781
267.2200012207031 304.1199951171875 8.199999809265137
270.1600036621094 304.8500061035156 8.840000152587891
267.8599853515625 304.2900085449219 8.229999542236328
269.5400085449219 304.6900024414062 8.760000228881836
270.6900024414062 304.9700012207031 8.899999618530273
268.3900146484375 304.3999938964844 8.329999923706055
268.9500122070312 304.5799865722656 8.600000381469727
266.9100036621094 304.75 8.199999809265137
267.5199890136719 304.8500061035156 8.25
265.7699890136719 304.4299926757812 8.060000419616699
268.1099853515625 305 8.289999961853027
269.7999877929688 305.4100036621094 8.779999732971191
266.3299865722656 304.5599975585938 8.149999618530273
269.2300109863281 305.3200073242188 8.649999618530273
268.6499938964844 305.1700134277344 8.380000114440918
270.3800048828125 305.5899963378906 8.899999618530273
267.1799926757812 305.4100036621094 8.210000038146973
266.0299987792969 305.1300048828125 8.100000381469727
268.8800048828125 305.8599853515625 8.560000419616699
267.7699890136719 305.5499877929688 8.25
266.6400146484375 305.3099975585938 8.180000305175781
270.6700134277344 306.2999877929688 8.960000038146973
270.0700073242188 306.1600036621094 8.859999656677246
268.3099975585938 305.7099914550781 8.300000190734863
269.5 305.989990234375 8.680000305175781
265.7900085449219 305.75 8.090000152587891
268.6900024414062 306.5 8.380000114440918
270.3399963378906 306.9100036621094 8.909999847412109
267.5599975585938 306.2099914550781 8.180000305175781
269.2699890136719 306.6099853515625 8.619999885559082
269.7999877929688 306.7699890136719 8.770000457763672
268.1300048828125 306.3299865722656 8.289999961853027
266.3800048828125 305.9100036621094 8.130000114440918
266.9299926757812 306.0400085449219 8.159999847412109
266.4800109863281 306.6900024414062 8.159999847412109
269.3900146484375 307.4200134277344 8.619999885559082
267.6199951171875 307.010009765625 8.220000267028809
267.0499877929688 306.8500061035156 8.159999847412109
269.9800109863281 307.5899963378906 8.829999923706055
270.5299987792969 307.7099914550781 8.939999580383301
268.7300109863281 307.2999877929688 8.449999809265137
268.2000122070312 307.1199951171875 8.289999961853027
265.8999938964844 306.5499877929688 8.109999656677246
267.25 307.6099853515625 8.170000076293945
268.3699951171875 307.8599853515625 8.310000419616699
270.0799865722656 308.2799987792969 8.850000381469727
270.6600036621094 308.4299926757812 8.970000267028809
267.8699951171875 307.7699890136719 8.270000457763672
266.6799926757812 307.4599914550781 8.159999847412109
269.5299987792969 308.1700134277344 8.689999580383301
268.9599914550781 308.010009765625 8.590000152587891
266.0499877929688 307.2900085449219 8.100000381469727
266.8699951171875 308.1300048828125 8.159999847412109
269.2000122070312 308.739990234375 8.649999618530273
266.3099975585938 308.0299987792969 8.149999618530273
268.0199890136719 308.4400024414062 8.229999542236328
267.4500122070312 308.2900085449219 8.189999580383301
268.5899963378906 308.5700073242188 8.310000419616699
269.7699890136719 308.8800048828125 8.75
270.3099975585938 309.0199890136719 8.920000076293945
270.0400085449219 309.5899963378906 8.829999923706055
270.6900024414062 309.760009765625 8.930000305175781
266.0199890136719 308.6099853515625 8.069999694824219
267.8200073242188 309.0599975585938 8.239999771118164
265.8699951171875 308.6000061035156 5.539999961853027
268.9500122070312 309.3299865722656 8.510000228881836
267.6300048828125 309.0199890136719 5.730000019073486
267.2000122070312 308.9100036621094 8.199999809265137
266.5899963378906 308.760009765625 8.170000076293945
269.489990234375 309.4400024414062 8.710000038146973
266.2099914550781 309.3900146484375 8.130000114440918
266.6300048828125 309.5499877929688 5.739999771118164
268.5 309.9500122070312 8.460000038146973
270.260009765625 310.3900146484375 8.859999656677246
266.8099975585938 309.5499877929688 8.130000114440918
269.7099914550781 310.25 8.729999542236328
269.1199951171875 310.0899963378906 8.630000114440918
268.6799926757812 310.6900024414062 8.460000038146973
269.8299865722656 310.9299926757812 8.819999694824219
270.4500122070312 311.0899963378906 8.920000076293945
269.260009765625 310.8299865722656 8.649999618530273
269.4599914550781 311.4800109863281 8.720000267028809
268.8800048828125 311.3599853515625 8.550000190734863
270.6300048828125 311.7799987792969 8.949999809265137
270.010009765625 311.6099853515625 8.819999694824219
270.25 312.3599853515625 8.850000381469727
268.5599975585938 311.9299926757812 8.5
269.1099853515625 312.1099853515625 8.670000076293945
269.6799926757812 312.239990234375 8.710000038146973
268.4400024414062 312.7000122070312 5.110000133514404
268.6700134277344 312.739990234375 8.470000267028809
269.2999877929688 312.8699951171875 8.659999847412109
270.4599914550781 313.1600036621094 8.939999580383301
269.8699951171875 313.0400085449219 8.800000190734863
270.6499938964844 313.8500061035156 9.010000228881836
269.4599914550781 313.5199890136719 8.710000038146973
268.9100036621094 313.3999938964844 8.529999732971191
270.0599975585938 313.7000122070312 8.840000152587891
269.1499938964844 314.0400085449219 8.630000114440918
268.5700073242188 313.8599853515625 8.510000228881836
269.7099914550781 314.1799926757812 8.729999542236328
270.3200073242188 314.2900085449219 8.909999847412109
270.5199890136719 314.9599914550781 8.770000457763672
269.3800048828125 314.7099914550781 8.720000267028809
269.9700012207031 314.8500061035156 8.760000228881836
268.7900085449219 314.5299987792969 8.539999961853027
268.9299926757812 315.2999877929688 8.529999732971191
270.6499938964844 315.7300109863281 8.560000419616699
270.0599975585938 315.5799865722656 8.609999656677246
269.4800109863281 315.4500122070312 8.640000343322754
268.0299987792969 315.1199951171875 4.840000152587891
268.9500122070312 315.9700012207031 8.449999809265137
269.5199890136719 316.1099853515625 8.430000305175781
270.1000061035156 316.2300109863281 8.460000038146973
272.3299865722656 316.1499938964844 8.439999580383301
271.239990234375 315.8699951171875 8.529999732971191
271.7999877929688 316.0299987792969 8.449999809265137
272.1900024414062 315.3800048828125 8.670000076293945
273.3699951171875 315.6799926757812 8.579999923706055
272.7900085449219 315.5299987792969 8.659999847412109
274.4800109863281 315.989990234375 8.449999809265137
271.1099853515625 315.1199951171875 8.680000305175781
275.1000061035156 316.1199951171875 8.449999809265137
271.6700134277344 315.2799987792969 8.720000267028809
273.9400024414062 315.8399963378906 8.510000228881836
274.8099975585938 315.4299926757812 8.609999656677246
274.2799987792969 315.3200073242188 8.659999847412109
276.5400085449219 315.8500061035156 8.529999732971191
275.9500122070312 315.739990234375 8.550000190734863
277.0899963378906 315.989990234375 8.529999732971191
275.4299926757812 315.5899963378906 8.579999923706055
273.1600036621094 315.0199890136719 8.729999542236328
273.7200012207031 315.1799926757812 8.75
270.9500122070312 314.4599914550781 8.869999885559082
272.6099853515625 314.8999938964844 8.810000419616699
271.489990234375 314.6300048828125 8.840000152587891
272.0799865722656 314.739990234375 8.789999961853027
272.3099975585938 314.260009765625 8.890000343322754
272.8800048828125 314.4100036621094 8.890000343322754
273.5199890136719 314.5400085449219 8.810000419616699
271.760009765625 314.1000061035156 8.930000305175781
276.3699951171875 315.260009765625 8.649999618530273
271.25 313.9700012207031 8.970000267028809
277.4500122070312 315.5299987792969 8.460000038146973
275.8399963378906 315.1099853515625 8.739999771118164
276.9100036621094 315.3999938964844 8.630000114440918
275.239990234375 314.989990234375 8.720000267028809
274.0599975585938 314.6900024414062 8.779999732971191
274.6300048828125 314.8500061035156 8.770000457763672
271.0700073242188 313.3099975585938 9.039999961853027
273.2799987792969 313.8999938964844 9.020000457763672
273.8500061035156 314.010009765625 8.979999542236328
274.989990234375 314.2999877929688 8.909999847412109
271.6900024414062 313.4599914550781 9.069999694824219
274.4100036621094 314.1900024414062 8.960000038146973
277.2699890136719 314.8699951171875 8.5
276.1300048828125 314.5799865722656 8.840000152587891
272.760009765625 313.739990234375 9.029999732971191
272.1799926757812 313.6199951171875 9.079999923706055
276.6799926757812 314.739990234375 8.680000305175781
275.5499877929688 314.4599914550781 8.869999885559082
270.8099975585938 312.5199890136719 8.979999542236328
272.4800109863281 312.9400024414062 9.220000267028809
274.8099975585938 313.489990234375 9.100000381469727
276.5400085449219 313.9299926757812 8.699999809265137
274.2699890136719 313.3800048828125 9.079999923706055
277.0499877929688 314.1000061035156 8.590000152587891
271.9700012207031 312.7900085449219 9.229999542236328
273.1300048828125 313.0700073242188 9.210000038146973
275.4200134277344 313.6799926757812 8.960000038146973
273.7099914550781 313.2200012207031 9.149999618530273
275.989990234375 313.7999877929688 8.840000152587891
271.3999938964844 312.6400146484375 9.159999847412109
271.239990234375 311.9400024414062 9.069999694824219
273.4700012207031 312.4700012207031 9.340000152587891
275.7200012207031 313.0400085449219 8.909999847412109
276.2900085449219 313.1900024414062 8.770000457763672
277.3999938964844 313.4700012207031 8.470000267028809
271.8500061035156 312.0599975585938 9.260000228881836
274.0499877929688 312.6400146484375 9.289999961853027
276.8200073242188 313.3299865722656 8.640000343322754
274.5899963378906 312.760009765625 9.149999618530273
272.3599853515625 312.1900024414062 9.380000114440918
275.1400146484375 312.9299926757812 9.010000228881836
272.9700012207031 312.3699951171875 9.329999923706055
272.739990234375 311.6799926757812 9.470000267028809
270.9700012207031 311.2200012207031 9.050000190734863
276.1799926757812 312.5299987792969 8.810000419616699
272.1300048828125 311.5400085449219 9.449999809265137
274.4400024414062 312.1199951171875 9.220000267028809
273.3099975585938 311.7999877929688 9.5
275.5700073242188 312.3800048828125 8.920000076293945
276.7000122070312 312.6600036621094 8.689999580383301
275.0299987792969 312.2300109863281 9.069999694824219
273.9200134277344 311.9800109863281 9.319999694824219
271.6199951171875 311.3999938964844 9.159999847412109
277.239990234375 312.8299865722656 8.479999542236328
271.5 310.7099914550781 9.140000343322754
274.239990234375 311.3800048828125 9.239999771118164
272.0499877929688 310.8200073242188 9.319999694824219
273.1799926757812 311.1099853515625 9.460000038146973
277.6300048828125 312.239990234375 8.399999618530273
276.489990234375 311.9500122070312 8.710000038146973
277.0499877929688 312.0799865722656 8.619999885559082
272.6600036621094 311.010009765625 9.479999542236328
270.8299865722656 310.5499877929688 8.989999771118164
273.75 311.2699890136719 9.340000152587891
274.8399963378906 311.5400085449219 9.090000152587891
275.9599914550781 311.8399963378906 8.829999923706055
275.3599853515625 311.6600036621094 9
274.1300048828125 310.6300048828125 9.260000228881836
271.7999877929688 310.0400085449219 9.220000267028809
275.7799987792969 311.0499877929688 8.859999656677246
272.3800048828125 310.1499938964844 9.420000076293945
272.9400024414062 310.2999877929688 9.479999542236328
273.5 310.4800109863281 9.409999847412109
278.5899963378906 311.7300109863281 8.569999694824219
276.3800048828125 311.2000122070312 8.720000267028809
276.9100036621094 311.3299865722656 8.649999618530273
277.510009765625 311.4500122070312 8.659999847412109
278.0400085449219 311.5799865722656 8.640000343322754
275.260009765625 310.9100036621094 9.020000457763672
274.6300048828125 310.7300109863281 9.170000076293945
271.2300109863281 309.8699951171875 9.130000114440918
273.2799987792969 309.7099914550781 9.470000267028809
274.9200134277344 310.1400146484375 9.060000419616699
272.1400146484375 309.4700012207031 9.319999694824219
273.8099975585938 309.8500061035156 9.369999885559082
276.5899963378906 310.5700073242188 8.850000381469727
276.0700073242188 310.4599914550781 8.890000343322754
278.6700134277344 311.1300048828125 5.690000057220459
277.1099853515625 310.7200012207031 8.810000419616699
274.3200073242188 310.010009765625 9.210000038146973
278.3099975585938 310.989990234375 8.789999961853027
277.760009765625 310.8399963378906 8.800000190734863
275.489990234375 310.2799987792969 8.939999580383301
272.7000122070312 309.5799865722656 9.430000305175781
271.5400085449219 309.2900085449219 9.189999580383301
270.9400024414062 309.1799926757812 9.039999961853027
271.8399963378906 308.7200012207031 9.220000267028809
272.9299926757812 309.0199890136719 9.520000457763672
273.5499877929688 309.1499938964844 9.390000343322754
271.239990234375 308.5799865722656 9.060000419616699
277.510009765625 310.1499938964844 8.949999809265137
278.0799865722656 310.2999877929688 8.930000305175781
276.4500122070312 309.9100036621094 9.029999732971191
272.3999938964844 308.8599853515625 9.390000343322754
277.010009765625 310.0400085449219 8.989999771118164
275.8699951171875 309.7300109863281 9.050000190734863
274.1300048828125 309.2999877929688 9.260000228881836
274.6799926757812 309.4400024414062 9.130000114440918
278.6000061035156 310.4299926757812 8.869999885559082
278.4100036621094 310.4200134277344 5.809999942779541
275.2300109863281 309.6000061035156 9.109999656677246
271.760009765625 308.010009765625 9.199999809265137
272.9299926757812 308.3200073242188 9.529999732971191
276.25 309.1700134277344 9.170000076293945
271.1400146484375 307.8399963378906 9.109999656677246
273.4100036621094 308.4500122070312 9.430000305175781
277.3699951171875 309.3999938964844 9.159999847412109
275.6799926757812 309.0199890136719 9.229999542236328
275.1199951171875 308.8500061035156 9.210000038146973
278.5299987792969 309.7300109863281 9.090000152587891
274.010009765625 308.5700073242188 9.279999732971191
277.9599914550781 309.5799865722656 9.090000152587891
272.3599853515625 308.1499938964844 9.470000267028809
276.7699890136719 309.2999877929688 9.149999618530273
274.510009765625 308.7000122070312 9.279999732971191
270.9700012207031 307.0599975585938 9.020000457763672
272.1600036621094 307.3299865722656 9.310000419616699
274.9500122070312 308.0299987792969 9.390000343322754
271.510009765625 307.2000122070312 9.180000305175781
277.2999877929688 308.6400146484375 9.279999732971191
277.8399963378906 308.7799987792969 9.270000457763672
275.5899963378906 308.1900024414062 9.340000152587891
278.3699951171875 308.9100036621094 9.289999961853027
273.2900085449219 307.6099853515625 9.640000343322754
274.4200134277344 307.9299926757812 9.470000267028809
276.7799987792969 308.5 9.319999694824219
272.6700134277344 307.4599914550781 9.460000038146973
276.1499938964844 308.3299865722656 9.350000381469727
273.8599853515625 307.7799987792969 9.520000457763672
273.5400085449219 307 9.319999694824219
271.8399963378906 306.6000061035156 9.239999771118164
271.260009765625 306.4200134277344 9.130000114440918
272.4299926757812 306.7099914550781 9.300000190734863
274.0899963378906 307.1600036621094 9.310000419616699
275.2699890136719 307.4299926757812 9.420000076293945
278.0799865722656 308.1300048828125 9.479999542236328
273 306.8900146484375 9.359999656677246
277.4700012207031 308.010009765625 9.449999809265137
276.9500122070312 307.8699951171875 9.460000038146973
276.3900146484375 307.7000122070312 9.489999771118164
278.6900024414062 308.2799987792969 9.380000114440918
275.8200073242188 307.5599975585938 9.460000038146973
278.6000061035156 308.2799987792969 8.319999694824219
274.6600036621094 307.2699890136719 9.430000305175781
271.510009765625 305.8500061035156 9.090000152587891
273.8399963378906 306.4500122070312 9.189999580383301
276.1300048828125 307.0299987792969 9.329999923706055
274.9700012207031 306.739990234375 9.220000267028809
273.2099914550781 306.2699890136719 9.149999618530273
277.8500061035156 307.4599914550781 9.520000457763672
272.0899963378906 306 9.100000381469727
276.75 307.1700134277344 9.399999618530273
270.9599914550781 305.7099914550781 9.010000228881836
278.4100036621094 307.5700073242188 9.520000457763672
277.2699890136719 307.3200073242188 9.390000343322754
274.4100036621094 306.5899963378906 9.220000267028809
275.5199890136719 306.8500061035156 9.270000457763672
272.6400146484375 306.1600036621094 9.140000343322754
277.5299987792969 306.6799926757812 9.310000419616699
278.1400146484375 306.8299865722656 9.340000152587891
276.989990234375 306.5499877929688 9.220000267028809
271.8900146484375 305.2799987792969 8.939999580383301
271.3399963378906 305.1600036621094 8.930000305175781
272.5 305.4200134277344 8.979999542236328
273.0199890136719 305.5799865722656 9
274.7300109863281 306.010009765625 9.109999656677246
275.8800048828125 306.2900085449219 9.140000343322754
274.1300048828125 305.8399963378906 9.050000190734863
273.5899963378906 305.7300109863281 9.039999961853027
275.2799987792969 306.1199951171875 9.140000343322754
276.4599914550781 306.4299926757812 9.180000305175781
274.5799865722656 305.1799926757812 8.890000343322754
272.2900085449219 304.6099853515625 8.779999732971191
272.8599853515625 304.75 8.859999656677246
271.1600036621094 304.2999877929688 8.720000267028809
276.9100036621094 305.739990234375 9.039999961853027
278.0400085449219 306.0199890136719 9.130000114440918
275.1099853515625 305.3099975585938 8.939999580383301
275.7300109863281 305.4700012207031 8.960000038146973
278.5599975585938 306.1499938964844 9.119999885559082
273.3999938964844 304.8900146484375 8.850000381469727
271.6900024414062 304.4200134277344 8.760000228881836
273.9800109863281 305.010009765625 8.869999885559082
276.3500061035156 305.6199951171875 8.989999771118164
277.489990234375 305.8800048828125 9.069999694824219
270.9299926757812 303.5199890136719 8.539999961853027
273.2699890136719 304.1099853515625 8.670000076293945
274.8900146484375 304.5400085449219 8.779999732971191
271.5299987792969 303.6600036621094 8.600000381469727
273.7999877929688 304.2799987792969 8.760000228881836
276.0499877929688 304.8099975585938 8.819999694824219
277.1799926757812 305.1099853515625 8.939999580383301
274.3599853515625 304.3800048828125 8.729999542236328
276.6400146484375 304.9800109863281 8.850000381469727
272.6900024414062 303.9599914550781 8.670000076293945
272.1400146484375 303.8299865722656 8.619999885559082
277.7799987792969 305.2300109863281 8.970000267028809
275.5199890136719 304.6700134277344 8.819999694824219
278.3399963378906 305.4100036621094 9.010000228881836
273 303.3800048828125 8.5
272.4100036621094 303.2699890136719 8.460000038146973
277.0899963378906 304.4299926757812 8.720000267028809
276.4400024414062 304.2699890136719 8.699999809265137
274.1499938964844 303.6600036621094 8.609999656677246
275.8999938964844 304.1099853515625 8.649999618530273
273.5499877929688 303.5400085449219 8.5
277.6300048828125 304.5599975585938 8.75
275.2699890136719 303.9599914550781 8.630000114440918
278.1600036621094 304.7099914550781 8.819999694824219
274.75 303.8500061035156 8.640000343322754
275.0700073242188 303.260009765625 8.510000228881836
277.3500061035156 303.7999877929688 8.590000152587891
276.760009765625 303.6499938964844 8.609999656677246
275.6400146484375 303.3999938964844 8.520000457763672
277.8800048828125 303.9299926757812 8.619999885559082
278.4700012207031 304.1199951171875 8.670000076293945
276.1700134277344 303.5299987792969 8.520000457763672
278.260009765625 303.2699890136719 8.439999580383301
269.489990234375 316.0400085449219 8.470000267028809
268.8399963378906 315.8699951171875 8.460000038146973
270.1099853515625 316.1499938964844 8.439999580383301
269.4100036621094 315.3599853515625 8.659999847412109
270.0599975585938 315.4800109863281 8.659999847412109
268.7300109863281 315.1499938964844 8.489999771118164
270.6499938964844 315.6300048828125 8.569999694824219
269.3699951171875 314.7000122070312 8.659999847412109
270.1000061035156 314.9200134277344 8.779999732971191
268.7099914550781 314.5599975585938 8.560000419616699
270.6900024414062 315.0400085449219 8.729999542236328
270.489990234375 314.3599853515625 8.899999618530273
269.1400146484375 314.0299987792969 8.579999923706055
269.8500061035156 314.1700134277344 8.720000267028809
269.8299865722656 313.3699951171875 8.739999771118164
269.0899963378906 313.2300109863281 8.560000419616699
270.5799865722656 313.5899963378906 8.840000152587891
269.75 312.7000122070312 8.729999542236328
270.4500122070312 312.8699951171875 8.869999885559082
269.0899963378906 312.5199890136719 8.569999694824219
270.4500122070312 312.2300109863281 8.840000152587891
269.7200012207031 312.0899963378906 8.710000038146973
269.010009765625 311.8999938964844 8.550000190734863
271.0299987792969 311.7300109863281 9.050000190734863
270.2999877929688 311.5599975585938 8.869999885559082
269.6799926757812 311.3800048828125 8.659999847412109
268.9299926757812 311.2000122070312 8.569999694824219
