163.7899932861328 453.0299987792969 13.69999980926514
157.9100036621094 454.489990234375 14.8100004196167
159.6199951171875 454.0499877929688 14.53999996185303
160.1799926757812 453.9299926757812 14.43000030517578
161.3899993896484 453.6000061035156 14.19999980926514
158.4199981689453 454.3500061035156 14.77000045776367
162.5899963378906 453.2999877929688 13.98999977111816
161.9700012207031 453.4500122070312 14.11999988555908
161.2599945068359 454.2300109863281 14.25
161.8500061035156 454.0700073242188 14.10000038146973
163.6600036621094 453.6400146484375 13.80000019073486
163.0299987792969 453.7799987792969 13.89999961853027
162.4400024414062 453.9400024414062 14.02999973297119
159.5899963378906 454.6099853515625 14.53999996185303
160.1300048828125 454.4700012207031 14.47000026702881
159 454.7900085449219 14.5600004196167
160.7100067138672 454.3599853515625 14.35999965667725
158.8300018310547 455.4599914550781 14.51000022888184
159.4199981689453 455.2799987792969 14.63000011444092
159.9799957275391 455.1700134277344 14.46000003814697
160.5599975585938 455 14.39999961853027
161.1600036621094 454.8800048828125 14.23999977111816
161.7799987792969 454.7000122070312 14.17000007629395
162.9499969482422 454.4200134277344 13.9399995803833
162.3399963378906 454.5899963378906 14.02000045776367
163.5500030517578 454.260009765625 13.85999965667725
161.7100067138672 455.4500122070312 14.1899995803833
161.1499938964844 455.5499877929688 14.28999996185303
160.5700073242188 455.7000122070312 14.35999965667725
162.2700042724609 455.2699890136719 14.06999969482422
160.0099945068359 455.8399963378906 14.44999980926514
162.8699951171875 455.1300048828125 13.9399995803833
163.4700012207031 455.0199890136719 13.88000011444092
164.0599975585938 454.8299865722656 13.73999977111816
158.8099975585938 456.1400146484375 14.5600004196167
159.3800048828125 455.989990234375 14.56999969482422
159.8800048828125 456.510009765625 14.52000045776367
160.4400024414062 456.4100036621094 14.42000007629395
163.4400024414062 455.6499938964844 13.85000038146973
162.2599945068359 455.9700012207031 14.10000038146973
161 456.260009765625 14.27999973297119
164.0299987792969 455.5 13.72999954223633
161.6199951171875 456.0799865722656 14.1899995803833
162.8300018310547 455.7999877929688 13.96000003814697
159.2799987792969 456.6600036621094 14.65999984741211
159.7799987792969 457.1300048828125 14.52000045776367
160.4100036621094 456.9500122070312 14.42000007629395
159.2100067138672 457.2799987792969 14.63000011444092
162.1000061035156 456.5299987792969 14.10999965667725
163.3099975585938 456.2699890136719 13.85999965667725
162.6799926757812 456.3999938964844 14.02000045776367
163.8500061035156 456.1099853515625 13.80000019073486
160.9900054931641 456.8200073242188 14.27000045776367
161.5299987792969 456.7000122070312 14.19999980926514
164.0899963378906 456.1000061035156 12.1899995803833
159.6199951171875 457.8299865722656 14.56999969482422
160.2299957275391 457.6900024414062 14.47000026702881
161.3500061035156 457.4100036621094 14.25
160.8000030517578 457.5400085449219 14.34000015258789
164.4799957275391 456.6400146484375 12.80000019073486
159.0399932861328 457.9400024414062 14.64999961853027
163.7599945068359 456.8099975585938 13.77000045776367
162.5399932861328 457.1000061035156 14.05000019073486
163.1499938964844 456.9400024414062 13.92000007629395
161.9799957275391 457.260009765625 14.14999961853027
158.9799957275391 458.6600036621094 14.5600004196167
160.1999969482422 458.3599853515625 14.44999980926514
160.8000030517578 458.2099914550781 14.34000015258789
164.3600006103516 457.3500061035156 12.73999977111816
159.5299987792969 458.5400085449219 14.60000038146973
162.4900054931641 457.8099975585938 14.03999996185303
163.6699981689453 457.5 13.84000015258789
161.3800048828125 458.1000061035156 14.28999996185303
161.9199981689453 457.9299926757812 14.18000030517578
163.0500030517578 457.6499938964844 13.9399995803833
160.6799926757812 458.8900146484375 14.39999961853027
161.25 458.739990234375 14.28999996185303
162.4499969482422 458.4299926757812 14.09000015258789
164.3399963378906 457.9700012207031 12.9399995803833
161.8000030517578 458.6099853515625 14.1899995803833
163.6100006103516 458.1799926757812 13.89000034332275
163.0500030517578 458.2900085449219 13.94999980926514
164.1300048828125 458.5499877929688 13.72000026702881
163.4799957275391 458.739990234375 13.86999988555908
163.4199981689453 458.5299987792969 13.89999961853027
164.4199981689453 458.25 12.89000034332275
162.2899932861328 458.8299865722656 14.10000038146973
163.9499969482422 458.4200134277344 13.77000045776367
162.8699951171875 458.6700134277344 14.03999996185303
163.9100036621094 457.6600036621094 12.77999973297119
163.5700073242188 457.739990234375 13.85999965667725
164.5299987792969 457.4800109863281 12.78999996185303
161.3099975585938 458.3299865722656 14.25
160.7299957275391 458.489990234375 14.36999988555908
161.8099975585938 458.2099914550781 14.17000007629395
162.4600067138672 458.0499877929688 14.05000019073486
159.5599975585938 458.760009765625 14.57999992370605
160.1799926757812 458.6099853515625 14.47000026702881
162.9799957275391 457.9200134277344 13.94999980926514
164.6000061035156 456.739990234375 12.75
162.4199981689453 457.3399963378906 14.03999996185303
163.0099945068359 457.1700134277344 13.92000007629395
159.6699981689453 458.0599975585938 14.5600004196167
160.1799926757812 457.8999938964844 14.46000003814697
161.2599945068359 457.6199951171875 14.23999977111816
163.5500030517578 457.0299987792969 13.85000038146973
159.0800018310547 458.2000122070312 14.67000007629395
160.6999969482422 457.7900085449219 14.36999988555908
161.8200073242188 457.5 14.13000011444092
163.7599945068359 456.3800048828125 13.8100004196167
161.5099945068359 456.9599914550781 14.22000026702881
162.6000061035156 456.7000122070312 13.98999977111816
160.4299926757812 457.2699890136719 14.36999988555908
160.9199981689453 457.1000061035156 14.31999969482422
159.25 457.5499877929688 14.60000038146973
163.1699981689453 456.5599975585938 13.92000007629395
162.0500030517578 456.8399963378906 14.09000015258789
159.8200073242188 457.3900146484375 14.53999996185303
163.3399963378906 455.7900085449219 13.85999965667725
163.9100036621094 455.6600036621094 13.72000026702881
160.5200042724609 456.5199890136719 14.36999988555908
164.3000030517578 455.5199890136719 12.22999954223633
159.9299926757812 456.6900024414062 14.5
159.4100036621094 456.8099975585938 14.57999992370605
162.7899932861328 455.9100036621094 13.97999954223633
161.6300048828125 456.2099914550781 14.1899995803833
162.2200012207031 456.1099853515625 14.10000038146973
161.0500030517578 456.3999938964844 14.27999973297119
162.9600067138672 455.1099853515625 13.94999980926514
163.5399932861328 454.9700012207031 13.88000011444092
163.8800048828125 454.8900146484375 12.72999954223633
161.2799987792969 455.5499877929688 14.27000045776367
159.6000061035156 456.010009765625 14.53999996185303
161.8300018310547 455.3999938964844 14.14999961853027
162.3999938964844 455.260009765625 14.05000019073486
160.6999969482422 455.7000122070312 14.34000015258789
160.1600036621094 455.8399963378906 14.43000030517578
164.0599975585938 454.8500061035156 13.72999954223633
159 456.1600036621094 14.64999961853027
161.3399963378906 454.8299865722656 14.21000003814697
162.5399932861328 454.5299987792969 13.98999977111816
163.0899963378906 454.3900146484375 13.89000034332275
161.9799957275391 454.6600036621094 14.13000011444092
159.7100067138672 455.239990234375 14.55000019073486
160.7599945068359 455 14.34000015258789
163.6699981689453 454.2699890136719 13.82999992370605
160.2299957275391 455.1199951171875 14.4399995803833
159.1499938964844 455.3999938964844 14.60999965667725
163.8899993896484 453.5599975585938 13.72999954223633
161.6600036621094 454.1300048828125 14.18000030517578
160.0200042724609 454.5899963378906 14.46000003814697
159.4100036621094 454.739990234375 14.59000015258789
162.2299957275391 454.0299987792969 14.07999992370605
161.0599975585938 454.2799987792969 14.30000019073486
160.5399932861328 454.4299926757812 14.36999988555908
162.8300018310547 453.8699951171875 13.94999980926514
163.3399963378906 453.7000122070312 13.88000011444092
162.9400024414062 453.1000061035156 13.93000030517578
160.6399993896484 453.7000122070312 14.35999965667725
160.1199951171875 453.8299865722656 14.47000026702881
163.5399932861328 452.9800109863281 13.81999969482422
159.5700073242188 453.9700012207031 14.56999969482422
159.0399932861328 454.1400146484375 14.64999961853027
161.2700042724609 453.5499877929688 14.19999980926514
162.4100036621094 453.239990234375 14.01000022888184
161.8099975585938 453.4200134277344 14.11999988555908
157.9100036621094 454.4100036621094 14.85000038146973
158.5 454.25 14.78999996185303
164.0899963378906 452.8399963378906 13.65999984741211
163.1399993896484 452.3099975585938 13.89999961853027
160.3300018310547 453.0400085449219 14.39999961853027
160.8999938964844 452.8900146484375 14.34000015258789
159.1999969482422 453.3200073242188 14.64000034332275
163.6399993896484 452.2099914550781 13.72999954223633
158.6300048828125 453.4800109863281 14.71000003814697
162.5899963378906 452.4500122070312 14.02000045776367
162.0099945068359 452.6300048828125 14.10999965667725
161.4700012207031 452.760009765625 14.1899995803833
158.1000061035156 453.6099853515625 14.85999965667725
157.5 453.7999877929688 14.9399995803833
159.8300018310547 453.1799926757812 14.47999954223633
163.0500030517578 451.6499938964844 12.10999965667725
161.6199951171875 452.0599975585938 14.22000026702881
159.8999938964844 452.5 14.52999973297119
162.1699981689453 451.8800048828125 14.09000015258789
162.7299957275391 451.760009765625 13.96000003814697
158.2400054931641 452.8900146484375 14.80000019073486
159.3699951171875 452.6300048828125 14.69999980926514
157.1199951171875 453.1900024414062 15.0600004196167
160.4199981689453 452.3200073242188 14.42000007629395
160.9799957275391 452.2099914550781 14.28999996185303
158.7799987792969 452.7699890136719 14.75
157.6900024414062 453.0499877929688 14.89000034332275
163.3000030517578 451.5799865722656 13.85000038146973
161.8500061035156 451.3900146484375 14.10000038146973
161.3300018310547 451.5299987792969 14.22999954223633
156.8899993896484 452.6799926757812 15.80000019073486
159.1300048828125 452.0799865722656 14.77999973297119
158.5299987792969 452.2200012207031 15.07999992370605
162.9799957275391 451.1000061035156 13.90999984741211
159.6699981689453 451.9200134277344 14.5600004196167
155.75 452.9700012207031 15.85999965667725
160.7599945068359 451.6799926757812 14.3100004196167
158.0500030517578 452.3599853515625 15.27000045776367
156.3399963378906 452.7999877929688 16.02000045776367
162.4700012207031 451.2099914550781 14.01000022888184
160.2200012207031 451.7799987792969 14.4399995803833
157.4400024414062 452.5299987792969 15.53999996185303
162.1999969482422 450.6300048828125 14.03999996185303
162.6999969482422 450.4599914550781 13.97000026702881
160.4100036621094 451.0499877929688 14.40999984741211
159.8899993896484 451.2000122070312 14.47000026702881
159.3500061035156 451.3399963378906 14.6899995803833
158.8099975585938 451.4700012207031 14.9399995803833
161.5599975585938 450.7699890136719 14.14999961853027
156.1000061035156 452.1700134277344 16.02000045776367
163.2799987792969 450.3399963378906 13.77999973297119
158.3000030517578 451.6199951171875 15.14999961853027
157.7599945068359 451.75 15.4399995803833
154.2200012207031 452.6400146484375 15.22999954223633
157.2299957275391 451.9299926757812 15.64999961853027
154.8899993896484 452.510009765625 15.46000003814697
156.6699981689453 452.0400085449219 15.89999961853027
153.6000061035156 452.8200073242188 14.93000030517578
153.0099945068359 452.9500122070312 14.71000003814697
161.0099945068359 450.9400024414062 14.23999977111816
155.5299987792969 452.3299865722656 15.73999977111816
160.6799926757812 450.2799987792969 14.31999969482422
160.1300048828125 450.4200134277344 14.43000030517578
163.4100036621094 449.5499877929688 13.72999954223633
159.0099945068359 450.6900024414062 14.8100004196167
162.8999938964844 449.6700134277344 13.9399995803833
158.4400024414062 450.8299865722656 15.0600004196167
161.7799987792969 450 14.14000034332275
162.3800048828125 449.8500061035156 14.05000019073486
161.1999969482422 450.1300048828125 14.25
155.0500030517578 451.6900024414062 15.55000019073486
153.2200012207031 452.1900024414062 14.77999973297119
156.8000030517578 451.260009765625 15.80000019073486
157.3699951171875 451.1099853515625 15.5600004196167
155.6300048828125 451.5599975585938 15.80000019073486
156.2299957275391 451.3999938964844 16.03000068664551
154.4499969482422 451.8599853515625 15.27999973297119
152.6199951171875 452.3200073242188 14.60000038146973
153.8300018310547 452.0299987792969 15.02999973297119
159.6100006103516 450.5499877929688 14.5600004196167
157.9400024414062 450.989990234375 15.28999996185303
163.6499938964844 448.7799987792969 13.88000011444092
160.1600036621094 449.6700134277344 14.40999984741211
159.1300048828125 449.9500122070312 14.75
158.6000061035156 450.0899963378906 14.97999954223633
161.9199981689453 449.25 14.09000015258789
161.3600006103516 449.3699951171875 14.22000026702881
158.0800018310547 450.2300109863281 15.22000026702881
154.6300048828125 451.1099853515625 15.32999992370605
162.4600067138672 449.0899963378906 13.96000003814697
163.0599975585938 448.9400024414062 13.86999988555908
152.7299957275391 451.5799865722656 14.57999992370605
159.6399993896484 449.8099975585938 14.53999996185303
160.7400054931641 449.5599975585938 14.31999969482422
156.9799957275391 450.5299987792969 15.69999980926514
155.25 450.9700012207031 15.63000011444092
153.9700012207031 451.2699890136719 15.05000019073486
156.4400024414062 450.6499938964844 15.98999977111816
155.8800048828125 450.8299865722656 15.93000030517578
157.5399932861328 450.3900146484375 15.47000026702881
153.3999938964844 451.4400024414062 14.81999969482422
162.2400054931641 448.5899963378906 14.02999973297119
160.5 449.0199890136719 14.35000038146973
161.6100006103516 448.7200012207031 14.17000007629395
157.7799987792969 449.7099914550781 15.36999988555908
157.1900024414062 449.8599853515625 15.61999988555908
159.4400024414062 449.3099975585938 14.63000011444092
162.75 448.4400024414062 13.94999980926514
158.2700042724609 449.6099853515625 15.13000011444092
154.2700042724609 450.6400146484375 15.22999954223633
156.0599975585938 450.1700134277344 16.01000022888184
155.5099945068359 450.3299865722656 15.72000026702881
153.0299987792969 450.9500122070312 14.72000026702881
154.8800048828125 450.4599914550781 15.44999980926514
163.3099975585938 448.2799987792969 13.81999969482422
156.6600036621094 450 15.86999988555908
153.6499938964844 450.7799987792969 14.94999980926514
159.9600067138672 449.1400146484375 14.47999954223633
158.8800048828125 449.4400024414062 14.85999965667725
161.0800018310547 448.8800048828125 14.26000022888184
160.1699981689453 448.3999938964844 14.47000026702881
159.6399993896484 448.5499877929688 14.53999996185303
156.9799957275391 449.239990234375 15.71000003814697
157.5099945068359 449.0899963378906 15.5
153.9400024414062 449.989990234375 15.07999992370605
158.5500030517578 448.8500061035156 15.02000045776367
156.4199981689453 449.3900146484375 15.94999980926514
155.2599945068359 449.6799926757812 15.64000034332275
154.6199951171875 449.8699951171875 15.36999988555908
153.3699951171875 450.1400146484375 14.85999965667725
158.0500030517578 448.9599914550781 15.22000026702881
152.7100067138672 450.2999877929688 14.60000038146973
159.1300048828125 448.7000122070312 14.76000022888184
155.8300018310547 449.5499877929688 15.90999984741211
161.3200073242188 448.1400146484375 14.22000026702881
162.4799957275391 447.8500061035156 14.02999973297119
163.0500030517578 447.6700134277344 13.86999988555908
160.7200012207031 448.2900085449219 14.35000038146973
161.9400024414062 447.9599914550781 14.10000038146973
163.25 446.8900146484375 13.8100004196167
162.7299957275391 447.0199890136719 13.97000026702881
161.6499938964844 447.3200073242188 14.17000007629395
162.1699981689453 447.1600036621094 14.03999996185303
159.9700012207031 447.75 14.48999977111816
163.1100006103516 446.8800048828125 12.75
160.5099945068359 447.5799865722656 14.34000015258789
156.6199951171875 448.5700073242188 15.86999988555908
158.3200073242188 448.1799926757812 15.14999961853027
155.4799957275391 448.8800048828125 15.73999977111816
158.8200073242188 448.0299987792969 14.86999988555908
153.6699981689453 449.3200073242188 14.97000026702881
154.8800048828125 449.010009765625 15.48999977111816
154.2799987792969 449.2000122070312 15.19999980926514
153.0500030517578 449.5199890136719 14.72000026702881
156.0500030517578 448.75 16.01000022888184
157.7799987792969 448.3099975585938 15.34000015258789
161.0399932861328 447.4599914550781 14.27000045776367
159.4199981689453 447.8500061035156 14.61999988555908
157.2299957275391 448.4200134277344 15.63000011444092
160.6600036621094 446.8399963378906 14.28999996185303
161.2599945068359 446.7099914550781 14.19999980926514
160.0800018310547 446.989990234375 14.42000007629395
163.5099945068359 446.1300048828125 13.72999954223633
162.9600067138672 446.25 13.85999965667725
156.8999938964844 447.8200073242188 15.72999954223633
158.4700012207031 447.4299926757812 15.05000019073486
162.3600006103516 446.3900146484375 14.02000045776367
159.5599975585938 447.1499938964844 14.53999996185303
153.8699951171875 448.6000061035156 15.02000045776367
152.6100006103516 448.9100036621094 14.53999996185303
156.3200073242188 447.9700012207031 15.96000003814697
157.4299926757812 447.6700134277344 15.53999996185303
153.25 448.7200012207031 14.81999969482422
154.5299987792969 448.4500122070312 15.35999965667725
157.9499969482422 447.5599975585938 15.25
155.1999969482422 448.239990234375 15.96000003814697
159.0299987792969 447.2699890136719 14.78999996185303
161.8600006103516 446.5599975585938 14.10999965667725
155.7299957275391 448.1400146484375 15.89999961853027
161.5399932861328 446.010009765625 14.18000030517578
158.8000030517578 446.7200012207031 14.89999961853027
159.3200073242188 446.5799865722656 14.64999961853027
158.2200012207031 446.8800048828125 15.18000030517578
157.1100006103516 447.2000122070312 15.64999961853027
160.4199981689453 446.3500061035156 14.38000011444092
153.5599975585938 448.0599975585938 14.89999961853027
154.2100067138672 447.9100036621094 15.17000007629395
156.5599975585938 447.3299865722656 15.88000011444092
163.2299957275391 445.6099853515625 13.75
154.8000030517578 447.7900085449219 15.48999977111816
155.9900054931641 447.4500122070312 16.03000068664551
162.1499938964844 445.8699951171875 14.0600004196167
152.9499969482422 448.2200012207031 14.64000034332275
157.6999969482422 447 15.40999984741211
162.6399993896484 445.760009765625 13.97000026702881
155.3800048828125 447.6400146484375 15.72999954223633
159.8699951171875 446.4400024414062 14.47999954223633
161.0299987792969 446.1799926757812 14.22000026702881
160.0500030517578 445.7099914550781 14.4399995803833
161.8300018310547 445.2699890136719 14.10999965667725
158.9799957275391 446 14.77999973297119
162.9299926757812 445 13.90999984741211
156.8399963378906 446.5799865722656 15.75
158.5 446.1199951171875 15.05000019073486
157.9499969482422 446.2699890136719 15.22999954223633
156.3099975585938 446.7200012207031 16.02000045776367
160.6399993896484 445.5599975585938 14.34000015258789
155.75 446.8699951171875 15.90999984741211
154.4900054931641 447.1499938964844 15.31999969482422
161.2400054931641 445.4400024414062 14.1899995803833
159.5 445.8800048828125 14.55000019073486
155.1499938964844 446.9800109863281 15.63000011444092
162.3600006103516 445.1499938964844 14.01000022888184
157.3899993896484 446.4100036621094 15.47999954223633
153.2200012207031 447.4500122070312 14.81999969482422
153.8399963378906 447.3399963378906 15.06999969482422
152.6300048828125 447.6499938964844 14.56999969482422
161.5200042724609 444.6300048828125 14.21000003814697
160.9199981689453 444.75 14.28999996185303
158.1799926757812 445.489990234375 15.13000011444092
157.0700073242188 445.7699890136719 15.61999988555908
156.5200042724609 445.9200134277344 15.88000011444092
155.8999938964844 446.0700073242188 15.9399995803833
158.7299957275391 445.3500061035156 14.94999980926514
157.6399993896484 445.6000061035156 15.38000011444092
154.7200012207031 446.3599853515625 15.42000007629395
153.5500030517578 446.6700134277344 14.9399995803833
159.8000030517578 445.0400085449219 14.48999977111816
152.8899993896484 446.7999877929688 14.64999961853027
160.3300018310547 444.9200134277344 14.35000038146973
159.2899932861328 445.1700134277344 14.64999961853027
155.3399963378906 446.2200012207031 15.69999980926514
154.1300048828125 446.5199890136719 15.17000007629395
159.4199981689453 444.4400024414062 14.59000015258789
159.7799987792969 444.3500061035156 13.32999992370605
158.3999938964844 444.7300109863281 15.02000045776367
159.25 444.4599914550781 13.46000003814697
155.6699981689453 445.4500122070312 15.90999984741211
156.8000030517578 445.1199951171875 15.77000045776367
157.2899932861328 445.010009765625 15.53999996185303
153.7599945068359 445.9100036621094 15.03999996185303
153.1499938964844 446.0299987792969 14.8100004196167
155.0700073242188 445.5899963378906 15.61999988555908
157.8699951171875 444.8399963378906 15.27000045776367
154.4299926757812 445.7099914550781 15.35000038146973
152.5299987792969 446.2300109863281 14.56999969482422
158.9400024414062 444.5700073242188 14.78999996185303
156.1900024414062 445.2999877929688 16.02000045776367
160.3500061035156 444.2000122070312 13.19999980926514
160.1600036621094 443.6600036621094 12.75
160.2700042724609 443.6300048828125 13.47999954223633
159.3600006103516 443.9200134277344 14.65999984741211
158.7899932861328 444.0599975585938 14.86999988555908
156.5899963378906 444.6499938964844 15.90999984741211
155.9700012207031 444.7699890136719 16.04999923706055
157.1499938964844 444.489990234375 15.60999965667725
155.4100036621094 444.9400024414062 15.80000019073486
157.6699981689453 444.3299865722656 15.31999969482422
154.1799926757812 445.2099914550781 15.22000026702881
154.7799987792969 445.0599975585938 15.52000045776367
159.8699951171875 443.739990234375 14.57999992370605
158.2299957275391 444.2099914550781 15.10000038146973
152.9600067138672 445.5400085449219 14.68000030517578
153.5700073242188 445.3800048828125 14.96000003814697
159.5899963378906 443.1600036621094 14.34000015258789
158.5700073242188 443.4599914550781 14.93000030517578
159.0800018310547 443.2999877929688 14.73999977111816
158.0299987792969 443.5799865722656 15.18000030517578
156.4100036621094 443.989990234375 15.94999980926514
153.9600067138672 444.6000061035156 15.11999988555908
153.3399963378906 444.7699890136719 14.82999992370605
155.8399963378906 444.1499938964844 15.98999977111816
157.4799957275391 443.739990234375 15.4399995803833
152.7100067138672 444.9100036621094 14.59000015258789
154.6100006103516 444.4599914550781 15.36999988555908
159.9199981689453 443.0700073242188 12.82999992370605
156.9900054931641 443.8800048828125 15.6899995803833
155.25 444.3099975585938 15.71000003814697
159.9499969482422 442.3900146484375 14.39999961853027
159.0700073242188 442.5700073242188 12.35999965667725
159.4199981689453 442.489990234375 14.47999954223633
157.7799987792969 442.9400024414062 15.28999996185303
157.2299957275391 443.0599975585938 15.56999969482422
156.6699981689453 443.2300109863281 15.81999969482422
158.2799987792969 442.8200073242188 15.09000015258789
153.6999969482422 443.9500122070312 15.02000045776367
155.5399932861328 443.5400085449219 15.84000015258789
154.3099975585938 443.8299865722656 15.26000022888184
154.9199981689453 443.6799926757812 15.52999973297119
156.1000061035156 443.3699951171875 16.03000068664551
159.8699951171875 442.3599853515625 13.77999973297119
158.8800048828125 442.6300048828125 14.82999992370605
153.0500030517578 444.1400146484375 14.71000003814697
159.6499938964844 441.8099975585938 14.60000038146973
158.0599975585938 442.1799926757812 15.1899995803833
157.5 442.3200073242188 15.47000026702881
154.6300048828125 443.0599975585938 15.39999961853027
159.1300048828125 441.9400024414062 14.73999977111816
153.3699951171875 443.3800048828125 14.84000015258789
153.9900054931641 443.2200012207031 15.11999988555908
159.2799987792969 441.8399963378906 12.34000015258789
156.4299926757812 442.6000061035156 15.94999980926514
158.5700073242188 442.0400085449219 14.96000003814697
156.9700012207031 442.4500122070312 15.6899995803833
155.8500061035156 442.75 16.01000022888184
152.7400054931641 443.5599975585938 14.63000011444092
155.3000030517578 442.9200134277344 15.78999996185303
159.5800018310547 441.2099914550781 14.51000022888184
156.2200012207031 442.0700073242188 16.03000068664551
158.4299926757812 441.510009765625 15
156.7899932861328 441.9400024414062 15.75
155.0399932861328 442.3599853515625 15.63000011444092
155.6199951171875 442.2200012207031 15.89999961853027
153.8500061035156 442.6700134277344 15.0600004196167
157.3399963378906 441.8200073242188 15.52000045776367
153.1900024414062 442.8399963378906 14.75
152.6000061035156 442.9700012207031 14.5600004196167
157.8699951171875 441.6700134277344 15.23999977111816
154.4299926757812 442.5299987792969 15.34000015258789
158.9900054931641 441.3599853515625 14.75
158.9700012207031 440.6499938964844 11.97000026702881
158.8600006103516 440.7200012207031 14.84000015258789
157.7599945068359 441 15.34000015258789
154.9299926757812 441.75 15.5600004196167
155.6000061035156 441.6000061035156 15.85999965667725
153.6900024414062 442.0700073242188 15.02000045776367
159.3699951171875 440.6099853515625 14.60000038146973
154.2700042724609 441.9200134277344 15.27000045776367
158.3399963378906 440.8599853515625 15.03999996185303
156.1799926757812 441.4100036621094 16.04000091552734
157.2799987792969 441.1300048828125 15.56999969482422
153.0299987792969 442.2099914550781 14.73999977111816
156.6799926757812 441.2799987792969 15.8100004196167
158.1399993896484 440.1900024414062 15.13000011444092
159.2299957275391 439.9200134277344 14.6899995803833
158.6699981689453 440.0799865722656 14.89000034332275
153.4600067138672 441.3699951171875 14.93000030517578
155.2899932861328 440.9400024414062 15.73999977111816
152.8800048828125 441.5299987792969 14.64000034332275
157.5800018310547 440.3299865722656 15.42000007629395
156.4199981689453 440.6600036621094 15.90999984741211
157.0299987792969 440.4800109863281 15.64000034332275
155.9299926757812 440.7699890136719 16.03000068664551
154.1199951171875 441.239990234375 15.1899995803833
154.7200012207031 441.0499877929688 15.46000003814697
157 439.7999877929688 13.31999969482422
156.25 440.0199890136719 16
155.7700042724609 440.1000061035156 12.94999980926514
154.4600067138672 440.4800109863281 15.35000038146973
156.7899932861328 439.8900146484375 15.69999980926514
155.0899963378906 440.3299865722656 15.72000026702881
152.5399932861328 440.9200134277344 14.57999992370605
153.8300018310547 440.6300048828125 15.06999969482422
155.6999969482422 440.1600036621094 15.94999980926514
152.2700042724609 441 13.09000015258789
153.1999969482422 440.7900085449219 14.78999996185303
153.6000061035156 440.1000061035156 14.96000003814697
155.5200042724609 439.5499877929688 12.93000030517578
152.9900054931641 440.25 14.69999980926514
154.2299957275391 439.9599914550781 15.27999973297119
152.6300048828125 440.0499877929688 14.71000003814697
153.4400024414062 439.8500061035156 14.9399995803833
153.1499938964844 440.5599975585938 14.80000019073486
154.8699951171875 440.1300048828125 15.57999992370605
154.0599975585938 440.3299865722656 15.17000007629395
155.7100067138672 439.9200134277344 15.86999988555908
153.3099975585938 440.5799865722656 12.05000019073486
153.9900054931641 440.3900146484375 12.01000022888184
152.8800048828125 441.3900146484375 14.60000038146973
155.3899993896484 440.739990234375 15.76000022888184
157.3600006103516 440.25 15.52000045776367
156.8300018310547 440.3900146484375 15.72000026702881
157.9400024414062 440.1099853515625 15.23999977111816
159.1100006103516 439.8500061035156 14.69999980926514
158.5500030517578 439.9599914550781 14.97999954223633
156.2400054931641 440.5299987792969 16.02000045776367
153.7899932861328 441.1900024414062 15.03999996185303
154.5599975585938 440.9800109863281 15.36999988555908
157.7100067138672 440.1799926757812 13.11999988555908
158.2899932861328 440.0499877929688 12.77000045776367
154.4100036621094 441.7999877929688 15.32999992370605
155.2599945068359 441.5700073242188 15.65999984741211
157.1699981689453 441.1099853515625 15.55000019073486
156.6199951171875 441.239990234375 15.85999965667725
153.5599975585938 442 14.93000030517578
156.0700073242188 441.3599853515625 16.02000045776367
158.9600067138672 440.6799926757812 13.52999973297119
159.1399993896484 440.6199951171875 12.35999965667725
158.3000030517578 440.7999877929688 15.0600004196167
158.9400024414062 440.6700134277344 14.80000019073486
159.4700012207031 440.5400085449219 14.57999992370605
157.7400054931641 440.9599914550781 15.30000019073486
152.6600036621094 442.2300109863281 14.57999992370605
155.8200073242188 442.1400146484375 15.89999961853027
157.6300048828125 441.6600036621094 15.40999984741211
158.2299957275391 441.5199890136719 15.10999965667725
158.8399963378906 441.3900146484375 14.85999965667725
159.1999969482422 441.3099975585938 12.60999965667725
156.5200042724609 441.9599914550781 15.89000034332275
159.4100036621094 441.2300109863281 14.61999988555908
154.1399993896484 442.5499877929688 15.10999965667725
157.0800018310547 441.8200073242188 15.65999984741211
154.9799957275391 442.3699951171875 15.55000019073486
153.2700042724609 442.760009765625 14.77000045776367
153.8000030517578 443.2000122070312 15.02999973297119
154.9900054931641 442.8900146484375 16.20999908447266
152.8500061035156 443.4700012207031 14.60999965667725
154.6300048828125 442.989990234375 15.39000034332275
157.3099975585938 442.3399963378906 15.56999969482422
159.1100006103516 441.9200134277344 13.44999980926514
159.0599975585938 441.8999938964844 14.77000045776367
156.25 442.6199951171875 16.07999992370605
156.7899932861328 442.4500122070312 15.77000045776367
159.6199951171875 441.739990234375 14.56999969482422
157.9199981689453 442.1900024414062 15.27999973297119
158.4499969482422 442.0400085449219 15.02999973297119
155.4799957275391 442.760009765625 15.8100004196167
159.2599945068359 441.8999938964844 12.10999965667725
152.6199951171875 444.2200012207031 14.52999973297119
155.1000061035156 443.5799865722656 15.59000015258789
156.5899963378906 443.2300109863281 15.85999965667725
158.3099975585938 442.7999877929688 15.09000015258789
153.4499969482422 444.0400085449219 14.80000019073486
159.9700012207031 442.4100036621094 14.03999996185303
159.4499969482422 442.5199890136719 14.44999980926514
157.75 442.9299926757812 15.32999992370605
154.2899932861328 443.7900085449219 15.21000003814697
159.3200073242188 442.5899963378906 12.55000019073486
158.9499969482422 442.6300048828125 14.80000019073486
157.1699981689453 443.0799865722656 15.57999992370605
155.9299926757812 443.3599853515625 15.97999954223633
153.2599945068359 444.8500061035156 14.78999996185303
154.9900054931641 444.3599853515625 15.5600004196167
155.8200073242188 444.1900024414062 15.97000026702881
156.4900054931641 443.9800109863281 15.94999980926514
159.1999969482422 443.3299865722656 12.96000003814697
157.5800018310547 443.739990234375 15.40999984741211
160.0399932861328 443.1499938964844 13.38000011444092
159.6499938964844 443.239990234375 13.92000007629395
158.6999969482422 443.4299926757812 14.9399995803833
154.0899963378906 444.6000061035156 15.10999965667725
157 443.8500061035156 15.72000026702881
159.3200073242188 443.3200073242188 14.72999954223633
158.1300048828125 443.5799865722656 15.18000030517578
158.6600036621094 444.1400146484375 14.94999980926514
159.8600006103516 443.8399963378906 14.48999977111816
158.0500030517578 444.2799987792969 15.21000003814697
159.2100067138672 444.0199890136719 14.71000003814697
159.3800048828125 443.989990234375 11.90999984741211
159.2899932861328 444 13.17000007629395
154.7400054931641 445.1099853515625 15.39999961853027
156.3099975585938 444.7099914550781 16
155.6000061035156 444.9200134277344 15.76000022888184
157.5299987792969 444.4400024414062 15.46000003814697
156.9199981689453 444.5599975585938 15.72000026702881
153.8999938964844 445.3200073242188 15.05000019073486
153.0599975585938 445.5700073242188 14.6899995803833
156.0700073242188 445.3099975585938 16.04000091552734
153.5200042724609 445.9599914550781 14.86999988555908
152.6399993896484 446.1900024414062 14.46000003814697
159.8000030517578 444.3999938964844 13.71000003814697
159.2599945068359 444.5499877929688 12.47999954223633
159.0299987792969 444.6000061035156 13.5
156.7100067138672 445.1700134277344 15.85999965667725
157.2100067138672 445.0199890136719 15.63000011444092
157.7599945068359 444.8900146484375 15.35000038146973
160.1799926757812 444.3099975585938 13.10999965667725
159.5 444.5 14.59000015258789
154.4199981689453 445.760009765625 15.27999973297119
158.3399963378906 444.760009765625 15.10000038146973
158.8999938964844 444.6300048828125 14.85000038146973
155.3200073242188 445.489990234375 15.72999954223633
153.1199951171875 446.7099914550781 14.6899995803833
155.6399993896484 446.0700073242188 15.77999973297119
153.8999938964844 446.510009765625 15.02999973297119
157.5399932861328 445.5700073242188 15.47000026702881
161.6900024414062 444.5400085449219 14.10999965667725
161.1199951171875 444.7099914550781 14.3100004196167
154.7899932861328 446.2799987792969 15.43000030517578
159.2799987792969 445.1400146484375 14.69999980926514
156.9499969482422 445.7099914550781 15.75
159.8699951171875 445.0199890136719 14.46000003814697
158.7200012207031 445.3099975585938 14.92000007629395
158.1199951171875 445.4700012207031 15.25
156.3999938964844 445.8800048828125 15.97999954223633
153.5800018310547 447.2699890136719 14.89000034332275
157.25 446.3299865722656 15.59000015258789
158.3999938964844 446.0400085449219 15.09000015258789
154.4700012207031 447.0700073242188 15.25
159.5700073242188 445.7900085449219 14.5600004196167
152.75 447.4800109863281 14.60999965667725
160.1399993896484 445.6499938964844 14.43000030517578
155.3099975585938 446.8299865722656 15.68000030517578
156.1799926757812 446.6099853515625 16.03000068664551
162.8200073242188 444.9700012207031 12.64999961853027
162.0399932861328 445.1700134277344 14.09000015258789
157.7799987792969 446.2000122070312 15.35999965667725
156.6900024414062 446.5 15.85999965667725
163.3000030517578 444.8699951171875 13.77000045776367
162.6300048828125 445 13.98999977111816
158.9299926757812 445.9100036621094 14.84000015258789
160.7400054931641 445.4700012207031 14.3100004196167
161.4100036621094 445.3299865722656 14.1899995803833
161.8999938964844 445.8399963378906 14.10999965667725
161.2799987792969 446.0199890136719 14.21000003814697
162.4900054931641 445.6900024414062 13.98999977111816
162.9199981689453 445.6300048828125 11.84000015258789
163.1499938964844 445.5299987792969 13.82999992370605
155.0700073242188 447.5700073242188 15.47999954223633
154.1499938964844 447.7699890136719 15.11999988555908
157.7200012207031 446.8800048828125 15.39000034332275
160.0700073242188 446.3200073242188 14.43000030517578
159.4400024414062 446.4599914550781 14.61999988555908
156.5500030517578 447.1700134277344 15.89999961853027
153.3300018310547 448.010009765625 14.75
155.8800048828125 447.3599853515625 15.85999965667725
158.8899993896484 446.5899963378906 14.90999984741211
158.2599945068359 446.75 15.13000011444092
157.1199951171875 447.0199890136719 15.65999984741211
160.6600036621094 446.1700134277344 14.28999996185303
153.8899993896484 448.4299926757812 15.02999973297119
154.8099975585938 448.2099914550781 15.4399995803833
156.9700012207031 447.6700134277344 15.76000022888184
157.4799957275391 447.5 15.48999977111816
155.6499938964844 447.9800109863281 15.81999969482422
156.3600006103516 447.7999877929688 15.97999954223633
161.6399993896484 446.4599914550781 14.17000007629395
162.8899993896484 446.1600036621094 13.93000030517578
161 446.6600036621094 14.26000022888184
160.3500061035156 446.8099975585938 14.35999965667725
159.7899932861328 446.9400024414062 14.47999954223633
159.1699981689453 447.0799865722656 14.73999977111816
162.2799987792969 446.3299865722656 14.02999973297119
158.6499938964844 447.25 15.02999973297119
162.9199981689453 446.1600036621094 12.39000034332275
153.0399932861328 448.6400146484375 14.64999961853027
158.0500030517578 447.3599853515625 15.27000045776367
152.8300018310547 449.3999938964844 14.64999961853027
154.4499969482422 448.989990234375 15.27000045776367
157.3500061035156 448.260009765625 15.59000015258789
153.6900024414062 449.1799926757812 14.89999961853027
155.3399963378906 448.75 15.67000007629395
156.1699981689453 448.5199890136719 15.98999977111816
161.5399932861328 447.1799926757812 14.22000026702881
162.75 446.8800048828125 14.01000022888184
156.7299957275391 448.4100036621094 15.85999965667725
160.8999938964844 447.3599853515625 14.27999973297119
163.3500061035156 446.7300109863281 13.73999977111816
157.9400024414062 448.1199951171875 15.32999992370605
159.0599975585938 447.8099975585938 14.77999973297119
162.9400024414062 446.8599853515625 12.72999954223633
158.5099945068359 447.9700012207031 15.03999996185303
162.1100006103516 447.0400085449219 14.0600004196167
159.6799926757812 447.6799926757812 14.53999996185303
160.2899932861328 447.5199890136719 14.40999984741211
160.6799926757812 448.1099853515625 14.35999965667725
163.2100067138672 447.510009765625 12.27999973297119
161.9600067138672 447.8299865722656 14.10999965667725
163.1999969482422 447.5199890136719 13.80000019073486
162.5500030517578 447.6700134277344 13.98999977111816
161.2599945068359 447.9599914550781 14.26000022888184
152.6499938964844 450.1700134277344 14.60000038146973
155.1399993896484 449.5299987792969 15.61999988555908
156.6699981689453 449.1099853515625 15.90999984741211
158.3000030517578 448.7300109863281 15.14999961853027
157.7200012207031 448.8800048828125 15.40999984741211
159.4700012207031 448.4500122070312 14.61999988555908
154.3200073242188 449.739990234375 15.1899995803833
160.0599975585938 448.2799987792969 14.4399995803833
158.8800048828125 448.5700073242188 14.89000034332275
153.3899993896484 449.9500122070312 14.8100004196167
157.1999969482422 448.9700012207031 15.64999961853027
156.0500030517578 449.260009765625 15.98999977111816
154.9299926757812 450.2099914550781 15.39000034332275
154.1399993896484 450.4299926757812 15.05000019073486
156.5500030517578 449.8099975585938 15.9399995803833
161.25 448.6400146484375 14.22999954223633
157.0500030517578 449.6600036621094 15.68000030517578
159.4199981689453 449.1099853515625 14.69999980926514
153.2599945068359 450.6600036621094 14.68000030517578
163.0700073242188 448.1499938964844 13.92000007629395
160.6399993896484 448.7699890136719 14.3100004196167
158.2599945068359 449.3900146484375 15.13000011444092
158.8200073242188 449.2300109863281 14.93000030517578
157.6399993896484 449.5 15.44999980926514
161.8500061035156 448.489990234375 14.10000038146973
163.0200042724609 448.239990234375 12.07999992370605
155.8200073242188 449.9700012207031 15.81999969482422
160.0200042724609 448.9200134277344 14.5
162.4600067138672 448.3200073242188 13.97999954223633
152.9799957275391 451.239990234375 14.65999984741211
155.5299987792969 450.5899963378906 15.73999977111816
154.6600036621094 450.8299865722656 15.27999973297119
158.0399932861328 450 15.27000045776367
160.9499969482422 449.239990234375 14.31999969482422
160.3399963378906 449.4200134277344 14.40999984741211
162.8600006103516 448.7900085449219 13.96000003814697
157.4700012207031 450.1099853515625 15.52000045776367
162.2100067138672 448.9200134277344 14.06999969482422
161.5800018310547 449.1000061035156 14.15999984741211
163.4499969482422 448.6400146484375 13.81999969482422
156.3600006103516 450.3800048828125 16.04000091552734
159.6999969482422 449.5899963378906 14.56999969482422
162.9600067138672 448.760009765625 12.64999961853027
159.1499938964844 449.7000122070312 14.76000022888184
156.9400024414062 450.25 15.76000022888184
153.8099975585938 451.0700073242188 14.9399995803833
158.5800018310547 449.8699951171875 15.02999973297119
159.0399932861328 450.4400024414062 14.84000015258789
159.5800018310547 450.2999877929688 14.57999992370605
160.8800048828125 449.9700012207031 14.27999973297119
160.2100067138672 450.1600036621094 14.40999984741211
161.4900054931641 449.8299865722656 14.14999961853027
162.0800018310547 449.6700134277344 14.0600004196167
163.2899932861328 449.3900146484375 13.82999992370605
162.6999969482422 449.5199890136719 13.94999980926514
162.8600006103516 449.5199890136719 12.72000026702881
154.3999938964844 451.5899963378906 15.21000003814697
156.7599945068359 450.989990234375 15.89999961853027
152.8399963378906 452.0199890136719 14.61999988555908
153.5500030517578 451.8399963378906 14.85000038146973
157.2799987792969 450.8599853515625 15.64999961853027
157.8999938964844 450.739990234375 15.34000015258789
155.2200012207031 451.3699951171875 15.55000019073486
158.4700012207031 450.5799865722656 15.0600004196167
156.1100006103516 451.1400146484375 15.97000026702881
153.3999938964844 452.6400146484375 14.82999992370605
156.6600036621094 451.8099975585938 15.92000007629395
154.2100067138672 452.4700012207031 15.17000007629395
155.9900054931641 451.989990234375 15.89000034332275
157.2100067138672 451.6700134277344 15.65999984741211
157.7299957275391 451.5799865722656 15.42000007629395
159.4499969482422 451.1199951171875 14.67000007629395
161.2899932861328 450.6600036621094 14.27000045776367
159.9900054931641 450.989990234375 14.44999980926514
160.6900024414062 450.8200073242188 14.3100004196167
161.8999938964844 450.5400085449219 14.07999992370605
155.0599975585938 452.239990234375 15.53999996185303
158.3500061035156 451.4400024414062 15.1899995803833
158.8600006103516 451.2799987792969 14.90999984741211
162.5099945068359 450.3500061035156 14.02000045776367
163.1999969482422 450.1900024414062 13.88000011444092
162.4900054931641 451.1600036621094 14.05000019073486
163.1300048828125 450.9700012207031 13.93000030517578
161.9100036621094 451.2900085449219 14.10999965667725
161.3200073242188 451.4599914550781 14.21000003814697
156.5500030517578 452.6300048828125 15.97999954223633
158.8200073242188 452.0700073242188 14.9399995803833
155.8000030517578 452.7999877929688 15.85999965667725
158.2400054931641 452.1900024414062 15.22000026702881
159.3899993896484 451.9200134277344 14.68000030517578
157.6300048828125 452.3699951171875 15.5
157.1300048828125 452.5 15.72000026702881
160 451.7699890136719 14.46000003814697
160.6199951171875 451.6199951171875 14.34000015258789
157.2400054931641 453.0599975585938 15.10999965667725
161.5800018310547 452.010009765625 14.19999980926514
159.1000061035156 452.6000061035156 14.8100004196167
159.6799926757812 452.4500122070312 14.60000038146973
162.9100036621094 451.7000122070312 12.5600004196167
162.1699981689453 451.8699951171875 14.13000011444092
160.2700042724609 452.3399963378906 14.4399995803833
157.8099975585938 452.9400024414062 14.90999984741211
162.8200073242188 451.6700134277344 13.98999977111816
160.9199981689453 452.1400146484375 14.35000038146973
163.4299926757812 451.5299987792969 13.80000019073486
158.4900054931641 452.760009765625 14.94999980926514
158.1399993896484 453.5599975585938 14.82999992370605
160.0500030517578 453.0799865722656 14.44999980926514
157.4799957275391 453.75 14.98999977111816
161.3699951171875 452.75 14.22000026702881
160.7100067138672 452.9400024414062 14.31999969482422
161.9400024414062 452.6199951171875 14.10999965667725
163.7400054931641 452.1499938964844 13.68000030517578
162.5599975585938 452.4800109863281 14.02000045776367
158.7899932861328 453.3800048828125 14.6899995803833
159.4100036621094 453.239990234375 14.56999969482422
163.1499938964844 452.3200073242188 13.89000034332275
163.1399993896484 452.3200073242188 12.27000045776367
157.9600067138672 454.3999938964844 14.86999988555908
159.8099975585938 453.9700012207031 14.5
161.0500030517578 453.6300048828125 14.27999973297119
158.5299987792969 454.2799987792969 14.76000022888184
159.1799926757812 454.0899963378906 14.65999984741211
163.5599975585938 452.989990234375 13.82999992370605
162.9299926757812 453.1499938964844 13.94999980926514
161.6900024414062 453.4800109863281 14.14999961853027
162.2899932861328 453.3500061035156 14.03999996185303
160.4299926757812 453.7900085449219 14.38000011444092
160.3699951171875 454.5700073242188 14.36999988555908
159.1100006103516 454.8999938964844 14.68000030517578
161.6600036621094 454.239990234375 14.15999984741211
162.8999938964844 453.9400024414062 13.9399995803833
162.2599945068359 454.1199951171875 14.07999992370605
159.7299957275391 454.760009765625 14.56999969482422
164.1199951171875 453.6499938964844 13.72000026702881
161.0200042724609 454.3900146484375 14.31999969482422
163.75 453.7200012207031 12.92000007629395
163.4900054931641 453.7799987792969 13.84000015258789
158.9400024414062 455.6000061035156 14.81999969482422
161.9700012207031 454.8099975585938 14.11999988555908
159.4799957275391 455.4500122070312 14.57999992370605
160.6999969482422 455.1099853515625 14.36999988555908
163.2200012207031 454.510009765625 13.89999961853027
162.5899963378906 454.6400146484375 14.02999973297119
163.8800048828125 454.3299865722656 13.71000003814697
161.4100036621094 454.9500122070312 14.22999954223633
160.1399993896484 455.260009765625 14.47999954223633
161.2200012207031 455.7099914550781 14.23999977111816
162.5099945068359 455.4100036621094 14.01000022888184
160.5500030517578 455.8999938964844 14.36999988555908
163.0899963378906 455.25 13.89000034332275
159.3200073242188 456.1799926757812 14.63000011444092
161.8500061035156 455.5499877929688 14.11999988555908
159.8999938964844 456.0299987792969 14.5
163.6799926757812 455.1199951171875 13.81999969482422
163.9100036621094 455.0799865722656 12.75
159.0599975585938 456.989990234375 14.6899995803833
162.8200073242188 456.0599975585938 13.97000026702881
159.6699981689453 456.8200073242188 14.55000019073486
162.1999969482422 456.2000122070312 14.0600004196167
160.9100036621094 456.5400085449219 14.32999992370605
164.0599975585938 455.7300109863281 13.63000011444092
163.4799957275391 455.8999938964844 13.85999965667725
161.6000061035156 456.3399963378906 14.21000003814697
160.3200073242188 456.6799926757812 14.4399995803833
164.1900024414062 455.7099914550781 12.44999980926514
160.1699981689453 457.3699951171875 14.48999977111816
162.1199951171875 456.8800048828125 14.09000015258789
160.8399963378906 457.2300109863281 14.3100004196167
162.7299957275391 456.7200012207031 14.01000022888184
159.5500030517578 457.5199890136719 14.57999992370605
161.5099945068359 457.0599975585938 14.22000026702881
163.9100036621094 456.4500122070312 13.71000003814697
163.3699951171875 456.5599975585938 13.92000007629395
159.9100036621094 458.0299987792969 14.53999996185303
161.8099975585938 457.5400085449219 14.18000030517578
160.5299987792969 457.8800048828125 14.39999961853027
164.5599975585938 456.8900146484375 12.75
159.3399963378906 458.1900024414062 14.65999984741211
161.1600036621094 457.7200012207031 14.27000045776367
162.4299926757812 457.3900146484375 14.0600004196167
163.0099945068359 457.260009765625 13.97000026702881
163.6999969482422 457.0599975585938 13.85000038146973
163.8399963378906 457.0799865722656 12.5
161.0599975585938 458.4299926757812 14.31999969482422
162.3500061035156 458.1099853515625 14.06999969482422
164.1399993896484 457.6600036621094 13.68000030517578
160.3899993896484 458.6000061035156 14.46000003814697
