88.51999664306641 363.7699890136719 11.10000038146973
87.33000183105469 363.510009765625 11.32999992370605
86.76999664306641 363.3599853515625 11.4399995803833
88.98999786376953 363.8900146484375 10.47999954223633
87.94999694824219 363.6400146484375 11.1899995803833
82.59999847412109 362.3200073242188 11.43000030517578
85.65000152587891 363.1000061035156 11.77000045776367
84.45999908447266 362.7699890136719 11.96000003814697
83.87000274658203 362.6300048828125 11.8100004196167
85.05999755859375 362.9100036621094 11.93000030517578
83.20999908447266 362.5 11.60000038146973
86.19999694824219 363.2300109863281 11.60999965667725
82.94999694824219 361.75 11.5600004196167
85.41000366210938 362.3500061035156 11.80000019073486
85.97000122070312 362.489990234375 11.67000007629395
87.09999847412109 362.7699890136719 11.38000011444092
87.62999725341797 362.9299926757812 11.30000019073486
88.72000122070312 363.1600036621094 10.98999977111816
84.26000213623047 362.0700073242188 11.90999984741211
86.47000122070312 362.6099853515625 11.57999992370605
84.86000061035156 362.239990234375 11.94999980926514
88.22000122070312 363.0499877929688 11.13000011444092
83.62000274658203 361.9400024414062 11.73999977111816
82.62999725341797 360.9100036621094 11.40999984741211
85.69000244140625 361.6799926757812 11.82999992370605
87.37000274658203 362.0700073242188 11.34000015258789
89.01000213623047 362.5 10.42000007629395
88.55999755859375 362.3699951171875 11.07999992370605
86.26999664306641 361.7999877929688 11.60000038146973
86.76999664306641 361.9500122070312 11.48999977111816
85.09999847412109 361.5199890136719 11.90999984741211
87.98000335693359 362.239990234375 11.25
86.41000366210938 361.2000122070312 11.57999992370605
87.56999969482422 361.4599914550781 11.31999969482422
86.98999786376953 361.3399963378906 11.44999980926514
88.12000274658203 361.6000061035156 11.18000030517578
88.70999908447266 361.7699890136719 11.02999973297119
88.80999755859375 361.2000122070312 10.77999973297119
86.48999786376953 360.6600036621094 11.35999965667725
87.76000213623047 360.9200134277344 11.3100004196167
88.34999847412109 361.0899963378906 11.11999988555908
87.13999938964844 360.7699890136719 11.4399995803833
86.09999847412109 359.8999938964844 11.28999996185303
88.95999908447266 360.6000061035156 10.6899995803833
88.47000122070312 360.5 11.09000015258789
87.91000366210938 360.3399963378906 11.25
88.13999938964844 359.6700134277344 11.27999973297119
88.73000335693359 359.8500061035156 11.10999965667725
88.97000122070312 358.9700012207031 10.39000034332275
88.69000244140625 359.6000061035156 11.0600004196167
88.12999725341797 359.4400024414062 11.27999973297119
89 359.6300048828125 10.27999973297119
87.48999786376953 359.2999877929688 11.38000011444092
88.95999908447266 360.4200134277344 10.94999980926514
87.69999694824219 360.1199951171875 11.35000038146973
86.23000335693359 359.7300109863281 11.19999980926514
87.01999664306641 359.9599914550781 11.44999980926514
83.94000244140625 359.1900024414062 11.15999984741211
85.48999786376953 359.5400085449219 11.28999996185303
88.33000183105469 360.2799987792969 11.14999961853027
87.88999938964844 360.8099975585938 11.28999996185303
87.29000091552734 360.7099914550781 11.42000007629395
88.51999664306641 360.9700012207031 11.06999969482422
86.54000091552734 360.5199890136719 11.32999992370605
85.09999847412109 360.1700134277344 11.32999992370605
88.88999938964844 361.0599975585938 10.47999954223633
84.43000030517578 359.9800109863281 11.31999969482422
83.65000152587891 359.760009765625 11.27000045776367
85.84999847412109 360.3299865722656 11.27999973297119
86.27999877929688 361.0499877929688 11.64000034332275
88.77999877929688 361.6900024414062 10.92000007629395
83.94000244140625 360.5 11.36999988555908
85.65000152587891 360.9299926757812 11.81999969482422
83.23000335693359 360.3200073242188 11.36999988555908
88.27999877929688 361.5599975585938 11.15999984741211
88.83999633789062 361.6900024414062 9.550000190734863
86.91999816894531 361.2099914550781 11.4399995803833
87.55999755859375 361.3699951171875 11.31999969482422
85.83000183105469 361.6400146484375 11.73999977111816
84.55999755859375 361.2999877929688 11.97999954223633
85.23999786376953 361.4700012207031 11.9399995803833
83.69999694824219 361.0799865722656 11.75
87.12999725341797 361.9299926757812 11.39000034332275
86.5 361.7699890136719 11.60999965667725
87.73000335693359 362.0599975585938 11.28999996185303
88.33999633789062 362.260009765625 11.14000034332275
88.80999755859375 362.3399963378906 10.72000026702881
88 362.8999938964844 11.22999954223633
87.31999969482422 362.7799987792969 11.35999965667725
85.41000366210938 362.2699890136719 11.85999965667725
83.16000366210938 361.7300109863281 11.59000015258789
84.73999786376953 362.1000061035156 12.01000022888184
88.65000152587891 363.0700073242188 11.03999996185303
86.08000183105469 362.4400024414062 11.68000030517578
83.90000152587891 361.9400024414062 11.81999969482422
86.66000366210938 362.6099853515625 11.48999977111816
88.94999694824219 363.1199951171875 10.28999996185303
88.73000335693359 363.7300109863281 9.439999580383301
85.63999938964844 362.9700012207031 11.78999996185303
82.69000244140625 362.2699890136719 11.51000022888184
86.30999755859375 363.1400146484375 11.5600004196167
84.30999755859375 362.6400146484375 11.89999961853027
83.52999877929688 362.4400024414062 11.72000026702881
88.15000152587891 363.5899963378906 11.14000034332275
88.76000213623047 363.7300109863281 10.97999954223633
86.91000366210938 363.2900085449219 11.42000007629395
87.52999877929688 363.4599914550781 11.27000045776367
85.04000091552734 362.8200073242188 11.93000030517578
88.40000152587891 364.2699890136719 11.07999992370605
85.83999633789062 363.6700134277344 11.69999980926514
85.18000030517578 363.510009765625 11.86999988555908
84.48999786376953 363.2999877929688 11.96000003814697
83.63999938964844 363.1099853515625 11.68000030517578
86.44999694824219 363.8299865722656 11.5600004196167
87.80000305175781 364.1199951171875 11.22999954223633
87.11000061035156 363.9599914550781 11.36999988555908
82.81999969482422 362.9100036621094 11.46000003814697
88.83999633789062 364.3999938964844 10.59000015258789
87.98000335693359 364.8800048828125 11.5
84.73000335693359 364.0499877929688 11.98999977111816
88.56999969482422 364.989990234375 11.22999954223633
86 364.3900146484375 11.68000030517578
83.13999938964844 363.6499938964844 11.59000015258789
87.27999877929688 364.6799926757812 11.44999980926514
85.36000061035156 364.2000122070312 11.86999988555908
83.91000366210938 363.8500061035156 11.8100004196167
86.63999938964844 364.5400085449219 11.48999977111816
88.84999847412109 365.0899963378906 10.39999961853027
88.05999755859375 365.6400146484375 9.470000267028809
88.79000091552734 365.8099975585938 9.489999771118164
87.47000122070312 365.489990234375 9.720000267028809
88.30999755859375 365.7300109863281 11.44999980926514
85.51999664306641 365.0400085449219 11.57999992370605
84.93000030517578 364.9200134277344 11.81999969482422
84.19000244140625 364.7200012207031 11.88000011444092
87.66999816894531 365.5700073242188 11.44999980926514
86.23999786376953 365.2300109863281 11.51000022888184
82.55999755859375 364.2999877929688 11.51000022888184
83.38999938964844 364.5400085449219 11.6899995803833
86.94000244140625 365.3800048828125 11.53999996185303
85.87999725341797 365.7999877929688 11.55000019073486
85.18000030517578 365.6300048828125 11.5
86.59999847412109 365.9800109863281 11.52000045776367
83.76000213623047 365.2799987792969 11.52000045776367
87.26999664306641 366.1499938964844 11.47999954223633
83.04000091552734 365.1099853515625 11.56999969482422
81.62999725341797 364.75 11.59000015258789
84.45999908447266 365.4500122070312 11.55000019073486
82.38999938964844 364.9599914550781 11.51000022888184
80.87000274658203 364.6000061035156 11.53999996185303
86.26000213623047 366.5 11.63000011444092
85.55999755859375 366.3299865722656 11.47000026702881
83.30999755859375 365.8099975585938 11.52000045776367
81.93000030517578 365.4599914550781 11.52000045776367
81.30999755859375 365.2900085449219 11.52000045776367
82.62999725341797 365.6099853515625 11.52000045776367
84.05999755859375 365.9500122070312 11.52999973297119
84.80999755859375 366.1700134277344 11.53999996185303
80.62000274658203 365.1099853515625 11.59000015258789
86.93000030517578 366.6700134277344 11.40999984741211
85.80999755859375 367.0400085449219 11.48999977111816
86.27999877929688 367.1499938964844 12.4399995803833
85.05000305175781 366.8500061035156 11.51000022888184
83.65000152587891 366.5 11.52000045776367
82.25 366.1499938964844 11.52999973297119
84.41000366210938 366.6799926757812 11.55000019073486
82.94999694824219 366.3599853515625 11.52999973297119
86.68000030517578 367.2699890136719 11.85999965667725
80.79000091552734 365.7900085449219 11.52999973297119
81.52999877929688 366 11.53999996185303
85.30000305175781 367.6799926757812 11.5
83.80999755859375 367.3099975585938 11.47999954223633
84.55000305175781 367.5299987792969 11.48999977111816
83.08999633789062 367.1300048828125 11.52999973297119
81.70999908447266 366.8200073242188 11.52000045776367
82.38999938964844 366.9700012207031 11.51000022888184
81.01000213623047 366.6600036621094 11.52000045776367
85.65000152587891 368.4599914550781 11.64000034332275
84.16000366210938 368.0899963378906 11.5
82.05000305175781 367.5700073242188 11.48999977111816
82.75 367.75 11.48999977111816
84.84999847412109 368.2999877929688 11.47999954223633
81.29000091552734 367.3900146484375 11.46000003814697
83.45999908447266 367.9500122070312 11.5
80.66999816894531 367.25 11.60000038146973
85.19000244140625 368.989990234375 11.43000030517578
84.48000335693359 368.8099975585938 11.46000003814697
83.68000030517578 368.6300048828125 11.48999977111816
81.63999938964844 368.1099853515625 11.52000045776367
82.26000213623047 368.2699890136719 11.48999977111816
83 368.4400024414062 11.44999980926514
80.91000366210938 367.9100036621094 11.51000022888184
82.58000183105469 368.9800109863281 11.47000026702881
81.16999816894531 368.6499938964844 11.44999980926514
81.88999938964844 368.8500061035156 11.52999973297119
88.58000183105469 358.739990234375 10.86999988555908
88.90000152587891 359.9700012207031 10.72000026702881
88.79000091552734 359.4500122070312 10.97999954223633
89.09999847412109 360.6600036621094 10.81999969482422
88.27999877929688 359.9500122070312 11.14000034332275
88.40000152587891 360.5899963378906 11.14000034332275
88.73999786376953 361.7699890136719 10.97000026702881
88.58999633789062 361.1400146484375 11.06999969482422
88.12000274658203 359.3800048828125 11.40999984741211
88.87999725341797 362.2900085449219 10.75
89.05999755859375 363.010009765625 10.93000030517578
87.31999969482422 358.760009765625 10.60000038146973
87.54000091552734 359.7099914550781 11.39999961853027
88.65000152587891 364.1700134277344 11.02000045776367
87.84999847412109 360.9299926757812 11.25
87.69999694824219 360.3299865722656 11.27999973297119
87.98999786376953 361.6300048828125 11.21000003814697
88.47000122070312 363.489990234375 11.06999969482422
88.16000366210938 362.239990234375 11.14999961853027
88.33000183105469 362.8399963378906 11.13000011444092
88.77999877929688 364.7300109863281 10.6899995803833
86.68000030517578 358.7999877929688 11.11999988555908
86.86000061035156 359.6099853515625 11.40999984741211
87.33999633789062 361.5 11.35999965667725
87.65000152587891 362.7000122070312 11.25
87.80999755859375 363.3599853515625 11.21000003814697
88.16000366210938 364.6900024414062 11.30000019073486
87.04000091552734 360.2999877929688 11.47999954223633
87.19999694824219 360.8599853515625 11.39000034332275
88.01000213623047 363.9800109863281 11.14999961853027
87.54000091552734 362.1099853515625 11.27000045776367
86.58999633789062 360.5 11.30000019073486
87.25 363.1099853515625 11.34000015258789
86.41000366210938 359.8299865722656 11.23999977111816
87.06999969482422 362.489990234375 11.38000011444092
86.73999786376953 361.1799926757812 11.47999954223633
87.58000183105469 364.4100036621094 11.26000022888184
86.22000122070312 359.1300048828125 11.10999965667725
87.37999725341797 363.7900085449219 11.34000015258789
86.93000030517578 361.8200073242188 11.47999954223633
87.75 365.1900024414062 11.52000045776367
86.09999847412109 361.0499877929688 11.64000034332275
86.69999694824219 363.5199890136719 11.44999980926514
87.19000244140625 365.4599914550781 11.5
85.52999877929688 358.8399963378906 10.97999954223633
87.34999847412109 366.0899963378906 11.48999977111816
87.05000305175781 364.8299865722656 11.47000026702881
85.70999908447266 359.6400146484375 11.27000045776367
85.91999816894531 360.3099975585938 11.26000022888184
86.86000061035156 364.1300048828125 11.43000030517578
86.38999938964844 362.260009765625 11.59000015258789
86.26000213623047 361.6799926757812 11.60999965667725
86.52999877929688 362.8999938964844 11.52000045776367
84.91999816894531 359.3900146484375 11.28999996185303
84.76999664306641 358.7000122070312 11.14999961853027
85.12000274658203 360.0199890136719 11.28999996185303
85.44999694824219 361.5199890136719 11.82999992370605
85.30000305175781 360.8500061035156 11.89999961853027
85.95999908447266 363.3699951171875 11.69999980926514
86.29000091552734 364.7000122070312 11.52999973297119
86.43000030517578 365.3900146484375 11.51000022888184
85.77999877929688 362.8299865722656 11.75
85.62000274658203 362.1300048828125 11.80000019073486
86.11000061035156 364.0700073242188 11.60000038146973
86.79000091552734 366.6600036621094 11.55000019073486
86.58999633789062 365.9400024414062 11.52000045776367
84.27999877929688 359.1900024414062 11.1899995803833
84.69000244140625 360.8500061035156 12.03999996185303
85.27999877929688 363.2799987792969 11.81999969482422
85.01000213623047 362.1000061035156 11.89999961853027
85.75 365.1799926757812 11.5600004196167
85.44999694824219 363.9500122070312 11.77000045776367
85.62999725341797 364.5799865722656 11.73999977111816
84.83999633789062 361.4700012207031 12.01000022888184
85.94000244140625 365.7699890136719 11.48999977111816
86.05000305175781 366.4100036621094 11.48999977111816
84.44000244140625 359.9200134277344 11.28999996185303
86.47000122070312 367.9200134277344 12.0600004196167
86.23999786376953 367.0799865722656 11.57999992370605
86.29000091552734 367.3299865722656 12.19999980926514
85.12999725341797 362.6700134277344 11.89000034332275
83.66000366210938 358.8900146484375 11.10000038146973
83.83999633789062 359.6099853515625 11.26000022888184
84.72000122070312 363.1499938964844 11.97999954223633
84.88999938964844 363.75 11.9399995803833
85.33000183105469 365.6300048828125 11.5
84.38999938964844 361.7699890136719 11.96000003814697
84.05000305175781 360.3500061035156 11.35999965667725
85.66999816894531 366.8399963378906 11.48999977111816
86.16000366210938 368.8500061035156 11.77999973297119
85.83999633789062 367.5 11.48999977111816
85.19999694824219 364.989990234375 11.63000011444092
84.25 361.1700134277344 11.92000007629395
85.48999786376953 366.25 11.5
86.02999877929688 368.2799987792969 12.02000045776367
85.02999877929688 364.3900146484375 11.88000011444092
84.55999755859375 362.4500122070312 12
83.33000183105469 360.1199951171875 11.3100004196167
83.18000030517578 359.3599853515625 11.11999988555908
83.54000091552734 360.9200134277344 11.69999980926514
84.80000305175781 365.9700012207031 11.5
84.94999694824219 366.5799865722656 11.48999977111816
83.86000061035156 362.2000122070312 11.82999992370605
83.69999694824219 361.6000061035156 11.77000045776367
84.37999725341797 364.1900024414062 11.92000007629395
84.05000305175781 362.8699951171875 11.85999965667725
85.45999908447266 368.5299987792969 11.52000045776367
83.01000213623047 358.7099914550781 11.21000003814697
84.65000152587891 365.3200073242188 11.51000022888184
85.30000305175781 367.8900146484375 11.5
84.54000091552734 364.8099975585938 11.85999965667725
85.12000274658203 367.25 11.47999954223633
84.18000030517578 363.489990234375 11.89000034332275
82.76000213623047 360.5 11.27999973297119
83.27999877929688 362.5700073242188 11.64000034332275
83.11000061035156 361.8800048828125 11.57999992370605
84.26999664306641 366.510009765625 11.52000045776367
83.59999847412109 363.9200134277344 11.75
84.06999969482422 365.8399963378906 11.51000022888184
83.43000030517578 363.25 11.68000030517578
83.94000244140625 365.1900024414062 11.51000022888184
83.79000091552734 364.6000061035156 11.82999992370605
84.86000061035156 369.010009765625 11.39999961853027
84.58000183105469 367.739990234375 11.52000045776367
84.37999725341797 367.1000061035156 11.47999954223633
84.73000335693359 368.3099975585938 11.48999977111816
82.94999694824219 361.260009765625 11.52000045776367
82.75 363 11.47999954223633
82.59999847412109 362.4100036621094 11.43000030517578
83.08999633789062 364.3800048828125 11.57999992370605
83.25 365.0199890136719 11.60999965667725
82.91000366210938 363.6499938964844 11.53999996185303
84.02999877929688 368.2000122070312 11.47000026702881
83.69999694824219 366.8699951171875 11.51000022888184
83.41000366210938 365.6300048828125 11.51000022888184
84.22000122070312 368.8399963378906 11.43000030517578
82.40000152587891 361.7699890136719 11.38000011444092
83.88999938964844 367.5400085449219 11.4399995803833
83.52999877929688 366.2799987792969 11.51000022888184
82.58999633789062 364.760009765625 11.51000022888184
82.76999664306641 365.4299926757812 11.53999996185303
82.94000244140625 366.0799865722656 11.51000022888184
83.25 367.3299865722656 11.48999977111816
83.08999633789062 366.6799926757812 11.47999954223633
82.41999816894531 364.0199890136719 11.46000003814697
83.43000030517578 367.9400024414062 11.52000045776367
83.55999755859375 368.5400085449219 11.47000026702881
82.88999938964844 368.3500061035156 11.47000026702881
82.73000335693359 367.6600036621094 11.47999954223633
82.58000183105469 366.989990234375 11.5600004196167
82.08000183105469 365.0799865722656 11.55000019073486
81.93000030517578 364.5499877929688 11.69999980926514
82.44000244140625 366.3999938964844 11.47999954223633
82.27999877929688 365.7799987792969 11.52999973297119
83.06999969482422 368.9299926757812 11.38000011444092
81.70999908447266 366.260009765625 11.48999977111816
81.52999877929688 365.5599975585938 11.55000019073486
82.36000061035156 368.75 11.4399995803833
82.19000244140625 368.0899963378906 11.48999977111816
82.01999664306641 367.489990234375 11.51000022888184
81.86000061035156 366.8800048828125 11.51000022888184
81.37000274658203 364.9299926757812 11.55000019073486
80.69999694824219 364.760009765625 11.59000015258789
81.18000030517578 366.6499938964844 11.48999977111816
80.84999847412109 365.3699951171875 11.52000045776367
81.01000213623047 366.0700073242188 11.51000022888184
81.48999786376953 367.9599914550781 11.46000003814697
81.37000274658203 367.2999877929688 11.47000026702881
81.66999816894531 368.6000061035156 11.47999954223633
81.05999755859375 368.3699951171875 11.47999954223633
80.59999847412109 366.4800109863281 11.55000019073486
80.94000244140625 367.7300109863281 11.5
81.23999786376953 368.9400024414062 11.39000034332275
80.75 367.1499938964844 11.52000045776367
80.51999664306641 367 11.5600004196167
80.79000091552734 368.1700134277344 11.46000003814697
80.62999725341797 367.5299987792969 11.51000022888184
80.95999908447266 368.739990234375 11.44999980926514
81.48999786376953 368.5199890136719 11.47000026702881
81.05999755859375 366.8099975585938 11.51000022888184
80.91999816894531 366.2799987792969 11.52000045776367
81.19999694824219 367.3800048828125 11.48999977111816
80.63999938964844 365.1000061035156 11.52000045776367
81.34999847412109 367.9700012207031 11.48999977111816
80.76999664306641 365.6700134277344 11.55000019073486
81.63999938964844 369.0899963378906 11.44999980926514
82.30000305175781 368.8900146484375 11.4399995803833
82.13999938964844 368.260009765625 11.47000026702881
81.27999877929688 364.8699951171875 11.51000022888184
81.68000030517578 366.5299987792969 11.52000045776367
81.56999969482422 365.989990234375 11.5
81.97000122070312 367.6799926757812 11.48999977111816
81.41999816894531 365.4299926757812 11.5600004196167
81.84999847412109 367.1000061035156 11.53999996185303
82.80000305175781 368.0499877929688 11.48999977111816
82.97000122070312 368.5799865722656 11.5
82.63999938964844 367.4200134277344 11.47999954223633
82.51999664306641 366.8599853515625 11.52999973297119
82.40000152587891 366.3399963378906 11.52999973297119
82.09999847412109 365.1300048828125 11.5
81.95999908447266 364.5799865722656 11.5600004196167
82.23000335693359 365.739990234375 11.51000022888184
82.38999938964844 363.7200012207031 11.46000003814697
83.54000091552734 368.2699890136719 11.44999980926514
83.40000152587891 367.6499938964844 11.48999977111816
83.23000335693359 367.0700073242188 11.48999977111816
82.80000305175781 365.4200134277344 11.52000045776367
83.70999908447266 368.8699951171875 11.51000022888184
83.11000061035156 366.510009765625 11.47999954223633
82.66999816894531 364.8699951171875 11.52000045776367
82.98999786376953 366 11.5
82.51999664306641 364.260009765625 11.44999980926514
84.05999755859375 368.1600036621094 11.5
83.77999877929688 366.9700012207031 11.52000045776367
83.23000335693359 364.7300109863281 11.60999965667725
83.66000366210938 366.4500122070312 11.52999973297119
83.33000183105469 365.2900085449219 11.52999973297119
83.48000335693359 365.8599853515625 11.5
82.90000152587891 363.510009765625 11.55000019073486
83.08000183105469 364.1499938964844 11.63000011444092
83.91000366210938 367.5799865722656 11.48999977111816
82.77999877929688 362.9400024414062 11.43000030517578
82.62000274658203 362.3599853515625 11.42000007629395
84.23000335693359 368.6900024414062 11.44999980926514
84.52999877929688 367.3599853515625 11.51000022888184
84.01000213623047 365.1600036621094 11.56999969482422
84.26000213623047 366.2200012207031 11.52999973297119
83.26000213623047 362.3500061035156 11.65999984741211
83.54000091552734 363.4500122070312 11.72000026702881
84.83999633789062 368.510009765625 11.47000026702881
82.95999908447266 361.1300048828125 11.55000019073486
84.43000030517578 366.8200073242188 11.47999954223633
83.41999816894531 362.8599853515625 11.67000007629395
84.70999908447266 367.9400024414062 11.47000026702881
83.72000122070312 364 11.80000019073486
83.83999633789062 364.5700073242188 11.82999992370605
82.68000030517578 359.9400024414062 11.32999992370605
84.11000061035156 365.7200012207031 11.51000022888184
82.83999633789062 360.5599975585938 11.36999988555908
83.09999847412109 361.7300109863281 11.64999961853027
83.05999755859375 358.6099853515625 11.19999980926514
83.37999725341797 359.7699890136719 11.15999984741211
83.23999786376953 359.2099914550781 11.05000019073486
85.38999938964844 367.75 11.47999954223633
85.68000030517578 368.9500122070312 11.63000011444092
85.09999847412109 366.6900024414062 11.48999977111816
84.56999969482422 364.3999938964844 11.96000003814697
85.25 367.2200012207031 11.5
84.41000366210938 363.8099975585938 11.9399995803833
83.94999694824219 362.0700073242188 11.84000015258789
84.08999633789062 362.6300048828125 11.88000011444092
84.80999755859375 365.4800109863281 11.52999973297119
85.56999969482422 368.3800048828125 11.5600004196167
83.83000183105469 361.5499877929688 11.77999973297119
84.26000213623047 363.1900024414062 11.89000034332275
83.66999816894531 360.9599914550781 11.77000045776367
83.52999877929688 360.3699951171875 11.3100004196167
84.95999908447266 366.1199951171875 11.5
84.66999816894531 364.9700012207031 11.53999996185303
86.02999877929688 367.4800109863281 11.47999954223633
85.72000122070312 366.3900146484375 11.47999954223633
85.33000183105469 364.7000122070312 11.78999996185303
85.58000183105469 365.7799987792969 11.52999973297119
85.44000244140625 365.2799987792969 11.55000019073486
84.43000030517578 361.2900085449219 12.02000045776367
84.58999633789062 361.8699951171875 11.98999977111816
85.88999938964844 366.9200134277344 11.46000003814697
84.73000335693359 362.4700012207031 11.96000003814697
85.16000366210938 364.1700134277344 11.85999965667725
84.87999725341797 363.010009765625 11.9399995803833
84.12000274658203 360.0799865722656 11.35000038146973
85.04000091552734 363.5400085449219 11.89999961853027
84.33000183105469 360.739990234375 11.92000007629395
86.47000122070312 366.8500061035156 12.01000022888184
86.30000305175781 366.2000122070312 11.53999996185303
86.02999877929688 365.0599975585938 11.52999973297119
86.59999847412109 367.3699951171875 11.80000019073486
85.70999908447266 363.8800048828125 11.73999977111816
85.15000152587891 361.6499938964844 11.93000030517578
85.29000091552734 362.2200012207031 11.84000015258789
86.13999938964844 365.6499938964844 11.5
85.58999633789062 363.3099975585938 11.75
85.01000213623047 361.1300048828125 11.89000034332275
84.87000274658203 360.4800109863281 11.32999992370605
84.69999694824219 359.9200134277344 11.26000022888184
85.44000244140625 362.75 11.78999996185303
85.86000061035156 364.5 11.68000030517578
86.93000030517578 366.0899963378906 11.5
86.81999969482422 365.5199890136719 11.52999973297119
85.95999908447266 362.1000061035156 11.68000030517578
86.63999938964844 364.9100036621094 11.52999973297119
86.08000183105469 362.6600036621094 11.64999961853027
86.48999786376953 364.3699951171875 11.48999977111816
86.38999938964844 363.7999877929688 11.52000045776367
87.06999969482422 366.5899963378906 11.47999954223633
86.23999786376953 363.239990234375 11.61999988555908
85.66999816894531 360.9500122070312 11.73999977111816
85.33999633789062 359.6900024414062 11.27999973297119
85.77999877929688 361.5 11.76000022888184
87.45999908447266 365.3800048828125 11.48999977111816
86.87000274658203 363.0299987792969 11.39999961853027
87.63999938964844 365.9299926757812 11.77000045776367
87 363.5700073242188 11.40999984741211
86.48999786376953 361.3800048828125 11.56999969482422
87.31999969482422 364.739990234375 11.48999977111816
86.59999847412109 361.9299926757812 11.52000045776367
86.73000335693359 362.4800109863281 11.47000026702881
87.16999816894531 364.1700134277344 11.36999988555908
86.30000305175781 360.8099975585938 11.59000015258789
87.94999694824219 364.6099853515625 11.43000030517578
87.80000305175781 363.9700012207031 11.22000026702881
87.37999725341797 362.2900085449219 11.32999992370605
87.23000335693359 361.7000122070312 11.39000034332275
87.65000152587891 363.4400024414062 11.25
87.11000061035156 361.1300048828125 11.4399995803833
88.12000274658203 365.1400146484375 11.5
88.25 365.7200012207031 11.52000045776367
87.51999664306641 362.8900146484375 11.27000045776367
88.80999755859375 365.5599975585938 11.17000007629395
88.38999938964844 363.8200073242188 11.07999992370605
87.80000305175781 361.6300048828125 11.27000045776367
88.52999877929688 364.3699951171875 11.02999973297119
87.65000152587891 361.0199890136719 11.27999973297119
88.22000122070312 363.2200012207031 11.13000011444092
88.61000061035156 364.8399963378906 9.409999847412109
87.98000335693359 362.1600036621094 11.19999980926514
88.08999633789062 362.7000122070312 11.15999984741211
88.69000244140625 364.989990234375 10.82999992370605
88.87999725341797 363.1199951171875 10.80000019073486
88.58999633789062 361.9500122070312 11.03999996185303
88.48000335693359 361.4299926757812 11.10999965667725
88.29000091552734 360.8399963378906 11.11999988555908
88.73000335693359 362.5400085449219 10.89000034332275
88.86000061035156 360.0400085449219 10.72999954223633
89.01999664306641 360.6400146484375 10.77000045776367
88.63999938964844 362.6099853515625 11.07999992370605
88.73000335693359 365.489990234375 10.03999996185303
88.37000274658203 364.0799865722656 11.06999969482422
88.66999816894531 365.3800048828125 10.71000003814697
88.52999877929688 364.7000122070312 11.14999961853027
88.83999633789062 365.9400024414062 10.94999980926514
88.16999816894531 366.0899963378906 11.57999992370605
87.73000335693359 364.4299926757812 11.26000022888184
87.91000366210938 364.9500122070312 11.5
87.62000274658203 363.8200073242188 11.1899995803833
88.01999664306641 365.5400085449219 11.5
87.33000183105469 365.3800048828125 11.52000045776367
86.41999816894531 361.7900085449219 11.60000038146973
86.16000366210938 360.6099853515625 11.40999984741211
86.93000030517578 363.6199951171875 11.32999992370605
87.5 365.9599914550781 11.57999992370605
87.22000122070312 364.760009765625 11.47000026702881
87.04000091552734 364.1499938964844 11.42000007629395
87.66000366210938 366.5 11.67000007629395
85.52999877929688 360.3900146484375 11.36999988555908
86.55999755859375 364.4599914550781 11.47000026702881
86.37000274658203 363.8099975585938 11.55000019073486
86.84999847412109 365.6099853515625 11.47999954223633
86.97000122070312 366.1600036621094 11.51000022888184
87.12000274658203 366.739990234375 11.52999973297119
86.70999908447266 365.0199890136719 11.5
84.59999847412109 359.4700012207031 11.26000022888184
84.76999664306641 360.0400085449219 11.31999969482422
84.30000305175781 358.3599853515625 11.25
85.5 362.8999938964844 11.77000045776367
84.91000366210938 360.6000061035156 11.4399995803833
85.65000152587891 363.5 11.72000026702881
84.38999938964844 358.5400085449219 10.17000007629395
85.94999694824219 364.7000122070312 11.63000011444092
86.48999786376953 366.9800109863281 11.97999954223633
85.76999664306641 364.0700073242188 11.72000026702881
86.66000366210938 367.5599975585938 11.89000034332275
86.41000366210938 366.510009765625 11.61999988555908
86.08000183105469 365.3599853515625 11.52999973297119
86.26000213623047 365.9100036621094 11.52999973297119
84.12999725341797 360.3900146484375 11.38000011444092
83.66999816894531 358.7300109863281 11.10999965667725
83.81999969482422 359.260009765625 11.23999977111816
83.94999694824219 359.8399963378906 11.27999973297119
84.69999694824219 362.6700134277344 11.97999954223633
84.98999786376953 363.8200073242188 11.9399995803833
84.26999664306641 360.9500122070312 11.90999984741211
85.30999755859375 365.0499877929688 11.56999969482422
85.43000030517578 365.6799926757812 11.52000045776367
85.87000274658203 367.3999938964844 11.48999977111816
86.13999938964844 368.4599914550781 12.15999984741211
85.62000274658203 366.239990234375 11.48999977111816
84.80999755859375 363.25 11.93000030517578
85.12000274658203 364.4100036621094 11.85999965667725
85.76000213623047 366.8200073242188 11.51000022888184
86 367.9299926757812 12.09000015258789
85.33999633789062 367.75 11.5
85.62999725341797 368.8800048828125 11.72000026702881
84.93000030517578 366.0299987792969 11.53999996185303
85.18000030517578 367.1799926757812 11.47999954223633
85.08000183105469 366.6499938964844 11.52000045776367
85.51000213623047 368.3299865722656 11.46000003814697
84.76000213623047 365.4299926757812 11.53999996185303
83.16000366210938 359.0599975585938 11
83.69999694824219 361.2300109863281 11.81999969482422
83.40000152587891 360.1600036621094 11.31999969482422
83.30000305175781 359.6000061035156 11.18000030517578
84.44999694824219 364.1499938964844 12
84.29000091552734 363.5599975585938 11.92000007629395
83.58999633789062 360.739990234375 11.40999984741211
84.55999755859375 364.75 11.90999984741211
84.12000274658203 363 11.89000034332275
82.94000244140625 360.4100036621094 11.3100004196167
83.79000091552734 363.8200073242188 11.80000019073486
83.94000244140625 364.4299926757812 11.81999969482422
83.69000244140625 363.25 11.73999977111816
84.58999633789062 366.7900085449219 11.47999954223633
84.90000152587891 368.0299987792969 11.47000026702881
84.44000244140625 366.2300109863281 11.53999996185303
84.73999786376953 367.3999938964844 11.47999954223633
82.80999755859375 359.8200073242188 11.22999954223633
84.26999664306641 365.6499938964844 11.51000022888184
85.02999877929688 368.5499877929688 11.51000022888184
84.09999847412109 365.0299987792969 11.61999988555908
83.08000183105469 363.5400085449219 11.59000015258789
83.72000122070312 365.9200134277344 11.5
83.58000183105469 365.3399963378906 11.52000045776367
83.22000122070312 364.0799865722656 11.64000034332275
84.16000366210938 367.6400146484375 11.51000022888184
84.45999908447266 368.8099975585938 11.48999977111816
84.01000213623047 367.0499877929688 11.52000045776367
83.87000274658203 366.4800109863281 11.48999977111816
84.30999755859375 368.2200012207031 11.47000026702881
83.37999725341797 364.6700134277344 11.6899995803833
83.16000366210938 366.739990234375 11.48999977111816
83.5 367.989990234375 11.46000003814697
83.63999938964844 368.5400085449219 11.5
82.88999938964844 365.6099853515625 11.51000022888184
83.31999969482422 367.3599853515625 11.52999973297119
82.70999908447266 365.0299987792969 11.55000019073486
83.04000091552734 366.1900024414062 11.5
82.44000244140625 366.5899963378906 11.48999977111816
82.27999877929688 366.0400085449219 11.51000022888184
81.98000335693359 364.8200073242188 11.52000045776367
83 368.9200134277344 11.47000026702881
82.72000122070312 367.739990234375 11.47000026702881
82.58999633789062 367.1799926757812 11.48999977111816
82.13999938964844 365.4200134277344 11.51000022888184
82.84999847412109 368.3299865722656 11.47999954223633
81.30000305175781 364.6000061035156 11.39999961853027
81.73999786376953 366.3500061035156 11.53999996185303
81.47000122070312 365.1300048828125 11.5600004196167
82.23000335693359 368.1099853515625 11.48999977111816
82.06999969482422 367.489990234375 11.51000022888184
81.58999633789062 365.75 11.52000045776367
82.33999633789062 368.7000122070312 11.48999977111816
81.87999725341797 366.8999938964844 11.52999973297119
81.06999969482422 366.1099853515625 11.48999977111816
80.91000366210938 365.4700012207031 11.56999969482422
81.79000091552734 368.9500122070312 11.55000019073486
81.51000213623047 367.8299865722656 11.52999973297119
81.34999847412109 367.239990234375 11.47000026702881
81.22000122070312 366.6799926757812 11.47999954223633
80.72000122070312 364.8999938964844 11.52000045776367
81.61000061035156 368.3900146484375 11.51000022888184
80.69999694824219 367.5700073242188 11.47999954223633
80.90000152587891 368.1900024414062 11.47000026702881
81.01000213623047 368.7099914550781 11.48999977111816
80.58999633789062 366.9599914550781 11.52000045776367
80.62000274658203 368.2699890136719 11.4399995803833
81.26000213623047 368.8299865722656 11.53999996185303
80.75 366.6900024414062 11.39999961853027
80.91999816894531 367.3900146484375 11.51000022888184
81.08999633789062 368.1300048828125 11.47000026702881
81.80999755859375 368.4700012207031 11.46000003814697
81.76000213623047 365.4500122070312 11.57999992370605
82.5 368.3099975585938 11.47999954223633
81.94999694824219 366.1400146484375 11.53999996185303
83.19000244140625 368.5899963378906 11.4399995803833
83.72000122070312 368.4299926757812 11.43000030517578
84.06999969482422 367.4100036621094 11.47999954223633
84.41000366210938 368.739990234375 11.48999977111816
85.06999969482422 368.5899963378906 11.51000022888184
84.70999908447266 367.1000061035156 11.51000022888184
83.01000213623047 360.2300109863281 11.28999996185303
82.83999633789062 359.5199890136719 11.30000019073486
84.86000061035156 367.8599853515625 11.5
83.95999908447266 364.0599975585938 11.85999965667725
83.33999633789062 361.489990234375 11.71000003814697
83.79000091552734 363.4299926757812 11.84000015258789
82.69000244140625 358.9800109863281 11.05000019073486
84.94999694824219 365.4200134277344 11.48999977111816
85.25 366.8399963378906 11.48999977111816
84.70999908447266 364.4700012207031 11.98999977111816
84.02999877929688 361.6900024414062 11.90999984741211
85.62999725341797 368.2099914550781 11.48999977111816
84.36000061035156 363.1499938964844 11.88000011444092
84.23000335693359 362.4800109863281 11.78999996185303
85.69999694824219 368.6099853515625 11.97000026702881
83.55000305175781 359.8299865722656 11.32999992370605
85.45999908447266 367.5199890136719 11.47000026702881
83.75 360.5299987792969 11.36999988555908
85.62999725341797 365.9200134277344 11.52000045776367
84.52999877929688 361.510009765625 12.02000045776367
85.44999694824219 365.1900024414062 11.46000003814697
84.06999969482422 359.7099914550781 11.31999969482422
83.80000305175781 358.5700073242188 10.88000011444092
84.69000244140625 362.1700134277344 12
83.93000030517578 359.0700073242188 11.25
86.08000183105469 367.7799987792969 12.01000022888184
85.94000244140625 367.3399963378906 11.52999973297119
85.77999877929688 366.6199951171875 11.47999954223633
84.52999877929688 358.75 11.1899995803833
84.69000244140625 359.4200134277344 11.18000030517578
86.66999816894531 367.5799865722656 11.84000015258789
85.15000152587891 361.2799987792969 11.97999954223633
84.98000335693359 360.6499938964844 11.65999984741211
86.5 366.8800048828125 11.89000034332275
84.86000061035156 360.0899963378906 11.31999969482422
86.47000122070312 363.8900146484375 11.56999969482422
88.95999908447266 365 10.71000003814697
88.94999694824219 362.6400146484375 10.93000030517578
88.61000061035156 363.9400024414062 10.96000003814697
88.75 363.2699890136719 10.89000034332275
88.20999908447266 365.5199890136719 11.47000026702881
87.81999969482422 364.3299865722656 11.21000003814697
88.18000030517578 362.9500122070312 11.14999961853027
87.33999633789062 366.3800048828125 11.52000045776367
88.68000030517578 360.9100036621094 10.92000007629395
88.87000274658203 360.2099914550781 10.86999988555908
88.30999755859375 362.3399963378906 11.10000038146973
89.08000183105469 359.4800109863281 10.60999965667725
88.5 361.6099853515625 11.06999969482422
88.01999664306641 363.6000061035156 11.14999961853027
87.48000335693359 365.739990234375 11.52999973297119
87.62000274658203 365.0700073242188 11.52999973297119
87.12000274658203 367.1199951171875 11.90999984741211
86.31999969482422 367.2900085449219 11.80000019073486
87.04000091552734 364.4599914550781 11.35999965667725
86.02999877929688 368.5400085449219 11.69999980926514
86.45999908447266 366.6400146484375 11.86999988555908
87.20999908447266 363.7799987792969 11.3100004196167
88.19000244140625 359.8399963378906 11.18000030517578
87.69999694824219 361.7900085449219 11.28999996185303
87.36000061035156 363.0899963378906 11.32999992370605
86.84999847412109 365.2099914550781 11.47000026702881
86.08999633789062 368.0799865722656 12.11999988555908
88 360.5 11.21000003814697
87.87000274658203 361.2000122070312 11.22999954223633
87.55000305175781 362.4700012207031 11.27000045776367
86.66999816894531 365.8299865722656 11.5
85.51000213623047 367.9700012207031 11.46000003814697
85.37999725341797 368.6799926757812 11.48999977111816
86.66000366210938 363.4400024414062 11.46000003814697
85.66999816894531 367.3299865722656 11.48999977111816
86.33000183105469 364.7999877929688 11.5
85.81999969482422 366.7300109863281 11.44999980926514
85.97000122070312 366.1099853515625 11.48999977111816
86.94999694824219 362.1600036621094 11.4399995803833
86.80999755859375 362.8299865722656 11.44999980926514
87.30000305175781 360.7900085449219 11.35000038146973
87.83999633789062 358.6600036621094 10.9399995803833
87.47000122070312 360.1900024414062 11.35000038146973
87.62000274658203 359.4599914550781 11.27999973297119
86.12000274658203 365.5 11.46000003814697
87.15000152587891 361.5199890136719 11.35999965667725
86.48999786376953 364.2000122070312 11.51000022888184
85.83999633789062 364.3999938964844 11.67000007629395
86.01999664306641 363.6900024414062 11.64999961853027
86.68000030517578 361.0599975585938 11.48999977111816
86.51000213623047 361.7300109863281 11.53999996185303
86.18000030517578 363.0299987792969 11.5600004196167
86.37999725341797 362.3800048828125 11.53999996185303
86.83999633789062 360.4299926757812 11.43000030517578
87.33999633789062 358.739990234375 10.35000038146973
84.91000366210938 368.2699890136719 11.44999980926514
85.22000122070312 367.0199890136719 11.46000003814697
85.40000152587891 366.3200073242188 11.47999954223633
84.73999786376953 368.9100036621094 11.40999984741211
85.55000305175781 365.6600036621094 11.53999996185303
85.08000183105469 367.6600036621094 11.51000022888184
85.72000122070312 365.0499877929688 11.52999973297119
84.20999908447266 368.4700012207031 11.46000003814697
85.01000213623047 365.2300109863281 11.51000022888184
84.83999633789062 365.9100036621094 11.52000045776367
84.41999816894531 367.75 11.4399995803833
85.95999908447266 361.3500061035156 11.71000003814697
85.30000305175781 364.0199890136719 11.82999992370605
84.09999847412109 369.1000061035156 11.43000030517578
85.66000366210938 362.7099914550781 11.72999954223633
85.44999694824219 363.3900146484375 11.78999996185303
86.55999755859375 359.1799926757812 11.07999992370605
85.77999877929688 362.0700073242188 11.71000003814697
86.38999938964844 359.8800048828125 11.15999984741211
84.52999877929688 367.1499938964844 11.47000026702881
86.19999694824219 360.5499877929688 11.27999973297119
84.72000122070312 366.4800109863281 11.46000003814697
85.12999725341797 364.7000122070312 11.84000015258789
86.73000335693359 358.6700134277344 9.819999694824219
83.41999816894531 368.7000122070312 11.46000003814697
83.94000244140625 366.7799987792969 11.52000045776367
84.23999786376953 365.4100036621094 11.51000022888184
84.83999633789062 362.9100036621094 11.92000007629395
84.54000091552734 364.2799987792969 12
84.66999816894531 363.5799865722656 11.94999980926514
85.19999694824219 361.6199951171875 11.89999961853027
85.31999969482422 360.9599914550781 11.85999965667725
85 362.2699890136719 11.89999961853027
83.73999786376953 367.3999938964844 11.47999954223633
83.62999725341797 368.0400085449219 11.47000026702881
85.94999694824219 358.6700134277344 11
85.56999969482422 360.1300048828125 11.28999996185303
85.76999664306641 359.4400024414062 11.22999954223633
84.08000183105469 366.0799865722656 11.48999977111816
84.36000061035156 364.8599853515625 11.77000045776367
82.69999694824219 368.9599914550781 11.38000011444092
83.52999877929688 365.739990234375 11.48999977111816
83.68000030517578 365.1400146484375 11.52000045776367
84.26999664306641 362.6300048828125 11.89000034332275
84.58000183105469 361.3399963378906 11.97999954223633
84.12999725341797 363.239990234375 11.85000038146973
84.86000061035156 360.4200134277344 11.32999992370605
83.93000030517578 363.9200134277344 11.8100004196167
84.98000335693359 359.7699890136719 11.27999973297119
84.75 360.7099914550781 12.10999965667725
83.01999664306641 367.6400146484375 11.48999977111816
83.18000030517578 366.9700012207031 11.47000026702881
84.40000152587891 361.9700012207031 11.97000026702881
83.37000274658203 366.3699951171875 11.47999954223633
85.19999694824219 358.9500122070312 11.01000022888184
83.80999755859375 364.5 11.78999996185303
82.88999938964844 368.25 11.47999954223633
82.51000213623047 367.3099975585938 11.48999977111816
82.36000061035156 367.9100036621094 11.47999954223633
82.66000366210938 366.7000122070312 11.48999977111816
82.23000335693359 368.6199951171875 11.48999977111816
83.13999938964844 364.739990234375 11.61999988555908
82.86000061035156 365.989990234375 11.5
83.33999633789062 364.0899963378906 11.6899995803833
83.48000335693359 363.3800048828125 11.71000003814697
83.62999725341797 362.75 11.73999977111816
84.54000091552734 359.3299865722656 11.15999984741211
84.34999847412109 360.0599975585938 11.30000019073486
83.97000122070312 361.5299987792969 11.86999988555908
83 365.3200073242188 11.53999996185303
84.65000152587891 358.7300109863281 11.27000045776367
83.80999755859375 362.1099853515625 11.76000022888184
81.54000091552734 368.7699890136719 11.4399995803833
81.87000274658203 367.4299926757812 11.47000026702881
82 366.8200073242188 11.47999954223633
82.66000366210938 364.239990234375 11.4399995803833
82.45999908447266 364.9500122070312 11.52000045776367
82.33999633789062 365.6000061035156 11.48999977111816
83.12999725341797 362.3099975585938 11.60000038146973
83.62999725341797 360.260009765625 11.39000034332275
81.70999908447266 368.1499938964844 11.44999980926514
83.25 361.75 11.63000011444092
82.80000305175781 363.6000061035156 11.48999977111816
83.44999694824219 361.0700073242188 11.68000030517578
82.98000335693359 362.9599914550781 11.52000045776367
84 358.8299865722656 11.09000015258789
82.16000366210938 366.1700134277344 11.48999977111816
83.80000305175781 359.5899963378906 11.23999977111816
81.40000152587891 366.510009765625 11.5
80.91999816894531 368.4200134277344 11.44999980926514
81.84999847412109 364.5299987792969 11.51000022888184
81.56999969482422 365.8399963378906 11.5
81.05999755859375 367.760009765625 11.44999980926514
81.23999786376953 367.1199951171875 11.46000003814697
82.37999725341797 362.4500122070312 11.38000011444092
81.72000122070312 365.1499938964844 11.52000045776367
82.70999908447266 361.1700134277344 11.43000030517578
80.76999664306641 369.010009765625 11.40999984741211
83.05999755859375 359.8800048828125 11.26000022888184
82.52999877929688 361.8099975585938 11.39000034332275
83.25 359.1099853515625 11.05000019073486
82.90000152587891 360.5 11.27000045776367
80.81999969482422 366.1300048828125 11.47999954223633
80.66000366210938 366.760009765625 11.5
80.54000091552734 367.3699951171875 11.44999980926514
81.12999725341797 364.8900146484375 11.52000045776367
81.01000213623047 365.510009765625 11.48999977111816
82.66999816894531 358.75 11.0600004196167
80.48999786376953 365.1499938964844 11.5600004196167
80.66000366210938 364.5299987792969 11.55000019073486
80.86000061035156 365.0199890136719 11.52999973297119
80.62999725341797 366.1700134277344 11.57999992370605
80.76000213623047 365.5899963378906 11.5
82.94999694824219 359.489990234375 11.25
82.81999969482422 360.1199951171875 11.32999992370605
82.65000152587891 360.75 11.38000011444092
81.72000122070312 364.6799926757812 11.5600004196167
81.44000244140625 365.8299865722656 11.55000019073486
80.90000152587891 368.1400146484375 11.47000026702881
81.58000183105469 365.2699890136719 11.52000045776367
81.31999969482422 366.3900146484375 11.53999996185303
81.13999938964844 366.9800109863281 11.47999954223633
80.72000122070312 368.6900024414062 11.47000026702881
81.01999664306641 367.5599975585938 11.48999977111816
83.80999755859375 358.6799926757812 11.25
83.70999908447266 359.1799926757812 11.22000026702881
83.40000152587891 360.3800048828125 11.30000019073486
83.29000091552734 360.989990234375 11.64000034332275
83.12999725341797 361.5400085449219 11.63000011444092
82.70999908447266 363.260009765625 11.4399995803833
82.43000030517578 364.4200134277344 11.4399995803833
82.01000213623047 366.1400146484375 11.52999973297119
82.13999938964844 365.6000061035156 11.53999996185303
82.86000061035156 362.6600036621094 11.47999954223633
81.34999847412109 368.9599914550781 11.44999980926514
82.56999969482422 363.8200073242188 11.4399995803833
82.98999786376953 362.1199951171875 11.55000019073486
82.30999755859375 365.010009765625 11.52000045776367
81.61000061035156 367.7999877929688 11.51000022888184
81.47000122070312 368.3800048828125 11.47999954223633
81.90000152587891 366.739990234375 11.5
81.73999786376953 367.25 11.5
84.26000213623047 359.5299987792969 11.31999969482422
83.66999816894531 361.8599853515625 11.76000022888184
83.30000305175781 363.5599975585938 11.61999988555908
82.87000274658203 365.25 11.52000045776367
82.69999694824219 365.8500061035156 11.5600004196167
83.83999633789062 361.3699951171875 11.78999996185303
82.31999969482422 367.5599975585938 11.47999954223633
83.01999664306641 364.7000122070312 11.53999996185303
82.59999847412109 366.3500061035156 11.5
83.15000152587891 364.1099853515625 11.59000015258789
82.18000030517578 368.1199951171875 11.47000026702881
82.41999816894531 366.989990234375 11.52000045776367
83.52999877929688 362.4299926757812 11.71000003814697
83.94000244140625 360.760009765625 11.85000038146973
82.01000213623047 368.6799926757812 11.46000003814697
84.11000061035156 360.1099853515625 11.42000007629395
83.40000152587891 362.9599914550781 11.67000007629395
84.80999755859375 359.8699951171875 11.28999996185303
