101.9700012207031 496.8999938964844 20.04000091552734
105.6399993896484 495.9599914550781 18.80999946594238
107.4400024414062 495.5700073242188 16.72999954223633
104.2600021362305 496.3299865722656 20.35000038146973
102.75 496.6700134277344 20.26000022888184
107.120002746582 495.6700134277344 14.60000038146973
103.6800003051758 497.1700134277344 20.6299991607666
105.620002746582 496.6900024414062 18.81999969482422
101.620002746582 497.7200012207031 19.05999946594238
104.6900024414062 496.9299926757812 19.90999984741211
106.5199966430664 496.5 17.79000091552734
106.0899963378906 496.5799865722656 18.29999923706055
105.1399993896484 496.8200073242188 19.32999992370605
107.4199981689453 496.2699890136719 16.79000091552734
102.4000015258789 497.489990234375 19.34000015258789
104.25 497 20.39999961853027
107.0899963378906 496.3699951171875 14.51000022888184
106.9599990844727 496.3599853515625 17.35000038146973
100.4400024414062 498.7900085449219 16.8799991607666
105.1100006103516 497.5400085449219 19.39999961853027
103.5299987792969 497.9700012207031 20.45000076293945
107.0500030517578 497.1400146484375 14.65999984741211
106.5199966430664 497.2000122070312 17.78000068664551
106.0699996948242 497.3099975585938 18.30999946594238
105.5999984741211 497.4299926757812 18.84000015258789
106.9599990844727 497.1099853515625 17.26000022888184
101.9499969482422 498.3599853515625 18.65999984741211
104.1900024414062 497.7799987792969 20.45000076293945
107.4400024414062 497.0299987792969 16.80999946594238
104.6800003051758 497.6400146484375 19.90999984741211
103.5599975585938 498.5599975585938 20.5
104.6800003051758 498.3099975585938 19.96999931335449
104.1999969482422 498.3999938964844 20.47999954223633
106.8899993896484 497.75 17.3700008392334
106.4300003051758 497.8999938964844 17.8700008392334
105.5699996948242 498.1000061035156 18.8799991607666
107.1100006103516 497.75 14.89999961853027
105.9899978637695 497.9700012207031 18.44000053405762
105.0800018310547 498.1799926757812 19.5
100.3899993896484 499.3999938964844 16.8799991607666
107.3099975585938 497.6799926757812 16.86000061035156
107.6999969482422 498.0899963378906 16.5
105.8600006103516 498.5599975585938 18.46999931335449
107.1100006103516 498.25 15.26000022888184
106.3000030517578 498.4299926757812 17.96999931335449
106.8300018310547 498.3099975585938 17.45000076293945
107.2200012207031 498.2000122070312 16.97999954223633
102.8000030517578 499.3099975585938 19.6299991607666
104.9899978637695 498.7799987792969 19.6299991607666
104.0199966430664 498.9599914550781 20.68000030517578
104.4700012207031 498.8800048828125 20.19000053405762
105.379997253418 498.6400146484375 19.1299991607666
104.379997253418 499.5700073242188 20.26000022888184
105.8000030517578 499.25 18.70000076293945
104.879997253418 499.4400024414062 19.77000045776367
105.2600021362305 499.3599853515625 19.25
106.6600036621094 499 17.67000007629395
106.1800003051758 499.1099853515625 18.21999931335449
107.0199966430664 498.9800109863281 14.10999965667725
103.9599990844727 499.6600036621094 20.73999977111816
107.0999984741211 498.8999938964844 17.18000030517578
107.5699996948242 498.8200073242188 16.64999961853027
107.5299987792969 499.5400085449219 16.70999908447266
106.6100006103516 499.7999877929688 17.71999931335449
107.1100006103516 499.6700134277344 17.1200008392334
106.9700012207031 499.7300109863281 14.10999965667725
106.1399993896484 499.8800048828125 18.19000053405762
100.3000030517578 499.5400085449219 16.8799991607666
100.7399978637695 499.6400146484375 17.45999908447266
101.7099990844727 499.8699951171875 18.45999908447266
101.2099990844727 499.7799987792969 17.96999931335449
100.3199996948242 498.9400024414062 16.8700008392334
100.7900009155273 499.0499877929688 17.47999954223633
101.75 499.2699890136719 18.59000015258789
103.0400009155273 499.5700073242188 20.13999938964844
101.2600021362305 499.1600036621094 18
102.1399993896484 499.3900146484375 19.10000038146973
103.4800033569336 499.6700134277344 20.6299991607666
104.379997253418 499.9299926757812 20.05999946594238
102.5999984741211 499.5 19.60000038146973
100.4800033569336 498.2300109863281 17.02000045776367
100.8600006103516 498.3299865722656 17.52000045776367
102.6900024414062 498.739990234375 19.64999961853027
103.1999969482422 498.8500061035156 20.22999954223633
103.620002746582 498.9400024414062 20.77000045776367
101.379997253418 498.4400024414062 18.13999938964844
99.94000244140625 498.1199951171875 16.54000091552734
105.8499984741211 499.5400085449219 18.34000015258789
104.6600036621094 499.2300109863281 19.75
102.2099990844727 498.6400146484375 19.14999961853027
107.0800018310547 499.8900146484375 17.03000068664551
101.7799987792969 498.510009765625 18.63999938964844
100.9100036621094 497.6700134277344 17.6299991607666
102.3000030517578 497.9599914550781 19.20000076293945
101.3499984741211 497.7300109863281 18.3799991607666
101.75 497.8599853515625 18.90999984741211
102.7099990844727 498.0599975585938 19.72999954223633
103.6600036621094 498.3099975585938 20.76000022888184
105.8300018310547 498.8399963378906 18.3799991607666
103.1399993896484 498.1499938964844 20.26000022888184
99.94000244140625 497.4299926757812 16.57999992370605
100.4899978637695 497.5499877929688 17.07999992370605
104.6399993896484 498.5799865722656 19.71999931335449
106.9599990844727 499.1499938964844 17.06999969482422
100.5299987792969 496.8999938964844 17.09000015258789
100.9800033569336 497.0299987792969 17.63999938964844
106.0699996948242 498.2999877929688 18.1299991607666
101.4700012207031 497.1000061035156 19.72999954223633
104.9400024414062 498 19.46999931335449
102.8099975585938 497.4299926757812 19.80999946594238
103.7900009155273 497.6799926757812 20.70999908447266
101.4199981689453 497.1499938964844 18.19000053405762
107.1500015258789 498.5799865722656 16.94000053405762
100.0899963378906 496.8099975585938 16.6200008392334
103.2200012207031 497.5599975585938 20.32999992370605
102.2200012207031 497.2999877929688 19.53000068664551
101.3099975585938 496.4100036621094 20.59000015258789
101.5 496.4500122070312 18.42000007629395
100.129997253418 496.1700134277344 16.77000045776367
102.0299987792969 496.5899963378906 20.36000061035156
107.2099990844727 497.8999938964844 16.84000015258789
103.3300018310547 496.9100036621094 20.43000030517578
103.8899993896484 497.010009765625 20.64999961853027
101.129997253418 496.3900146484375 17.79000091552734
102.7399978637695 496.739990234375 20.15999984741211
106.1600036621094 497.6499938964844 17.95000076293945
100.629997253418 496.260009765625 17.26000022888184
105.0699996948242 497.3800048828125 19.20000076293945
101.8399963378906 496.5299987792969 19.25
100.3000030517578 495.4299926757812 16.86000061035156
101.2099990844727 495.6099853515625 17.88999938964844
101.6100006103516 495.6799926757812 20.28000068664551
102.7600021362305 495.9599914550781 20.69000053405762
106.629997253418 497.010009765625 17.43000030517578
101.6100006103516 495.7000122070312 18.54000091552734
104.3099975585938 496.3900146484375 20.1200008392334
105.4899978637695 496.6700134277344 18.76000022888184
100.7600021362305 495.5400085449219 17.43000030517578
103.4300003051758 496.1499938964844 20.78000068664551
102.2200012207031 495.8299865722656 20.45999908447266
100.5699996948242 494.8099975585938 14.5600004196167
102.5 495.2300109863281 19.79999923706055
103.0800018310547 495.3699951171875 20.14999961853027
101.4199981689453 494.9800109863281 19.3799991607666
103.4800033569336 495.4700012207031 20.63999938964844
100.379997253418 494.7300109863281 16.95999908447266
100.8199996948242 494.8699951171875 17.48999977111816
106.6900024414062 496.3200073242188 17.36000061035156
101.9599990844727 495.1000061035156 19.6200008392334
104.4599990844727 495.7200012207031 19.89999961853027
105.4899978637695 496.0199890136719 18.70000076293945
101.3199996948242 494.9800109863281 18.03000068664551
100.4400024414062 494.1199951171875 17.05999946594238
102.2699966430664 494.5400085449219 19.20000076293945
102.7399978637695 494.6700134277344 19.71999931335449
100.9000015258789 494.2300109863281 17.55999946594238
101.7200012207031 494.4400024414062 18.8700008392334
100.7099990844727 494.2099914550781 14.57999992370605
104.8300018310547 495.1799926757812 19.47999954223633
103.6800003051758 494.8800048828125 20.76000022888184
99.97000122070312 494 16.60000038146973
101.2900009155273 494.3500061035156 18.14999961853027
105.9199981689453 495.4599914550781 18.31999969482422
107.0100021362305 495.7699890136719 17.03000068664551
103.1800003051758 494.760009765625 20.27000045776367
100.4000015258789 493.4599914550781 14.03999996185303
102.8199996948242 494 19.81999969482422
101.0599975585938 493.5799865722656 17.73999977111816
104.879997253418 494.510009765625 19.46999931335449
102.3099975585938 493.8699951171875 19.30999946594238
100.0999984741211 493.3699951171875 16.71999931335449
100.6100006103516 493.5 15.36999988555908
103.2399978637695 494.1199951171875 20.36000061035156
100.5400009155273 493.5 17.28000068664551
107.1100006103516 495.1000061035156 16.94000053405762
101.4899978637695 493.7099914550781 18.20000076293945
106.0299987792969 494.8200073242188 18.1299991607666
101.9000015258789 493.8099975585938 18.73999977111816
103.8199996948242 494.239990234375 20.63999938964844
99.73000335693359 492.5 16.30999946594238
100.2399978637695 492.6499938964844 16.79999923706055
101.5899963378906 492.9599914550781 18.3799991607666
102.0100021362305 493.0700073242188 18.94000053405762
101.0699996948242 492.8200073242188 17.8700008392334
106.4100036621094 494.1600036621094 17.65999984741211
107.3399963378906 494.3999938964844 16.8799991607666
104.2300033569336 493.6000061035156 20.20999908447266
105.2799987792969 493.8900146484375 18.96999931335449
100.6600036621094 492.739990234375 17.34000015258789
103.4499969482422 493.3800048828125 20.5
102.9400024414062 493.2699890136719 19.96999931335449
102.4800033569336 493.1799926757812 19.47999954223633
105.2200012207031 493.2300109863281 18.98999977111816
106.4400024414062 493.5700073242188 17.63999938964844
103.0599975585938 492.7699890136719 14.47000026702881
104.2600021362305 493.0799865722656 14.61999988555908
103.7300033569336 492.9400024414062 14.39999961853027
104.1699981689453 493.0299987792969 16.64999961853027
103.5899963378906 492.8399963378906 16.54000091552734
102.4599990844727 492.5299987792969 19.53000068664551
102.9400024414062 492.6400146484375 19.97999954223633
104.129997253418 492.9400024414062 20.23999977111816
103.370002746582 492.75 20.59000015258789
105.0800018310547 492.7300109863281 16.51000022888184
105.5100021362305 492.7999877929688 18.70000076293945
105.6900024414062 492.8900146484375 14.97999954223633
106.620002746582 493.0799865722656 17.43000030517578
106.9300003051758 492.5499877929688 16.98999977111816
107.3600006103516 493.010009765625 16.80999946594238
106.7300033569336 492.8599853515625 17.53000068664551
105.4400024414062 492.5599975585938 19.09000015258789
106.0400009155273 492.7000122070312 18.34000015258789
105.0999984741211 493.1099853515625 19.32999992370605
104.4700012207031 492.989990234375 20.1200008392334
105.7200012207031 493.239990234375 18.63999938964844
103.7900009155273 492.7999877929688 20.80999946594238
106.2900009155273 493.3900146484375 17.92000007629395
103.3099975585938 492.6900024414062 20.35000038146973
107.5299987792969 493.7200012207031 16.79999923706055
106.9700012207031 493.5400085449219 17.20000076293945
101.870002746582 492.8699951171875 18.60000038146973
101.3499984741211 492.739990234375 17.96999931335449
100.8499984741211 492.6099853515625 17.40999984741211
107.0400009155273 494.1799926757812 17.06999969482422
105.1699981689453 493.7099914550781 19.26000022888184
106.4199981689453 494 17.84000015258789
104.5500030517578 493.6000061035156 20.04000091552734
103.3899993896484 493.2799987792969 20.42000007629395
103.9599990844727 493.4299926757812 20.70999908447266
102.8899993896484 493.1400146484375 19.80999946594238
102.4000015258789 493.0499877929688 19.20000076293945
105.7200012207031 493.8699951171875 18.6200008392334
106.4899978637695 494.7000122070312 17.82999992370605
103.9599990844727 494.0799865722656 20.68000030517578
101.8300018310547 493.5199890136719 18.51000022888184
104.6100006103516 494.25 19.90999984741211
102.3199996948242 493.6799926757812 19.19000053405762
102.9199981689453 493.8299865722656 19.81999969482422
103.3600006103516 493.9599914550781 20.3700008392334
105.8000030517578 494.5 18.51000022888184
100.25 493.1300048828125 16.79000091552734
107.0599975585938 494.8099975585938 17.09000015258789
105.2300033569336 494.3699951171875 19.23999977111816
101.2799987792969 493.3699951171875 17.90999984741211
100.8099975585938 493.260009765625 17.29000091552734
106.4800033569336 495.3900146484375 17.76000022888184
102.9599990844727 494.5599975585938 19.88999938964844
107.1399993896484 495.5400085449219 17.04000091552734
103.9599990844727 494.7900085449219 20.71999931335449
105.1999969482422 495.1000061035156 19.23999977111816
101.9000015258789 494.260009765625 18.67000007629395
101.3899993896484 494.1000061035156 17.94000053405762
104.5699996948242 494.9400024414062 19.95000076293945
100.370002746582 493.8500061035156 16.82999992370605
105.8099975585938 495.25 18.48999977111816
100.9000015258789 494 17.39999961853027
102.4300003051758 494.4200134277344 19.23999977111816
103.4300003051758 494.6499938964844 20.44000053405762
107.3300018310547 496.1900024414062 16.79999923706055
104.7900009155273 495.6000061035156 19.70999908447266
103.0299987792969 495.2000122070312 20
105.3899993896484 495.760009765625 18.98999977111816
106.6900024414062 496.0400085449219 17.51000022888184
104.1900024414062 495.4599914550781 20.40999984741211
101.3600006103516 494.760009765625 19.1299991607666
102.5199966430664 495.0599975585938 19.54000091552734
101.4899978637695 494.75 18.01000022888184
106.0400009155273 495.8900146484375 18.20999908447266
101.9899978637695 494.8800048828125 19.34000015258789
100.4199981689453 494.489990234375 16.93000030517578
103.5899963378906 495.3299865722656 20.6299991607666
100.9300003051758 494.6000061035156 17.53000068664551
107.4199981689453 496.7699890136719 16.82999992370605
106.1999969482422 496.4700012207031 18.1299991607666
101.5199966430664 495.3399963378906 19.85000038146973
103.1500015258789 495.739990234375 20.48999977111816
104.2699966430664 496.0499877929688 20.34000015258789
100.629997253418 495.0599975585938 17.1299991607666
101.6600036621094 495.3500061035156 18.18000030517578
100.120002746582 494.9700012207031 16.71999931335449
106.8199996948242 496.6300048828125 17.34000015258789
101.0899963378906 495.2200012207031 17.68000030517578
102.0400009155273 495.4599914550781 20.04999923706055
105.5 496.3099975585938 18.90999984741211
103.6999969482422 495.9100036621094 20.79000091552734
104.8499984741211 496.2000122070312 19.63999938964844
102.6399993896484 495.6199951171875 20.20999908447266
106.8499984741211 497.260009765625 17.29999923706055
107.4599990844727 497.3999938964844 16.75
105.5899963378906 496.9599914550781 18.73999977111816
106.2099990844727 497.1000061035156 18.05999946594238
103.75 496.5199890136719 20.75
101.0800018310547 495.8399963378906 17.64999961853027
100.5500030517578 495.7000122070312 17.09000015258789
104.9499969482422 496.8099975585938 19.52000045776367
101.6399993896484 496 18.23999977111816
102.0100021362305 496.0899963378906 20.71999931335449
100.0199966430664 495.5599975585938 16.69000053405762
102.5899963378906 496.2200012207031 20.80999946594238
101.4599990844727 495.9400024414062 20.54999923706055
103.1900024414062 496.3999938964844 20.60000038146973
104.3499984741211 496.6600036621094 20.19000053405762
107.4700012207031 498.1600036621094 16.77000045776367
105.5999984741211 497.6799926757812 18.81999969482422
104.9400024414062 497.5299987792969 19.61000061035156
104.2699966430664 497.4100036621094 20.3700008392334
106.8600006103516 497.989990234375 17.35000038146973
103.2200012207031 497.1300048828125 20.14999961853027
101.6800003051758 496.7000122070312 18.26000022888184
101.5100021362305 496.6900024414062 20.27000045776367
106.25 497.8699951171875 18.04999923706055
100.120002746582 496.3299865722656 16.70000076293945
102.120002746582 496.8399963378906 20.1200008392334
103.6900024414062 497.2300109863281 20.79000091552734
100.620002746582 496.4299926757812 17.15999984741211
102.6399993896484 497 20.02000045776367
101.1699981689453 496.5599975585938 17.76000022888184
106.9599990844727 498.6700134277344 17.21999931335449
103.8099975585938 497.9299926757812 20.77000045776367
105.0699996948242 498.2300109863281 19.3799991607666
102.2600021362305 497.5199890136719 19.38999938964844
104.4599990844727 498.0599975585938 20.09000015258789
102.7699966430664 497.6600036621094 19.65999984741211
100.1600036621094 496.9400024414062 16.65999984741211
107.5299987792969 498.7900085449219 16.79999923706055
106.3399963378906 498.510009765625 17.8700008392334
101.6800003051758 497.3699951171875 19.56999969482422
103.3199996948242 497.7999877929688 20.30999946594238
100.6999969482422 497.1000061035156 17.21999931335449
105.6900024414062 498.3399963378906 18.70999908447266
101.2099990844727 497.25 17.81999969482422
107.0999984741211 499.25 17.07999992370605
105.8099975585938 498.9500122070312 18.51000022888184
103.870002746582 498.5 20.80999946594238
102.8899993896484 498.25 19.77000045776367
104.5199966430664 498.6499938964844 20.04999923706055
101.879997253418 497.989990234375 18.84000015258789
100.8499984741211 497.6900024414062 17.34000015258789
103.3399963378906 498.3599853515625 20.32999992370605
102.379997253418 498.1300048828125 19.18000030517578
106.4300003051758 499.1199951171875 17.78000068664551
100.2699966430664 497.5400085449219 16.82999992370605
105.1699981689453 498.8200073242188 19.22999954223633
101.3099975585938 497.8099975585938 17.97999954223633
101.3899993896484 498.4500122070312 18.11000061035156
100.9100036621094 498.3299865722656 17.3700008392334
100.3199996948242 498.1600036621094 16.80999946594238
106.5199966430664 499.760009765625 17.71999931335449
105.9400024414062 499.5799865722656 18.3700008392334
104.6800003051758 499.2799987792969 19.88999938964844
104.0299987792969 499.1400146484375 20.63999938964844
107.1399993896484 499.8699951171875 16.97999954223633
105.2699966430664 499.4599914550781 19.19000053405762
103.4800033569336 498.989990234375 20.54000091552734
101.9100036621094 498.5899963378906 18.6299991607666
102.4300003051758 498.739990234375 19.26000022888184
102.9899978637695 498.8699951171875 19.8700008392334
102.9800033569336 499.5700073242188 19.8700008392334
104 499.8599853515625 20.68000030517578
101.4599990844727 499.1400146484375 18.13999938964844
103.4499969482422 499.6900024414062 20.45999908447266
100.4300003051758 498.8699951171875 16.8799991607666
101.9899978637695 499.3200073242188 18.73999977111816
102.4899978637695 499.4400024414062 19.29999923706055
100.9100036621094 499.0400085449219 17.51000022888184
101.5299987792969 499.7900085449219 18.20000076293945
102.0999984741211 499.9700012207031 18.80999946594238
101.0599975585938 499.6900024414062 17.59000015258789
100.5100021362305 499.5599975585938 17
101.5699996948242 499.9500122070312 18.26000022888184
100.8099975585938 499.7900085449219 17.40999984741211
100.1600036621094 499.6099853515625 16.76000022888184
101.3899993896484 499.2300109863281 18.11000061035156
102.1900024414062 499.3900146484375 18.89999961853027
100.6699981689453 499.0499877929688 17.21999931335449
104.1900024414062 499.8399963378906 20.44000053405762
103.6500015258789 499.7300109863281 20.69000053405762
102.879997253418 499.5700073242188 19.85000038146973
100.3000030517578 498.3599853515625 16.86000061035156
100.9899978637695 498.5199890136719 17.61000061035156
103.9499969482422 499.1900024414062 20.70999908447266
101.7600021362305 498.7000122070312 18.51000022888184
104.4800033569336 499.3099975585938 20.11000061035156
106.3899993896484 499.8099975585938 17.85000038146973
106.8499984741211 499.9299926757812 17.3799991607666
104.9599990844727 499.4599914550781 19.53000068664551
103.370002746582 499.0499877929688 20.27000045776367
105.4899978637695 499.5599975585938 18.97999954223633
102.5400009155273 498.8299865722656 19.3700008392334
105.8899993896484 499.7099914550781 18.38999938964844
104.2900009155273 498.7000122070312 20.27000045776367
102.3399963378906 498.25 19.18000030517578
103.8199996948242 498.5700073242188 20.68000030517578
105.2600021362305 498.9599914550781 19.20000076293945
100.1600036621094 497.7099914550781 16.77000045776367
105.7399978637695 499.0400085449219 18.63999938964844
100.9199981689453 497.8999938964844 17.43000030517578
106.1900024414062 499.1700134277344 18.10000038146973
101.6900024414062 498.0499877929688 18.68000030517578
104.7600021362305 498.8200073242188 19.77000045776367
107.1699981689453 499.4599914550781 16.95000076293945
103.0899963378906 498.3800048828125 20.03000068664551
106.6999969482422 499.3200073242188 17.46999931335449
101.6999969482422 497.4500122070312 19.38999938964844
105.2699966430664 498.3200073242188 19.20000076293945
103 497.7200012207031 19.88999938964844
104.7200012207031 498.1900024414062 19.84000015258789
106.2099990844727 498.5299987792969 18.11000061035156
103.7399978637695 497.9299926757812 20.78000068664551
107.1500015258789 498.7799987792969 17.09000015258789
106.629997253418 498.6900024414062 17.57999992370605
102.2200012207031 497.5599975585938 19.21999931335449
100.6900024414062 497.2000122070312 17.20999908447266
104.2399978637695 498.0599975585938 20.36000061035156
107.5999984741211 498.8999938964844 16.70999908447266
105.75 498.4400024414062 18.61000061035156
100.620002746582 496.5 17.04000091552734
101.8300018310547 496.7200012207031 20.22999954223633
105.1100006103516 497.5700073242188 19.3700008392334
104.0999984741211 497.3200073242188 20.46999931335449
103.5899963378906 497.1900024414062 20.64999961853027
106.5500030517578 497.9200134277344 17.72999954223633
104.6500015258789 497.4200134277344 19.94000053405762
102.9199981689453 496.989990234375 19.96999931335449
107.5699996948242 498.2000122070312 16.73999977111816
106.9899978637695 498.0700073242188 17.14999961853027
106.0699996948242 497.8200073242188 18.31999969482422
102.4000015258789 496.8900146484375 20.01000022888184
105.5899963378906 497.6799926757812 18.78000068664551
103.2900009155273 496.5 20.43000030517578
104.9100036621094 496.8999938964844 19.54000091552734
105.4100036621094 497.0400085449219 18.98999977111816
105.8899993896484 497.1799926757812 18.39999961853027
104.4300003051758 496.7699890136719 20.15999984741211
100.2200012207031 495.7900085449219 16.76000022888184
106.370002746582 497.2799987792969 17.90999984741211
107.2799987792969 497.5499877929688 16.82999992370605
101.6100006103516 496.0799865722656 20.73999977111816
102.1999969482422 496.2200012207031 20.72999954223633
106.8399963378906 497.4100036621094 17.38999938964844
103.9800033569336 496.6799926757812 20.68000030517578
102.7200012207031 496.3900146484375 20.6299991607666
103.6900024414062 496.0899963378906 20.79000091552734
103.1100006103516 495.9500122070312 20.6200008392334
101.9199981689453 495.6199951171875 20.21999931335449
106.5800018310547 496.7999877929688 17.69000053405762
104.6800003051758 496.3099975585938 19.85000038146973
102.5299987792969 495.7999877929688 20.42000007629395
105.1600036621094 496.4599914550781 19.32999992370605
105.629997253418 496.6000061035156 18.70999908447266
104.1999969482422 496.1799926757812 20.42000007629395
100.6900024414062 495.3800048828125 17.19000053405762
107.0999984741211 496.9299926757812 17.10000038146973
106.120002746582 496.6900024414062 18.18000030517578
102.7200012207031 495.2699890136719 19.79999923706055
104.1100006103516 495.5599975585938 20.54000091552734
104.5500030517578 495.6799926757812 19.96999931335449
105.5500030517578 495.9599914550781 18.80999946594238
100.4100036621094 494.7000122070312 16.95999908447266
106.0699996948242 496.0899963378906 18.23999977111816
103.4400024414062 495.4400024414062 20.47999954223633
102.0999984741211 495.1099853515625 19.59000015258789
107 496.3299865722656 17.18000030517578
101.5500030517578 494.9800109863281 19.42000007629395
105.0699996948242 495.8099975585938 19.38999938964844
106.9199981689453 496.3299865722656 14.03999996185303
107.4499969482422 496.4500122070312 16.70000076293945
106.4899978637695 496.1799926757812 17.73999977111816
100.3499984741211 493.9500122070312 16.8700008392334
104.0299987792969 494.8200073242188 20.57999992370605
105.4100036621094 495.1900024414062 18.97999954223633
102.6699981689453 494.4800109863281 19.53000068664551
106.8399963378906 495.5799865722656 14.0600004196167
104.9899978637695 495.0400085449219 19.54999923706055
106.3600006103516 495.4400024414062 17.88999938964844
107.379997253418 495.7000122070312 16.85000038146973
103.4000015258789 494.6499938964844 20.43000030517578
101.9599990844727 494.3099975585938 18.80999946594238
104.4300003051758 494.9299926757812 20.04999923706055
106.8399963378906 495.5400085449219 17.29000091552734
105.9499969482422 495.3099975585938 18.36000061035156
101.1100006103516 494.1499938964844 17.69000053405762
102.4199981689453 493.7799987792969 19.25
104.8300018310547 494.3500061035156 19.65999984741211
104.370002746582 494.239990234375 20.20000076293945
106.3199996948242 494.75 17.93000030517578
106.8099975585938 494.8900146484375 17.3700008392334
105.8199996948242 494.6099853515625 18.52000045776367
101.629997253418 493.6000061035156 18.3700008392334
105.3300018310547 494.4800109863281 19.1200008392334
100.129997253418 493.2799987792969 16.71999931335449
103.129997253418 493.9599914550781 19.98999977111816
107.2399978637695 494.989990234375 16.88999938964844
103.879997253418 494.1099853515625 20.70999908447266
100.8899993896484 493.4599914550781 17.46999931335449
101.4300003051758 493.010009765625 18.11000061035156
104.6800003051758 493.7699890136719 19.93000030517578
102.2200012207031 493.1799926757812 19.06999969482422
100.629997253418 492.8299865722656 17.19000053405762
107.5400009155273 494.5199890136719 16.68000030517578
107.0400009155273 494.3699951171875 17.09000015258789
102.9899978637695 493.3299865722656 19.8700008392334
106.129997253418 494.1199951171875 18.19000053405762
106.5899963378906 494.2699890136719 17.65999984741211
107.0299987792969 494.4400024414062 14.07999992370605
105.629997253418 494.010009765625 18.72999954223633
105.1800003051758 493.8999938964844 19.22999954223633
104.1900024414062 493.6199951171875 20.39999961853027
103.6900024414062 493.5 20.76000022888184
105.0299987792969 493.2300109863281 19.47999954223633
102.6699981689453 492.6400146484375 19.6200008392334
106.9700012207031 493.7300109863281 17.20999908447266
106.4800033569336 493.6199951171875 17.73999977111816
105.5299987792969 493.3500061035156 18.84000015258789
106.9599990844727 493.760009765625 14.18000030517578
104.0400009155273 492.9500122070312 20.59000015258789
106.0299987792969 493.5 18.28000068664551
103.4199981689453 492.8099975585938 20.40999984741211
107.4300003051758 493.8699951171875 16.70000076293945
104.5500030517578 493.1300048828125 20.04000091552734
105.8399963378906 492.6900024414062 18.47999954223633
106.3000030517578 492.8099975585938 17.94000053405762
106.8099975585938 492.9700012207031 17.3700008392334
105.370002746582 492.5700073242188 19.09000015258789
107.2399978637695 493.0599975585938 16.90999984741211
101.1600036621094 499.6400146484375 17.70999908447266
104.3399963378906 499.8800048828125 20.29999923706055
102.5100021362305 499.3800048828125 19.3700008392334
100.8199996948242 498.9800109863281 17.27000045776367
103.9100036621094 499.75 20.72999954223633
104.8499984741211 499.9800109863281 19.75
103.5599975585938 499.0299987792969 20.52000045776367
104.1800003051758 499.1700134277344 20.48999977111816
101.9800033569336 498.6300048828125 18.68000030517578
100.4000015258789 498.2000122070312 16.79999923706055
107.4300003051758 499.9100036621094 16.72999954223633
104.620002746582 499.2900085449219 20
105.5899963378906 499.5 18.8799991607666
107.120002746582 499.0499877929688 15.1899995803833
107.1399993896484 499.8200073242188 14.80000019073486
106.3899993896484 498.8699951171875 17.98999977111816
106.4899978637695 499.6900024414062 17.82999992370605
107.2900009155273 499.1000061035156 16.94000053405762
106.7900009155273 499 17.43000030517578
105.4599990844727 498.6700134277344 19.01000022888184
105.9499969482422 498.8099975585938 18.52000045776367
106.0100021362305 499.5700073242188 18.36000061035156
103.129997253418 498.1300048828125 19.95000076293945
105.0800018310547 499.4100036621094 19.44000053405762
101.9400024414062 497.8299865722656 19.04000091552734
104.5599975585938 498.4500122070312 20.04999923706055
104.1699981689453 498.3699951171875 20.54000091552734
104.9899978637695 498.5499877929688 19.53000068664551
106.9300003051758 499.7900085449219 17.28000068664551
107.6699981689453 498.4700012207031 16.55999946594238
107.1800003051758 498.3599853515625 17.04000091552734
107.0699996948242 498.3399963378906 15.30000019073486
106.2799987792969 498.1600036621094 18.02000045776367
105.8199996948242 498.0799865722656 18.64999961853027
104 497.6300048828125 20.69000053405762
101.620002746582 497.0599975585938 20.03000068664551
105.3499984741211 497.9500122070312 19.15999984741211
102.8899993896484 497.3800048828125 19.79999923706055
102.1900024414062 497.2099914550781 19.79000091552734
104.4000015258789 497.7200012207031 20.18000030517578
104.870002746582 497.8200073242188 19.73999977111816
106.6999969482422 498.2799987792969 17.54999923706055
107.0500030517578 497.6400146484375 14.46000003814697
107.4700012207031 497.7699890136719 16.72999954223633
106.620002746582 497.6000061035156 17.67000007629395
105.2200012207031 497.260009765625 19.29000091552734
105.6699981689453 497.3599853515625 18.73999977111816
106.1100006103516 497.4500122070312 18.26000022888184
101.6600036621094 496.4200134277344 20.75
103.8399963378906 496.9599914550781 20.70999908447266
102.3399963378906 496.5899963378906 20.48999977111816
107 497.6900024414062 17.20000076293945
104.3199996948242 497.0599975585938 20.30999946594238
104.7900009155273 497.1600036621094 19.81999969482422
102.9000015258789 496.7099914550781 20.32999992370605
107.3199996948242 497.0700073242188 16.84000015258789
107.0699996948242 496.9400024414062 14.78999996185303
103.6100006103516 496.2000122070312 20.76000022888184
104.5500030517578 496.3999938964844 19.95000076293945
102.7699966430664 496 20.48999977111816
101.9599990844727 495.7900085449219 20.22999954223633
105.4499969482422 496.6400146484375 18.94000053405762
106.4400024414062 496.8200073242188 17.8799991607666
105.9499969482422 496.75 18.45000076293945
105.0400009155273 496.510009765625 19.5
104.1699981689453 496.3099975585938 20.53000068664551
106.870002746582 496.9400024414062 17.3700008392334
107.0999984741211 496.2200012207031 15.1899995803833
106.8199996948242 496.1400146484375 17.5
106.3399963378906 496.0299987792969 18.01000022888184
105.4300003051758 495.8299865722656 19.03000068664551
102.0899963378906 495.0199890136719 19.35000038146973
105.0100021362305 495.7300109863281 19.61000061035156
104.0699996948242 495.5599975585938 20.60000038146973
105.9000015258789 495.9500122070312 18.51000022888184
107.25 496.2799987792969 16.95999908447266
104.5400009155273 495.6600036621094 20.04999923706055
103.0800018310547 495.2699890136719 20
107.0199966430664 495.5499877929688 15.27999973297119
107.6600036621094 495.7200012207031 16.56999969482422
106.2799987792969 495.3800048828125 18.09000015258789
107.1600036621094 495.6099853515625 17.04999923706055
101.5800018310547 494.25 18.54000091552734
103.9599990844727 494.8800048828125 20.69000053405762
104.8399963378906 495.0499877929688 19.67000007629395
104.4400024414062 494.9500122070312 20.20999908447266
102.8300018310547 494.5899963378906 19.68000030517578
105.3199996948242 495.1600036621094 19.14999961853027
105.8000030517578 495.2999877929688 18.70000076293945
106.7099990844727 495.4800109863281 17.51000022888184
107.0699996948242 494.8900146484375 14.43000030517578
107.0500030517578 494.9500122070312 17.17000007629395
105.2300033569336 494.5299987792969 19.25
100.6999969482422 493.3999938964844 17.15999984741211
106.5699996948242 494.8099975585938 17.70000076293945
107.5100021362305 495.0499877929688 16.63999938964844
103.8000030517578 494.1799926757812 20.72999954223633
104.3399963378906 494.2999877929688 20.32999992370605
104.7799987792969 494.4299926757812 19.72999954223633
106.0999984741211 494.739990234375 18.22999954223633
102.3000030517578 493.8200073242188 19.07999992370605
105.6699981689453 494.6000061035156 18.77000045776367
107.120002746582 494.2300109863281 14.93000030517578
105.4599990844727 493.8999938964844 18.96999931335449
106.8600006103516 494.2099914550781 17.35000038146973
105.0100021362305 493.7799987792969 19.48999977111816
105.879997253418 494 18.43000030517578
104.120002746582 493.5799865722656 20.5
101.7699966430664 493 18.46999931335449
103.4000015258789 493.3999938964844 20.38999938964844
104.6100006103516 493.7000122070312 20
107.3000030517578 494.2900085449219 16.88999938964844
106.3899993896484 494.0899963378906 17.8799991607666
107.0599975585938 493.4800109863281 15.27000045776367
107.2300033569336 493.5 16.95000076293945
106.3099975585938 493.2999877929688 17.96999931335449
105.8099975585938 493.2200012207031 18.54999923706055
104.5100021362305 492.8800048828125 20.10000038146973
105.4300003051758 493.1300048828125 19.04999923706055
104.0599975585938 492.7900085449219 20.69000053405762
104.9599990844727 492.989990234375 19.52000045776367
106.7600021362305 493.4200134277344 17.48999977111816
107.1100006103516 492.8500061035156 15.48999977111816
106.1999969482422 492.6499938964844 18.1200008392334
107.1800003051758 492.8999938964844 17.04000091552734
107.5899963378906 492.9700012207031 16.52000045776367
106.6800003051758 492.75 17.6299991607666
100.9300003051758 498.3999938964844 17.45000076293945
101.9100036621094 496.7000122070312 20.29000091552734
101.5699996948242 497.9800109863281 18.82999992370605
103.1399993896484 496.239990234375 20.86000061035156
105.5199966430664 497.3500061035156 18.82999992370605
102.5599975585938 496.9400024414062 20.01000022888184
102.1399993896484 497.7000122070312 19.25
106.4800033569336 498.6000061035156 17.76000022888184
106.6999969482422 496.3500061035156 17.52000045776367
107.0400009155273 497.6199951171875 17.13999938964844
102.0599975585938 497.2300109863281 19.84000015258789
102.4899978637695 496.5 20.56999969482422
104.5899963378906 498.9700012207031 19.8700008392334
105.6800003051758 495.2300109863281 18.69000053405762
104.7900009155273 496.8099975585938 19.77000045776367
106.7099990844727 493.4100036621094 17.47999954223633
105.4300003051758 499.489990234375 19.10000038146973
107.3499984741211 492.8900146484375 16.67000007629395
107.0100021362305 493.9800109863281 17.14999961853027
107.3399963378906 495.2000122070312 16.84000015258789
106.0800018310547 492.9100036621094 18.1200008392334
106.3499984741211 493.9700012207031 17.84000015258789
106.8000030517578 495.7300109863281 17.36000061035156
107.0699996948242 496.7999877929688 17.01000022888184
106.8899993896484 496.260009765625 17.21999931335449
107.2300033569336 497.3999938964844 16.93000030517578
106.6100006103516 495.1300048828125 17.52000045776367
107.4899978637695 498.5400085449219 16.73999977111816
105.7099990844727 494.1000061035156 18.56999969482422
105.5599975585938 493.510009765625 18.73999977111816
105.870002746582 494.6300048828125 18.36000061035156
106.7200012207031 498.0199890136719 17.43000030517578
106.870002746582 498.5400085449219 17.28000068664551
106.1800003051758 495.8299865722656 18.05999946594238
106.4599990844727 496.9299926757812 17.72999954223633
106.5800018310547 497.4700012207031 17.55999946594238
107.0199966430664 499.1400146484375 17.07999992370605
105.4000015258789 492.9599914550781 18.89999961853027
105.5699996948242 495.6700134277344 18.75
105.75 496.2799987792969 18.68000030517578
105.4400024414062 495.0799865722656 18.82999992370605
106.2900009155273 498.4700012207031 17.8799991607666
106.4199981689453 499.0499877929688 17.71999931335449
106.6100006103516 499.6300048828125 17.61000061035156
104.6500015258789 494.5 19.76000022888184
104.9499969482422 495.6700134277344 19.55999946594238
104.4700012207031 493.9500122070312 20.03000068664551
105.620002746582 498.4599914550781 18.76000022888184
105.2200012207031 499.5599975585938 19.20999908447266
105.4800033569336 497.9100036621094 18.78000068664551
105.25 496.8399963378906 19.20000076293945
105.7900009155273 498.9500122070312 18.51000022888184
105.0699996948242 498.9700012207031 19.30999946594238
105.3600006103516 497.3500061035156 19.06999969482422
104.7900009155273 497.8099975585938 19.72999954223633
105.9400024414062 499.5599975585938 18.42000007629395
104.25 495.6099853515625 20.28000068664551
103.8199996948242 493.9299926757812 20.72999954223633
104.5100021362305 496.7099914550781 20
102.9499969482422 492.8699951171875 20.02000045776367
103.4800033569336 494.8900146484375 20.54000091552734
104.0599975585938 497.3599853515625 20.51000022888184
103.5999984741211 495.489990234375 20.70000076293945
103.2799987792969 494.1700134277344 20.34000015258789
103.7900009155273 496.1600036621094 20.73999977111816
104.4800033569336 498.9400024414062 19.97999954223633
104.1999969482422 497.8599853515625 20.28000068664551
104.3600006103516 498.4100036621094 20.17000007629395
102.6699981689453 493.6799926757812 19.63999938964844
103.8099975585938 498.2200012207031 20.76000022888184
103.6600036621094 497.6199951171875 20.73999977111816
104.2200012207031 499.8800048828125 20.28000068664551
103.9199981689453 498.7999877929688 20.6299991607666
103.3600006103516 496.3999938964844 20.72999954223633
102.8499984741211 494.3399963378906 19.77000045776367
102.8199996948242 496.6900024414062 20.32999992370605
101.9300003051758 493.1199951171875 18.75
103.2399978637695 498.4200134277344 20.22999954223633
103.4300003051758 499.1300048828125 20.47999954223633
102.9199981689453 497.2200012207031 19.92000007629395
102.5999984741211 498.5299987792969 19.54000091552734
102.9400024414062 499.8599853515625 19.84000015258789
102.0400009155273 496.4500122070312 20.68000030517578
102.1800003051758 496.9200134277344 20.04999923706055
100.5699996948242 492.8599853515625 17.15999984741211
101.879997253418 498.1700134277344 18.72999954223633
101.5299987792969 496.8500061035156 20.29000091552734
102.3000030517578 497.3599853515625 19.57999992370605
102.4599990844727 497.8999938964844 19.3799991607666
102.0400009155273 498.7999877929688 18.86000061035156
101.7799987792969 497.7699890136719 19.21999931335449
100.7099990844727 493.5700073242188 17.38999938964844
101.0400009155273 494.8399963378906 17.64999961853027
101.6500015258789 497.2999877929688 19.69000053405762
100.0800018310547 493.1000061035156 16.63999938964844
101.0599975585938 497 17.64999961853027
100.7099990844727 495.6700134277344 17.32999992370605
100.870002746582 496.3200073242188 17.44000053405762
101.7099990844727 499.6300048828125 18.45999908447266
101.5500030517578 498.9800109863281 18.27000045776367
100.5500030517578 495.0299987792969 17.17000007629395
100.379997253418 494.3900146484375 16.96999931335449
101.2099990844727 497.6000061035156 17.72999954223633
100.8300018310547 498.489990234375 17.45000076293945
100.6399993896484 497.8500061035156 17.20000076293945
100.9899978637695 499.1300048828125 17.54000091552734
100.2699966430664 498.0499877929688 16.76000022888184
100.120002746582 497.4800109863281 16.70000076293945
100.4100036621094 498.6099853515625 16.85000038146973
100.6800003051758 499.7300109863281 17.26000022888184
100.5699996948242 499.2200012207031 17.07999992370605
101.3099975585938 499.8299865722656 17.95999908447266
100.1600036621094 495.4299926757812 16.72999954223633
100.9100036621094 498.1799926757812 17.40999984741211
100.5999984741211 497.0599975585938 17.21999931335449
100.7399978637695 497.6799926757812 17.34000015258789
101.0500030517578 498.75 17.70999908447266
100.4899978637695 496.5599975585938 16.97999954223633
101.1999969482422 499.2999877929688 17.79000091552734
100.0599975585938 494.8699951171875 16.69000053405762
100.3000030517578 495.9299926757812 16.85000038146973
101.5299987792969 497.8699951171875 19.1200008392334
101.1900024414062 496.75 17.78000068664551
100.3399963378906 493.3699951171875 16.93000030517578
101.6600036621094 498.4200134277344 18.52000045776367
100.75 495.0199890136719 17.26000022888184
101.7799987792969 499.0400085449219 18.52000045776367
100.1900024414062 492.7699890136719 16.72999954223633
101.0699996948242 496.1199951171875 17.70000076293945
100.9300003051758 495.5899963378906 17.40999984741211
100.5100021362305 493.9299926757812 16.98999977111816
101.9300003051758 499.5400085449219 18.80999946594238
102.3399963378906 497.989990234375 19.19000053405762
102.4499969482422 498.5299987792969 19.30999946594238
102.0599975585938 496.8699951171875 20.01000022888184
101.0299987792969 492.9500122070312 17.69000053405762
102.1699981689453 497.4800109863281 19.31999969482422
101.1500015258789 493.5299987792969 17.81999969482422
102.7600021362305 499.6300048828125 19.6200008392334
102.6100006103516 499.0700073242188 19.54000091552734
101.9000015258789 496.2999877929688 20.75
101.75 495.739990234375 20.36000061035156
103.5199966430664 499.7999877929688 20.56999969482422
103.0800018310547 498.1700134277344 20.04000091552734
102.2099990844727 494.760009765625 19.23999977111816
101.9499969482422 493.6499938964844 18.69000053405762
103.3899993896484 499.2799987792969 20.40999984741211
102.9400024414062 497.5400085449219 19.93000030517578
102.8000030517578 497.0599975585938 19.8700008392334
102.6500015258789 496.4299926757812 20.60000038146973
102.3499984741211 495.25 19.81999969482422
103.2699966430664 498.7300109863281 20.20000076293945
104.1900024414062 499.9299926757812 20.30999946594238
103.7600021362305 498.239990234375 20.79000091552734
103.4899978637695 497.1700134277344 20.60000038146973
102.7699966430664 494.3800048828125 19.73999977111816
102.9100036621094 494.9200134277344 19.95999908447266
104.0699996948242 499.3699951171875 20.61000061035156
103.9300003051758 498.8200073242188 20.70999908447266
103.1900024414062 496.0799865722656 20.73999977111816
102.6100006103516 493.7900085449219 19.54999923706055
103.370002746582 496.6199951171875 20.44000053405762
103.0500030517578 495.4800109863281 20.20999908447266
103.620002746582 497.75 20.73999977111816
104.2600021362305 497.3599853515625 20.28000068664551
104.0899963378906 496.8200073242188 20.48999977111816
103.370002746582 494 20.43000030517578
103.5 494.5299987792969 20.6200008392334
103.25 493.4100036621094 20.27000045776367
104.8399963378906 499.6499938964844 19.71999931335449
104.6900024414062 499.0599975585938 19.81999969482422
103.8000030517578 495.6300048828125 20.79000091552734
103.6900024414062 495.0799865722656 20.72999954223633
105.5800018310547 499.7300109863281 18.79999923706055
104.879997253418 497.0199890136719 19.54999923706055
105.1600036621094 498.0700073242188 19.27000045776367
104.3499984741211 494.760009765625 20.19000053405762
104.1800003051758 494.1700134277344 20.3799991607666
104.7600021362305 496.3900146484375 19.76000022888184
105.0400009155273 497.510009765625 19.36000061035156
104.4400024414062 495.2900085449219 20
104.0699996948242 493.6300048828125 20.59000015258789
105.4300003051758 499.1900024414062 18.89999961853027
105.3199996948242 498.6400146484375 19.1299991607666
104.6100006103516 495.8599853515625 19.95999908447266
103.8899993896484 493 20.79000091552734
105.629997253418 497.1499938964844 18.79999923706055
104.7699966430664 493.75 19.70000076293945
104.6399993896484 493.2099914550781 19.81999969482422
106.2300033569336 499.4500122070312 18.1299991607666
105.3399963378906 496.010009765625 19
104.9400024414062 494.3299865722656 19.52000045776367
105.5100021362305 496.6099853515625 18.90999984741211
105.7600021362305 497.760009765625 18.5
105.1800003051758 495.4700012207031 19.19000053405762
105.0699996948242 494.8399963378906 19.47999954223633
105.9100036621094 498.3399963378906 18.44000053405762
106.3000030517578 497.4100036621094 17.95000076293945
106.7300033569336 499.0400085449219 17.45000076293945
105.75 495.1600036621094 18.46999931335449
105.4800033569336 494.0700073242188 18.86000061035156
105.3300018310547 493.4599914550781 19.04999923706055
105.5899963378906 494.6000061035156 18.61000061035156
106.0100021362305 496.3200073242188 18.21999931335449
106.5800018310547 498.5 17.55999946594238
106.879997253418 499.6300048828125 17.32999992370605
106.1500015258789 496.8800048828125 17.96999931335449
106.4700012207031 497.9700012207031 17.82999992370605
105.879997253418 495.7099914550781 18.46999931335449
107.1999969482422 498.260009765625 16.93000030517578
107.5 499.3999938964844 16.75
106.7900009155273 496.5899963378906 17.35000038146973
106.0699996948242 493.7000122070312 18.22999954223633
107.3399963378906 498.8200073242188 16.78000068664551
105.9100036621094 493.1700134277344 18.26000022888184
107.0500030517578 497.6799926757812 17.04999923706055
106.6100006103516 495.989990234375 17.54999923706055
106.3499984741211 494.8099975585938 17.88999938964844
106.9700012207031 494.5 17.14999961853027
107.4199981689453 496.1199951171875 16.80999946594238
106.5400009155273 492.739990234375 17.60000038146973
107.0999984741211 495.0199890136719 16.88999938964844
107.5500030517578 496.7300109863281 16.77000045776367
107.2799987792969 495.6000061035156 16.75
106.7200012207031 493.3599853515625 17.40999984741211
106.8300018310547 493.9299926757812 17.29000091552734
107.25 492.9599914550781 16.76000022888184
107.5299987792969 494.010009765625 16.77000045776367
107.4199981689453 493.4800109863281 16.70999908447266
106.9000015258789 493.9200134277344 17.20999908447266
106.75 493.2900085449219 17.25
106.7200012207031 493.0299987792969 16.09000015258789
106.5999984741211 492.6400146484375 17.5
106.6900024414062 492.9599914550781 14.10000038146973
106.5500030517578 494.8200073242188 17.6200008392334
106.0699996948242 492.9800109863281 15.51000022888184
105.9899978637695 492.75 18.26000022888184
106.6999969482422 495.4800109863281 17.45999908447266
106.870002746582 496.1300048828125 17.23999977111816
107.4000015258789 498.1199951171875 16.61000061035156
106.1399993896484 493.1600036621094 16.85000038146973
105.3499984741211 492.8800048828125 18.96999931335449
105.4000015258789 492.989990234375 14.42000007629395
105.6900024414062 494.2300109863281 18.54000091552734
105.370002746582 492.9299926757812 16.60000038146973
106.1900024414062 496.1700134277344 18.07999992370605
106.0500030517578 495.5199890136719 18.18000030517578
105.4899978637695 493.5199890136719 18.86000061035156
106.7200012207031 498.25 17.43000030517578
106.379997253418 496.9100036621094 17.77000045776367
104.5800018310547 492.6799926757812 16.64999961853027
105.3199996948242 495.6700134277344 18.98999977111816
105.1500015258789 495.0199890136719 19.19000053405762
105.3499984741211 498.510009765625 18.95999908447266
104.9599990844727 497.0799865722656 19.46999931335449
105.1399993896484 497.7799987792969 19.26000022888184
106.1500015258789 499.010009765625 18.01000022888184
104.6699981689453 493.010009765625 17.51000022888184
104.6399993896484 492.9700012207031 19.86000061035156
105.4700012207031 496.2999877929688 18.81999969482422
105.6900024414062 499.8399963378906 18.65999984741211
104.9700012207031 494.4100036621094 19.44000053405762
103.8499984741211 492.6199951171875 17.93000030517578
104.129997253418 493.8200073242188 20.29000091552734
103.9499969482422 492.9800109863281 16.70000076293945
104.0199966430664 493.0899963378906 14.4399995803833
103.4100036621094 493.1300048828125 14.94999980926514
