113.1900024414062 450.6400146484375 16.21999931335449
114.2799987792969 450.3699951171875 15.6899995803833
110.0899963378906 451.3699951171875 17.26000022888184
111.4199981689453 451.0499877929688 17.03000068664551
113.5199966430664 450.5499877929688 14.02000045776367
107.6600036621094 452 16.45000076293945
115.7300033569336 450 14.31999969482422
112.6100006103516 450.7799987792969 16.45999908447266
114.9899978637695 450.1700134277344 14.28999996185303
113.7300033569336 450.5400085449219 13.13000011444092
117.0299987792969 449.6900024414062 12.60999965667725
113.7200012207031 450.5 15.94999980926514
109.3300018310547 451.5700073242188 17.1200008392334
112.0100021362305 450.8900146484375 16.77000045776367
117.0699996948242 449.6499938964844 14.23999977111816
110.870002746582 451.1900024414062 17.25
109.0599975585938 452.3999938964844 16.70999908447266
116.4000015258789 449.8200073242188 14.31999969482422
106.4899978637695 453.0799865722656 15.89000034332275
110.4899978637695 452.0400085449219 16.86000061035156
105.3199996948242 453.3900146484375 14.85999965667725
112.9899978637695 451.4400024414062 16.29999923706055
109.7699966430664 452.2200012207031 16.79999923706055
111.8300018310547 451.6900024414062 16.85000038146973
107.4899978637695 452.7900085449219 16.36000061035156
116.2799987792969 450.6000061035156 14.35999965667725
114.1100006103516 451.1600036621094 15.76000022888184
108.3600006103516 452.6000061035156 16.6200008392334
104.5599975585938 453.5499877929688 14.77000045776367
112.3899993896484 451.5499877929688 16.59000015258789
115.5299987792969 450.7900085449219 14.32999992370605
113.5500030517578 451.2799987792969 16
113.7600021362305 451.2799987792969 13.56999969482422
116.9700012207031 450.4700012207031 14.26000022888184
114.8600006103516 450.9700012207031 14.25
117.0599975585938 450.4599914550781 12.85000038146973
111.1800003051758 451.8599853515625 16.96999931335449
106.6900024414062 452.2699890136719 15.98999977111816
99.40000152587891 454.8800048828125 14.36999988555908
102.0800018310547 454.1600036621094 15.42000007629395
101.1500015258789 454.4100036621094 14.94999980926514
100.2799987792969 454.6600036621094 14.56999969482422
103.2799987792969 453.8699951171875 15.11999988555908
103.879997253418 453.7200012207031 14.84000015258789
102.6900024414062 454.0299987792969 15.35999965667725
100.9499969482422 455.260009765625 14.9399995803833
103.1600036621094 454.7099914550781 15.1899995803833
104.3199996948242 454.4299926757812 14.68000030517578
106.2399978637695 453.9299926757812 15.77999973297119
102.629997253418 454.8099975585938 15.39000034332275
103.7699966430664 454.5299987792969 14.89999961853027
107.129997253418 453.7099914550781 16.14999961853027
107.8499984741211 453.489990234375 16.22999954223633
101.8300018310547 455.0299987792969 15.31999969482422
108.5999984741211 453.2999877929688 16.30999946594238
111.5299987792969 452.5700073242188 16.64999961853027
104.8899993896484 454.2799987792969 14.5
110.8000030517578 452.760009765625 16.56999969482422
114.0400009155273 451.9599914550781 15.81999969482422
112.2399978637695 452.3699951171875 16.65999984741211
113.7200012207031 452.0700073242188 13.86999988555908
116.6600036621094 451.2900085449219 14.27999973297119
115.2099990844727 451.6900024414062 14.0600004196167
115.9800033569336 451.4599914550781 14.19999980926514
109.3000030517578 453.1600036621094 16.43000030517578
117.1399993896484 451.2000122070312 12.27000045776367
117.2799987792969 451.1700134277344 14.02999973297119
113.4499969482422 452.0799865722656 16.05999946594238
110.0699996948242 452.9299926757812 16.48999977111816
112.8899993896484 452.239990234375 16.34000015258789
114.5100021362305 451.8399963378906 15.53999996185303
115.879997253418 452.2000122070312 12.81999969482422
117.2200012207031 451.8999938964844 12.51000022888184
113.7600021362305 452.0599975585938 12.46000003814697
116.9899978637695 451.9100036621094 13.69999980926514
102.4199981689453 455.5599975585938 15.48999977111816
106.7600021362305 454.4800109863281 15.77999973297119
106.0500030517578 454.6400146484375 15.73999977111816
107.5599975585938 454.260009765625 15.85999965667725
108.3000030517578 454.0899963378906 15.9399995803833
105.3099975585938 454.8399963378906 14.21000003814697
109.0599975585938 453.8800048828125 16.04000091552734
109.7699966430664 453.7300109863281 16.1299991607666
111.2099990844727 453.3699951171875 16.28000068664551
104.1500015258789 455.1499938964844 14.76000022888184
111.9499969482422 453.1700134277344 16.36000061035156
112.6500015258789 452.9700012207031 16.45000076293945
113.6100006103516 452.7799987792969 14.06999969482422
113.7900009155273 452.75 12.96000003814697
113.2799987792969 452.8099975585938 16.20000076293945
104.75 454.989990234375 14.5
110.4700012207031 453.5299987792969 16.19000053405762
113.8300018310547 452.7099914550781 15.89000034332275
114.4000015258789 452.5700073242188 15.64999961853027
108.4800033569336 454.6300048828125 15.72999954223633
107.8000030517578 454.7799987792969 15.65999984741211
109.9700012207031 454.2300109863281 15.88000011444092
109.1800003051758 454.4500122070312 15.77999973297119
112.2300033569336 453.6600036621094 16.11000061035156
113.7600021362305 453.3099975585938 13.47000026702881
113.7900009155273 453.3200073242188 12.01000022888184
114.1699981689453 453.1700134277344 15.77999973297119
112.9700012207031 453.489990234375 16.19000053405762
113.6100006103516 453.3200073242188 15.98999977111816
110.7600021362305 454.0599975585938 15.96000003814697
111.4700012207031 453.8500061035156 16.06999969482422
111.0500030517578 454.6799926757812 15.65999984741211
113.3000030517578 454.1499938964844 15.93000030517578
113.7799987792969 454.0499877929688 14.10000038146973
113.8099975585938 454.0199890136719 12.61999988555908
112.5 454.3399963378906 15.84000015258789
111.8099975585938 454.4800109863281 15.77000045776367
113.9000015258789 453.9700012207031 15.85000038146973
114.4899978637695 453.8200073242188 15.59000015258789
113.0199966430664 454.9500122070312 15.76000022888184
113.6999969482422 454.7999877929688 15.56999969482422
110.3499984741211 454.8699951171875 15.65999984741211
114.3000030517578 454.6400146484375 15.4399995803833
98.25 454.4800109863281 14.34000015258789
98.91999816894531 454.6400146484375 14.3100004196167
100.1500015258789 454.9500122070312 14.64000034332275
100.7200012207031 455.0499877929688 14.89999961853027
101.9100036621094 455.3500061035156 15.39999961853027
101.2699966430664 455.2200012207031 15.13000011444092
102.5 455.5199890136719 15.47999954223633
99.61000061035156 454.7799987792969 14.39999961853027
97.62000274658203 454.3299865722656 14.31999969482422
99.54000091552734 454.1199951171875 14.52999973297119
98.23999786376953 453.7799987792969 14.60999965667725
101.8300018310547 454.6700134277344 15.36999988555908
98.91000366210938 453.9500122070312 14.59000015258789
103.2399978637695 455.0299987792969 15.03999996185303
97.73999786376953 453.6300048828125 14.38000011444092
101.3199996948242 454.5499877929688 15.14000034332275
100.7200012207031 454.3599853515625 14.86999988555908
102.4899978637695 454.8099975585938 15.38000011444092
89.04000091552734 451.489990234375 13.39999961853027
100.2300033569336 454.2699890136719 14.61999988555908
89.47000122070312 450.9700012207031 13.71000003814697
89.06999969482422 450.8900146484375 12.90999984741211
90.66999816894531 451.25 13.89999961853027
98.19999694824219 453.1199951171875 14.56999969482422
97.65000152587891 453.0199890136719 14.35000038146973
90.05999755859375 451.1099853515625 13.85000038146973
101.8600006103516 454.0299987792969 15.39000034332275
100.1600036621094 453.6400146484375 14.75
99.41999816894531 453.4299926757812 14.8100004196167
98.80999755859375 453.2699890136719 14.84000015258789
103.2699966430664 454.4100036621094 15.03999996185303
102.5 454.1900024414062 15.38000011444092
100.7600021362305 453.7799987792969 14.85000038146973
101.3399963378906 453.9299926757812 15.11999988555908
105.1999969482422 454.8999938964844 13.26000022888184
104.0400009155273 454.5899963378906 14.67000007629395
104.8000030517578 454.7799987792969 14.39000034332275
106.370002746582 454.5799865722656 15.6899995803833
105.75 454.4500122070312 15.64000034332275
106.2099990844727 454.5700073242188 14.35999965667725
107.0100021362305 454.7200012207031 15.68000030517578
105.5500030517578 454.3900146484375 14.39000034332275
107.7099990844727 454.9700012207031 12.06999969482422
107.5800018310547 454.8900146484375 15.72000026702881
89.06999969482422 450.260009765625 13.02000045776367
90.08000183105469 450.5 13.86999988555908
98.23999786376953 452.5700073242188 14.60000038146973
92.45999908447266 451.0899963378906 14.36999988555908
97.72000122070312 452.4100036621094 14.34000015258789
98.76000213623047 452.6900024414062 14.82999992370605
91.91999816894531 450.9800109863281 14.21000003814697
101.8399963378906 453.4299926757812 15.38000011444092
91.30999755859375 450.8299865722656 14.06999969482422
102.5199966430664 453.6199951171875 15.38000011444092
104.8499984741211 454.1900024414062 14.5
103.3099975585938 453.7999877929688 15.0600004196167
89.44999694824219 450.3599853515625 13.72999954223633
90.69999694824219 450.6900024414062 14
104.0800018310547 454.0199890136719 14.65999984741211
99.37000274658203 452.8399963378906 15.09000015258789
100.0299987792969 452.9800109863281 14.98999977111816
100.75 453.1700134277344 14.94999980926514
101.2699966430664 453.3200073242188 15.10999965667725
91.94000244140625 450.3200073242188 14.27999973297119
91.37000274658203 450.1799926757812 14.10000038146973
92.52999877929688 450.5 14.26000022888184
93.20999908447266 450.6400146484375 14.27000045776367
89.48000335693359 449.7200012207031 13.72000026702881
93.80000305175781 450.7799987792969 14.34000015258789
95.08000183105469 451.1199951171875 14.35999965667725
94.45999908447266 450.9800109863281 14.31999969482422
98.30000305175781 451.9299926757812 14.60000038146973
90.76000213623047 450.0299987792969 13.97000026702881
99.97000122070312 452.3099975585938 15.32999992370605
101.9000015258789 452.7999877929688 15.39999961853027
90.08999633789062 449.8699951171875 13.85000038146973
98.79000091552734 452.0199890136719 14.85999965667725
99.37000274658203 452.2000122070312 15.11999988555908
100.7200012207031 452.5299987792969 15.22999954223633
104 453.3399963378906 14.88000011444092
102.5299987792969 452.9500122070312 15.36999988555908
89.13999938964844 449.6799926757812 12.88000011444092
108.2399978637695 454.3800048828125 15.82999992370605
106.1999969482422 453.8999938964844 15.8100004196167
101.3499984741211 452.6700134277344 15.14999961853027
103.3000030517578 453.1499938964844 15
107.5500030517578 454.2200012207031 15.85999965667725
109.620002746582 454.760009765625 15.69999980926514
97.69000244140625 451.7799987792969 14.32999992370605
110.2799987792969 454.8900146484375 15.71000003814697
104.6999969482422 453.5400085449219 14.82999992370605
106.0500030517578 453.8500061035156 14.64999961853027
106.8899993896484 454.0599975585938 15.9399995803833
108.9100036621094 454.5899963378906 15.72999954223633
105.370002746582 453.6700134277344 14.71000003814697
89.54000091552734 448.9800109863281 13.72999954223633
90.13999938964844 449.1300048828125 13.85999965667725
92.55999755859375 449.760009765625 14.28999996185303
89.18000030517578 448.8999938964844 12.89000034332275
90.72000122070312 449.2999877929688 13.98999977111816
91.33999633789062 449.4299926757812 14.11999988555908
96.51000213623047 450.760009765625 14.30000019073486
97.73999786376953 451.0299987792969 14.38000011444092
95.20999908447266 450.4200134277344 14.27999973297119
98.86000061035156 451.3399963378906 14.90999984741211
93.87000274658203 450.0899963378906 14.27999973297119
100.4899978637695 451.7300109863281 15.59000015258789
95.88999938964844 450.5599975585938 14.30000019073486
97.16000366210938 450.9100036621094 14.34000015258789
93.23999786376953 449.8999938964844 14.26000022888184
98.29000091552734 451.1799926757812 14.60000038146973
102.5800018310547 452.25 15.38000011444092
99.97000122070312 451.5799865722656 15.39000034332275
106.3199996948242 453.1600036621094 15.86999988555908
99.41000366210938 451.4299926757812 15.10000038146973
108.1699981689453 453.6099853515625 16.14999961853027
108.8399963378906 453.7799987792969 16.07999992370605
104.6699981689453 452.75 15.14000034332275
109.5400009155273 453.9599914550781 15.97999954223633
101.8600006103516 452.0700073242188 15.46000003814697
110.8499984741211 454.2900085449219 15.80000019073486
106.8600006103516 453.2900085449219 16.10000038146973
94.55000305175781 450.2200012207031 14.26000022888184
112.9400024414062 454.8099975585938 15.57999992370605
91.93000030517578 449.5899963378906 14.22000026702881
111.5599975585938 454.5 15.75
105.9800033569336 453.1099853515625 15.05000019073486
107.4400024414062 453.4400024414062 16.25
101.1699981689453 451.9100036621094 15.5600004196167
113.6100006103516 454.9800109863281 15.60000038146973
103.9899978637695 452.6099853515625 15.22999954223633
105.379997253418 452.9500122070312 15.05000019073486
110.1999969482422 454.1300048828125 15.90999984741211
103.2300033569336 452.3800048828125 15.3100004196167
112.2699966430664 454.6499938964844 15.69999980926514
106.8000030517578 452.6600036621094 16.10000038146973
107.9700012207031 452.9299926757812 16.45000076293945
109.4100036621094 453.2900085449219 16.28000068664551
107.3499984741211 452.7799987792969 16.35000038146973
108.7099990844727 453.1400146484375 16.3700008392334
112.7600021362305 454.1600036621094 15.89000034332275
106.2399978637695 452.5299987792969 15.82999992370605
110.0999984741211 453.4800109863281 16.21999931335449
111.4000015258789 453.7900085449219 16.04999923706055
113.4000015258789 454.3200073242188 15.78999996185303
110.7399978637695 453.6499938964844 16.14999961853027
112.0400009155273 453.9599914550781 15.97000026702881
114.1800003051758 454.5199890136719 15.63000011444092
89.18000030517578 448.2799987792969 12.84000015258789
90.15000152587891 448.510009765625 13.85999965667725
91.37999725341797 448.8099975585938 14.10000038146973
92.51999664306641 449.0799865722656 14.27999973297119
89.48000335693359 448.3299865722656 13.72999954223633
96.40000152587891 450.0499877929688 14.27000045776367
97.02999877929688 450.2200012207031 14.28999996185303
94.47000122070312 449.5899963378906 14.25
98.84999847412109 450.6799926757812 14.85999965667725
98.20999908447266 450.510009765625 14.60000038146973
99.98000335693359 450.9400024414062 15.39000034332275
101.6999969482422 451.3900146484375 15.75
93.83000183105469 449.4500122070312 14.27000045776367
103.0599975585938 451.739990234375 15.60000038146973
99.41999816894531 450.8200073242188 15.10999965667725
93.13999938964844 449.2300109863281 14.23999977111816
100.4899978637695 451.0499877929688 15.65999984741211
105.7300033569336 452.3699951171875 15.32999992370605
101.0800018310547 451.2099914550781 15.81999969482422
103.7399978637695 451.9100036621094 15.5600004196167
91.91999816894531 448.9299926757812 14.21000003814697
105.0999984741211 452.2099914550781 15.39000034332275
104.4700012207031 452.0799865722656 15.42000007629395
95.12999725341797 449.739990234375 14.25
97.72000122070312 450.3800048828125 14.32999992370605
95.73000335693359 449.9100036621094 14.22999954223633
102.370002746582 451.5599975585938 15.68000030517578
90.76000213623047 448.6700134277344 14
90.66999816894531 448.0799865722656 13.97000026702881
90.08999633789062 447.9100036621094 13.84000015258789
89.48999786376953 447.760009765625 13.72000026702881
93.83000183105469 448.8399963378906 14.26000022888184
91.88999938964844 448.3800048828125 14.21000003814697
92.54000091552734 448.510009765625 14.27999973297119
97.08000183105469 449.6499938964844 14.28999996185303
94.55999755859375 449.0199890136719 14.22999954223633
96.44999694824219 449.489990234375 14.27999973297119
97.66000366210938 449.7900085449219 14.35999965667725
99.37000274658203 450.25 15.14000034332275
93.22000122070312 448.7099914550781 14.25
98.27999877929688 449.9500122070312 14.59000015258789
95.19999694824219 449.1799926757812 14.22000026702881
91.23999786376953 448.2200012207031 14.07999992370605
104.4000015258789 451.489990234375 15.72999954223633
95.81999969482422 449.3599853515625 14.27000045776367
103.7200012207031 451.2999877929688 15.78999996185303
100.9899978637695 450.6499938964844 15.89999961853027
100.4700012207031 450.4800109863281 15.57999992370605
105.0500030517578 451.6600036621094 15.64999961853027
103.0299987792969 451.1199951171875 15.85999965667725
108.5800018310547 452.5 16.67000007629395
106.2600021362305 451.9299926757812 15.85000038146973
106.7900009155273 452.1000061035156 16.1200008392334
107.9000015258789 452.3599853515625 16.61000061035156
110.5899963378906 453.0400085449219 16.44000053405762
99.88999938964844 450.3299865722656 15.38000011444092
107.379997253418 452.2000122070312 16.34000015258789
111.3000030517578 453.2099914550781 16.31999969482422
111.9499969482422 453.3900146484375 16.29999923706055
113.4300003051758 453.7099914550781 16.04000091552734
114.2300033569336 453.9200134277344 15.6899995803833
105.7200012207031 451.8200073242188 15.59000015258789
102.3099975585938 450.9599914550781 16
109.8600006103516 452.8299865722656 16.5
89.12999725341797 447.6799926757812 12.88000011444092
98.77999877929688 450.0599975585938 14.85999965667725
112.6999969482422 453.5499877929688 16.15999984741211
109.25 452.6700134277344 16.56999969482422
101.6699981689453 450.7900085449219 16.06999969482422
89.19999694824219 447.0400085449219 12.80000019073486
90.76000213623047 447.3999938964844 14.01000022888184
90.16000366210938 447.2999877929688 13.88000011444092
92.5 447.8800048828125 14.27000045776367
91.94999694824219 447.6900024414062 14.27999973297119
93.84999847412109 448.2099914550781 14.28999996185303
89.55999755859375 447.1199951171875 13.73999977111816
97.13999938964844 449.0299987792969 14.3100004196167
98.29000091552734 449.2900085449219 14.60999965667725
95.76999664306641 448.6600036621094 14.27999973297119
94.51999664306641 448.3699951171875 14.23999977111816
96.41999816894531 448.8299865722656 14.27999973297119
102.2200012207031 450.2799987792969 16.19000053405762
102.870002746582 450.4400024414062 16.19000053405762
93.22000122070312 448.0599975585938 14.25
101.5999984741211 450.1000061035156 16.1200008392334
98.87999725341797 449.4599914550781 14.90999984741211
101.0699996948242 449.9800109863281 15.88000011444092
99.44999694824219 449.5799865722656 15.14000034332275
95.15000152587891 448.5 14.25
106.8600006103516 451.4400024414062 16.13999938964844
105.5999984741211 451.1099853515625 15.89999961853027
104.2699966430664 450.7799987792969 16.04000091552734
103.5500030517578 450.6099853515625 16.1200008392334
110.5400009155273 452.3500061035156 16.75
104.870002746582 450.9500122070312 15.97999954223633
111.1500015258789 452.510009765625 16.65999984741211
99.97000122070312 449.6900024414062 15.39999961853027
91.33000183105469 447.5400085449219 14.11999988555908
114.1500015258789 453.239990234375 15.69999980926514
109.2300033569336 452.0299987792969 16.94000053405762
111.9300003051758 452.7000122070312 16.55999946594238
109.8399963378906 452.1600036621094 16.79999923706055
108.5699996948242 451.8200073242188 16.94000053405762
100.5100021362305 449.8599853515625 15.64000034332275
97.70999908447266 449.1499938964844 14.32999992370605
107.4199981689453 451.5700073242188 16.36000061035156
112.5599975585938 452.8800048828125 16.39999961853027
106.2900009155273 451.2799987792969 15.85000038146973
113.4100036621094 453.0899963378906 16
107.9899978637695 451.7000122070312 16.63999938964844
90.19000244140625 446.489990234375 13.85000038146973
89.22000122070312 446.2699890136719 12.85999965667725
91.37000274658203 446.7999877929688 14.10999965667725
93.97000122070312 447.4500122070312 14.22999954223633
92.02999877929688 446.9599914550781 14.27999973297119
95.30000305175781 447.7799987792969 14.27000045776367
94.63999938964844 447.6099853515625 14.25
90.76999664306641 446.6400146484375 13.97000026702881
89.59999847412109 446.3200073242188 13.78999996185303
95.93000030517578 447.9400024414062 14.27999973297119
98.33000183105469 448.5 14.64999961853027
99.98999786376953 448.8999938964844 15.39999961853027
93.33000183105469 447.2699890136719 14.22999954223633
101.2300033569336 449.239990234375 15.72000026702881
96.51000213623047 448.0899963378906 14.28999996185303
99.44999694824219 448.7799987792969 15.11999988555908
102.4700012207031 449.5499877929688 15.85000038146973
103.0899963378906 449.7200012207031 15.9399995803833
105.5500030517578 450.3299865722656 16.20999908447266
101.7900009155273 449.3900146484375 15.77999973297119
100.5699996948242 449.0499877929688 15.65999984741211
92.62000274658203 447.0799865722656 14.26000022888184
106.879997253418 450.6499938964844 16.15999984741211
104.9800033569336 450.1700134277344 16.1299991607666
108.0100021362305 450.8999938964844 16.65999984741211
106.1900024414062 450.489990234375 16.20999908447266
103.7699966430664 449.8500061035156 16
97.80000305175781 448.3999938964844 14.35999965667725
110.4499969482422 451.510009765625 17.13999938964844
108.5400009155273 451.0599975585938 16.89999961853027
113.5899963378906 452.3299865722656 15.9399995803833
109.1100006103516 451.1900024414062 17.13999938964844
98.93000030517578 448.6799926757812 14.93000030517578
104.3300018310547 450 16.1299991607666
97.12999725341797 448.239990234375 14.27000045776367
109.7200012207031 451.3299865722656 17.22999954223633
112.75 452.1000061035156 16.30999946594238
111.1399993896484 451.6799926757812 17.02000045776367
111.9100036621094 451.9200134277344 16.72999954223633
114.3000030517578 452.489990234375 15.6899995803833
107.4499969482422 450.760009765625 16.39999961853027
89.23000335693359 445.5899963378906 12.82999992370605
90.72000122070312 445.9200134277344 13.97000026702881
89.55000305175781 445.6499938964844 13.75
91.33000183105469 446.0700073242188 14.10999965667725
93.19000244140625 446.5400085449219 14.17000007629395
92.56999969482422 446.4100036621094 14.21000003814697
93.90000152587891 446.7200012207031 14.18000030517578
90.15000152587891 445.7999877929688 13.86999988555908
95.77999877929688 447.1900024414062 14.23999977111816
96.48000335693359 447.3599853515625 14.25
91.88999938964844 446.2000122070312 14.26000022888184
97.09999847412109 447.510009765625 14.25
95.16000366210938 447.0499877929688 14.26000022888184
101.8600006103516 448.6900024414062 15.47000026702881
101.25 448.5400085449219 15.38000011444092
99.44000244140625 448.0799865722656 15.15999984741211
103.75 449.1600036621094 15.65999984741211
104.9899978637695 449.4700012207031 15.81999969482422
102.4899978637695 448.8699951171875 15.59000015258789
105.620002746582 449.6300048828125 15.88000011444092
106.870002746582 449.9599914550781 16.13999938964844
98.90000152587891 447.9599914550781 14.89999961853027
108.0599975585938 450.260009765625 16.65999984741211
106.2200012207031 449.8099975585938 16
108.5599975585938 450.3599853515625 16.88999938964844
103.0999984741211 448.989990234375 15.63000011444092
107.4599990844727 450.0799865722656 16.35000038146973
109.0999984741211 450.510009765625 17.17000007629395
97.73000335693359 447.7000122070312 14.35000038146973
109.6100006103516 450.6400146484375 17.40999984741211
111.7799987792969 451.1499938964844 16.79000091552734
111.0400009155273 450.9700012207031 17.1200008392334
104.3399963378906 449.2999877929688 15.75
115.8600006103516 452.2300109863281 12.93000030517578
114.1500015258789 451.7900085449219 15.68000030517578
115.2799987792969 452.1300048828125 12.71000003814697
113.4000015258789 451.6000061035156 16.04000091552734
112.6399993896484 451.3800048828125 16.3799991607666
94.48999786376953 446.8900146484375 14.18000030517578
100.0400009155273 448.260009765625 15.23999977111816
98.29000091552734 447.8099975585938 14.60999965667725
100.620002746582 448.3999938964844 15.31999969482422
110.1999969482422 450.75 17.47999954223633
89.54000091552734 445.0299987792969 13.73999977111816
90.08999633789062 445.1700134277344 13.86999988555908
93.31999969482422 445.9800109863281 14.11999988555908
90.70999908447266 445.3500061035156 13.98999977111816
95.20999908447266 446.4700012207031 14.19999980926514
92.62999725341797 445.8099975585938 14.14999961853027
97.12000274658203 446.9299926757812 14.28999996185303
91.36000061035156 445.4800109863281 14.14000034332275
98.30000305175781 447.2099914550781 14.63000011444092
91.94999694824219 445.6300048828125 14.22999954223633
99.45999908447266 447.5 14.90999984741211
97.70999908447266 447.0799865722656 14.35999965667725
102.6699981689453 448.2999877929688 15.26000022888184
100.129997253418 447.6900024414062 14.96000003814697
103.9300003051758 448.6199951171875 15.39999961853027
100.8000030517578 447.8299865722656 14.93000030517578
101.379997253418 447.9800109863281 15.10999965667725
89.18000030517578 444.9800109863281 12.89999961853027
96.48999786376953 446.7900085449219 14.22999954223633
93.98000335693359 446.1499938964844 14.15999984741211
106.8300018310547 449.3599853515625 16.09000015258789
103.2900009155273 448.4599914550781 15.35999965667725
98.84999847412109 447.3500061035156 14.85000038146973
94.59999847412109 446.3299865722656 14.19999980926514
109.0699996948242 449.8900146484375 17.1299991607666
95.81999969482422 446.6300048828125 14.22000026702881
107.4400024414062 449.5 16.36000061035156
110.2399978637695 450.2099914550781 17.5
107.9499969482422 449.6199951171875 16.61000061035156
108.4899978637695 449.7699890136719 16.85000038146973
105.7099990844727 449.0599975585938 15.64000034332275
113.4700012207031 451.0400085449219 15.98999977111816
116.0999984741211 451.6799926757812 14.07999992370605
106.3300018310547 449.2099914550781 15.84000015258789
116.75 451.8900146484375 14.14999961853027
102.0199966430664 448.1300048828125 15.22000026702881
112.7399978637695 450.8299865722656 16.32999992370605
104.5299987792969 448.7900085449219 15.47999954223633
111.0800018310547 450.3900146484375 17.07999992370605
109.6500015258789 450.0199890136719 17.42000007629395
114.25 451.2300109863281 15.72999954223633
111.8899993896484 450.6199951171875 16.70999908447266
105.120002746582 448.9100036621094 15.5600004196167
114.8000030517578 451.3599853515625 14.15999984741211
115.4199981689453 451.5400085449219 14.14999961853027
89.20999908447266 444.3900146484375 13.02000045776367
91.31999969482422 444.9100036621094 14.13000011444092
89.59999847412109 444.4500122070312 13.75
90.16999816894531 444.5799865722656 13.90999984741211
90.75 444.760009765625 14
91.98000335693359 445.0400085449219 14.25
92.62999725341797 445.239990234375 14.10000038146973
95.25 445.8599853515625 14.11999988555908
93.93000030517578 445.5299987792969 14.10000038146973
97.18000030517578 446.3399963378906 14.22999954223633
94.61000061035156 445.7000122070312 14.07999992370605
97.79000091552734 446.5299987792969 14.39000034332275
101.4700012207031 447.4500122070312 14.85999965667725
98.44000244140625 446.6499938964844 14.51000022888184
93.36000061035156 445.3999938964844 14.07999992370605
100.870002746582 447.260009765625 14.76000022888184
100.2200012207031 447.1199951171875 14.72999954223633
96.48000335693359 446.1900024414062 14.22999954223633
99.01999664306641 446.7999877929688 14.5600004196167
102.7600021362305 447.7300109863281 14.97000026702881
104.620002746582 448.1900024414062 15.19999980926514
105.2300033569336 448.3699951171875 15.28999996185303
95.88999938964844 446.010009765625 14.1899995803833
102.0899963378906 447.6000061035156 14.9399995803833
103.9599990844727 448.0400085449219 15.13000011444092
105.8000030517578 448.510009765625 15.4399995803833
103.370002746582 447.8999938964844 15.06999969482422
106.3199996948242 448.6099853515625 15.86999988555908
111.0899963378906 449.8099975585938 17.07999992370605
109.7300033569336 449.4599914550781 17.20999908447266
112.6800003051758 450.2099914550781 16.34000015258789
108.5599975585938 449.1499938964844 16.90999984741211
107.5100021362305 448.8999938964844 16.38999938964844
114.2399978637695 450.6199951171875 15.65999984741211
115.4300003051758 450.9100036621094 14.3100004196167
106.9300003051758 448.760009765625 16.1200008392334
113.4499969482422 450.4100036621094 15.98999977111816
108.0199966430664 449.0499877929688 16.64999961853027
114.7600021362305 450.739990234375 14.22999954223633
99.62999725341797 446.9599914550781 14.64000034332275
111.879997253418 450 16.71999931335449
116.0899963378906 451.1000061035156 14.26000022888184
109.0999984741211 449.3299865722656 17.13999938964844
110.3399963378906 449.6300048828125 17.29999923706055
116.7600021362305 451.25 14.25
94.12000274658203 444.8800048828125 14.05000019073486
92.83000183105469 444.5499877929688 14.03999996185303
95.33999633789062 445.1900024414062 14.09000015258789
94.75 445.0299987792969 14.10000038146973
96.65000152587891 445.510009765625 14.17000007629395
99.80000305175781 446.2999877929688 14.35000038146973
92.05000305175781 444.3500061035156 14.3100004196167
100.4400024414062 446.4599914550781 14.4399995803833
97.91999816894531 445.8399963378906 14.23999977111816
95.94000244140625 445.3699951171875 14.17000007629395
101.0400009155273 446.6000061035156 14.51000022888184
104.8000030517578 447.5400085449219 14.9399995803833
101.7099990844727 446.7799987792969 14.5600004196167
93.51999664306641 444.760009765625 14.07999992370605
103.5899963378906 447.239990234375 14.8100004196167
106.9899978637695 448.1000061035156 16.18000030517578
97.19999694824219 445.6499938964844 14.28999996185303
102.9700012207031 447.1300048828125 14.72999954223633
105.3899993896484 447.6900024414062 15.02000045776367
104.1900024414062 447.4200134277344 14.85999965667725
110.5500030517578 448.9800109863281 17.01000022888184
108.0599975585938 448.3699951171875 16.65999984741211
108.6600036621094 448.489990234375 16.77000045776367
112.0899963378906 449.3800048828125 16.67000007629395
99.18000030517578 446.1600036621094 14.25
109.9100036621094 448.7900085449219 16.93000030517578
111.2300033569336 449.1499938964844 17.03000068664551
102.370002746582 446.9599914550781 14.64000034332275
113.620002746582 449.7699890136719 15.96000003814697
116.1500015258789 450.4100036621094 14.35000038146973
112.8199996948242 449.5400085449219 16.28000068664551
115.4599990844727 450.25 14.3100004196167
106.4100036621094 447.9299926757812 15.86999988555908
98.54000091552734 445.9800109863281 14.27000045776367
109.3099975585938 448.6900024414062 16.86000061035156
114.870002746582 450.0700073242188 14.26000022888184
114.3399963378906 449.9400024414062 15.69999980926514
105.9000015258789 447.8099975585938 15.5
107.4899978637695 448.1900024414062 16.40999984741211
116.8300018310547 450.5899963378906 14.28999996185303
91.44000244140625 444.2099914550781 14.13000011444092
90.22000122070312 443.8999938964844 13.89000034332275
108.7900009155273 447.8900146484375 16.51000022888184
110.629997253418 448.3599853515625 16.68000030517578
108.1900024414062 447.75 16.42000007629395
90.84999847412109 444.0899963378906 14
112.7300033569336 448.8900146484375 16.31999969482422
89.26000213623047 443.7099914550781 12.97999954223633
110.0699996948242 448.2300109863281 16.61000061035156
114.3300018310547 449.2999877929688 15.67000007629395
114.870002746582 449.4800109863281 14.22000026702881
111.9599990844727 448.6799926757812 16.69000053405762
113.5699996948242 449.1000061035156 15.89000034332275
89.62999725341797 443.7799987792969 13.72999954223633
107.5599975585938 447.5799865722656 16.35000038146973
116.9100036621094 449.9800109863281 14.23999977111816
111.3099975585938 448.5199890136719 16.78000068664551
115.4700012207031 449.6000061035156 14.3100004196167
109.4000015258789 448.0400085449219 16.55999946594238
116.129997253418 449.7999877929688 14.35000038146973
89.16000366210938 443.010009765625 13.44999980926514
90.81999969482422 443.4200134277344 13.98999977111816
93.41999816894531 444.0799865722656 13.96000003814697
92.80999755859375 443.9200134277344 13.97999954223633
95.41000366210938 444.5700073242188 14.01000022888184
94.06999969482422 444.239990234375 14
88.97000122070312 442.9800109863281 12.22999954223633
89.65000152587891 443.1300048828125 13.77999973297119
91.48999786376953 443.6000061035156 14.13000011444092
99.25 445.5299987792969 14.1899995803833
101.1500015258789 446.0400085449219 14.27999973297119
97.26000213623047 445.0599975585938 14.26000022888184
96.69999694824219 444.8900146484375 14.07999992370605
90.23999786376953 443.2799987792969 13.88000011444092
99.87999725341797 445.7099914550781 14.17000007629395
103.0299987792969 446.4800109863281 14.42000007629395
101.7900009155273 446.2000122070312 14.32999992370605
94.72000122070312 444.3900146484375 14.05000019073486
97.91999816894531 445.2000122070312 14.34000015258789
105.5500030517578 447.1300048828125 14.75
102.3899993896484 446.3500061035156 14.35000038146973
105.9000015258789 447.1700134277344 15.61999988555908
107.0299987792969 447.489990234375 16.21999931335449
103.5999984741211 446.6300048828125 14.47999954223633
106.4400024414062 447.3099975585938 15.89999961853027
96.01000213623047 444.739990234375 14.03999996185303
104.9300003051758 446.9500122070312 14.64000034332275
92.01000213623047 443.7200012207031 14.26000022888184
98.61000061035156 445.3699951171875 14.21000003814697
100.4700012207031 445.8299865722656 14.26000022888184
104.3099975585938 446.8099975585938 14.5600004196167
88.93000030517578 442.4200134277344 12.18000030517578
89.68000030517578 442.5700073242188 13.75
92.16000366210938 443.1799926757812 14.27999973297119
93.55000305175781 443.5299987792969 13.98999977111816
90.31999969482422 442.75 13.93000030517578
96.73999786376953 444.3599853515625 14.06999969482422
96.08999633789062 444.1700134277344 14.03999996185303
92.91999816894531 443.3800048828125 13.94999980926514
89.30999755859375 442.510009765625 12.89000034332275
97.29000091552734 444.5 14.25
98.58999633789062 444.7900085449219 14.17000007629395
101.1699981689453 445.4700012207031 14.35999965667725
103.1900024414062 445.9800109863281 14.25
91.5 443.0400085449219 14.14999961853027
99.27999877929688 444.9700012207031 14.13000011444092
90.87999725341797 442.8699951171875 14.02000045776367
100.5599975585938 445.2799987792969 14.22999954223633
105.0199966430664 446.3999938964844 14.42000007629395
101.9100036621094 445.6499938964844 14.31999969482422
105.6699981689453 446.5700073242188 14.47999954223633
107.0599975585938 446.9200134277344 16.05999946594238
97.91999816894531 444.6099853515625 14.32999992370605
107.6399993896484 447.0400085449219 16.09000015258789
102.5800018310547 445.7900085449219 14.22000026702881
94.20999908447266 443.7000122070312 13.93000030517578
109.5699996948242 447.510009765625 16.32999992370605
94.80999755859375 443.8599853515625 14
103.8000030517578 446.1300048828125 14.30000019073486
99.93000030517578 445.1600036621094 14.14000034332275
95.41000366210938 443.989990234375 14.02000045776367
110.1999969482422 447.6799926757812 16.3700008392334
104.4199981689453 446.2799987792969 14.32999992370605
106.4599990844727 446.75 15.89000034332275
114.3399963378906 448.75 15.6899995803833
112.1399993896484 448.1499938964844 16.60000038146973
108.3199996948242 447.2300109863281 16.19000053405762
116.8899993896484 449.3800048828125 14.23999977111816
114.8899993896484 448.8699951171875 14.28999996185303
111.5400009155273 448.010009765625 16.51000022888184
110.8600006103516 447.8299865722656 16.45000076293945
112.8899993896484 448.3699951171875 16.26000022888184
105.879997253418 446.6000061035156 15.64999961853027
116.1699981689453 449.2300109863281 14.30000019073486
113.629997253418 448.5799865722656 15.89999961853027
108.9499969482422 447.3800048828125 16.29999923706055
115.5299987792969 449.0400085449219 14.35000038146973
92.87999725341797 442.7300109863281 13.97000026702881
94.19999694824219 443.0499877929688 13.96000003814697
91.51000213623047 442.3699951171875 14.14999961853027
95.5 443.3699951171875 14
92.81999969482422 442.7699890136719 12.39000034332275
93.51000213623047 442.9299926757812 12.19999980926514
96.16999816894531 443.5700073242188 13.97999954223633
92.12999725341797 442.5799865722656 12.47000026702881
90.79000091552734 442.2200012207031 12.57999992370605
100.6399993896484 444.7000122070312 14.22000026702881
101.9400024414062 445.0199890136719 14.21000003814697
99.37000274658203 444.3699951171875 14.05000019073486
94.86000061035156 443.2300109863281 13.94999980926514
96.80999755859375 443.7099914550781 14.02999973297119
97.48999786376953 443.8699951171875 14.09000015258789
103.2099990844727 445.3399963378906 14.17000007629395
100.0100021362305 444.5299987792969 14.0600004196167
101.1800003051758 444.7999877929688 14.36999988555908
106 446.0199890136719 15.6899995803833
106.5100021362305 446.1600036621094 14.26000022888184
105.1399993896484 445.7900085449219 14.22999954223633
105.8399963378906 445.9599914550781 14.26000022888184
104.5299987792969 445.6499938964844 14.17000007629395
93.48999786376953 442.9100036621094 13.94999980926514
110.3099975585938 447.0899963378906 16.07999992370605
92.15000152587891 442.5400085449219 14.28999996185303
98.72000122070312 444.2200012207031 14.03999996185303
98.05999755859375 444.0599975585938 14.14999961853027
108.4599990844727 446.6000061035156 15.89000034332275
112.1600036621094 447.5599975585938 16.29999923706055
112.8600006103516 447.739990234375 16.28000068664551
110.9499969482422 447.260009765625 16.17000007629395
109.0800018310547 446.75 15.96000003814697
111.5800018310547 447.3800048828125 16.21999931335449
103.870002746582 445.5 14.18000030517578
115.5999984741211 448.4500122070312 14.3100004196167
116.3199996948242 448.6300048828125 14.21000003814697
109.7099990844727 446.9200134277344 16.02000045776367
113.6999969482422 447.9200134277344 15.89000034332275
107.2799987792969 446.3399963378906 15.76000022888184
117 448.760009765625 14.27999973297119
114.9199981689453 448.2799987792969 14.26000022888184
106.6600036621094 446.1499938964844 15.68000030517578
107.2900009155273 446.3099975585938 17.3799991607666
102.5800018310547 445.1600036621094 14.10999965667725
107.8499984741211 446.4599914550781 15.81999969482422
96.22000122070312 442.8500061035156 13.9399995803833
96.87999725341797 443.010009765625 13.97999954223633
98.11000061035156 443.3500061035156 13.97000026702881
97.52999877929688 443.1799926757812 13.90999984741211
100.0800018310547 443.8599853515625 14.02000045776367
103.370002746582 444.6600036621094 14.09000015258789
94.90000152587891 442.5299987792969 13.9399995803833
95.86000061035156 442.760009765625 13.22999954223633
98.80000305175781 443.489990234375 13.98999977111816
102.7099990844727 444.5199890136719 14.10000038146973
102.129997253418 444.3599853515625 14.10000038146973
105.870002746582 445.260009765625 14.1899995803833
107.1800003051758 445.6199951171875 14.3100004196167
101.3899993896484 444.1400146484375 14.1899995803833
107.3300018310547 445.6099853515625 17.36000061035156
108.6600036621094 445.9800109863281 15.67000007629395
100.6900024414062 444 14.15999984741211
105.2699966430664 445.1099853515625 14.19999980926514
109.9000015258789 446.2900085449219 15.72000026702881
99.45999908447266 443.6600036621094 14.05000019073486
109.3000030517578 446.1199951171875 15.63000011444092
111.8300018310547 446.7300109863281 15.9399995803833
111.2200012207031 446.6099853515625 15.85000038146973
106.5400009155273 445.4700012207031 14.21000003814697
104.5899963378906 444.9500122070312 14.14999961853027
113.7699966430664 447.2300109863281 15.82999992370605
113.0599975585938 447.0599975585938 16.05999946594238
115.0599975585938 447.5700073242188 14.22000026702881
110.5800018310547 446.4200134277344 15.81999969482422
115.6500015258789 447.739990234375 14.27999973297119
116.3499984741211 447.9299926757812 14.22999954223633
95.54000091552734 442.7099914550781 13.98999977111816
107.6900024414062 445.6700134277344 18.21999931335449
116.9899978637695 448.0599975585938 14.22999954223633
112.4300003051758 446.8800048828125 16.03000068664551
104.0100021362305 444.8200073242188 14.06999969482422
112.4599990844727 446.2699890136719 15.72999954223633
115.0299987792969 446.989990234375 14.09000015258789
111.7699966430664 446.1199951171875 15.64999961853027
111.1999969482422 445.989990234375 15.65999984741211
113.75 446.6000061035156 15.80000019073486
116.3600006103516 447.2900085449219 14.17000007629395
113.0699996948242 446.4400024414062 15.77000045776367
117.0400009155273 447.4800109863281 14.23999977111816
113.3899993896484 446.5700073242188 11.38000011444092
115.6900024414062 447.1499938964844 14.19999980926514
97.01000213623047 442.4299926757812 13.57999992370605
100.6699981689453 443.3500061035156 13.98999977111816
98.79000091552734 442.8800048828125 13.93000030517578
98.09999847412109 442.7000122070312 13.97999954223633
97.55000305175781 442.6000061035156 13.93000030517578
102.5800018310547 443.8200073242188 14.06999969482422
99.37999725341797 443.0299987792969 13.97000026702881
103.2900009155273 444.0400085449219 14.05000019073486
101.9899978637695 443.6799926757812 13.97999954223633
105.879997253418 444.6600036621094 14.13000011444092
106.6100006103516 444.8399963378906 14.14000034332275
100.0500030517578 443.2000122070312 13.97000026702881
103.9499969482422 444.2099914550781 14.05000019073486
105.2200012207031 444.5199890136719 14.10000038146973
107.1500015258789 445 14.22000026702881
104.5500030517578 444.3200073242188 14.09000015258789
101.370002746582 443.5199890136719 14.01000022888184
100.0299987792969 442.6600036621094 13.9399995803833
101.3899993896484 442.9800109863281 13.93000030517578
100.7200012207031 442.8099975585938 13.97000026702881
102.620002746582 443.2900085449219 14
106.4599990844727 444.25 14.10000038146973
103.2799987792969 443.4500122070312 13.97999954223633
105.8600006103516 444.1099853515625 14.06999969482422
105.2099990844727 443.9599914550781 14.0600004196167
107.0800018310547 444.3999938964844 14.14999961853027
103.879997253418 443.5899963378906 14.02999973297119
102.0100021362305 443.1700134277344 14
104.5500030517578 443.7900085449219 14.02999973297119
113.7699966430664 446.0599975585938 15.60999965667725
116.4000015258789 446.739990234375 13.80000019073486
114.379997253418 446.2300109863281 15.71000003814697
113.4000015258789 446.0499877929688 11.38000011444092
116.9199981689453 446.8500061035156 14.14999961853027
113.6100006103516 446.0799865722656 12.61999988555908
103.1800003051758 442.75 14.26000022888184
102.620002746582 442.6199951171875 13.94999980926514
107.1800003051758 443.7799987792969 14.13000011444092
103.9400024414062 442.9700012207031 13.9399995803833
106.5199966430664 443.6199951171875 14.03999996185303
105.2600021362305 443.2799987792969 13.98999977111816
105.9499969482422 443.4400024414062 14.02999973297119
104.620002746582 443.1199951171875 13.94999980926514
106.4599990844727 442.7999877929688 14.02000045776367
105.8499984741211 442.6600036621094 13.9399995803833
107.1500015258789 442.9700012207031 14.09000015258789
107.6900024414062 442.4400024414062 13.98999977111816
107.0199966430664 442.2999877929688 13.97999954223633
106.9400024414062 441.7300109863281 14.11999988555908
108.2900009155273 442.0299987792969 14.06999969482422
107.5299987792969 441.8800048828125 14.17000007629395
109.6800003051758 442.3800048828125 13.97999954223633
110.2699966430664 442.5400085449219 14.06999969482422
108.9700012207031 442.2300109863281 14.05000019073486
106.9100036621094 441.1000061035156 14.06999969482422
107.4599990844727 441.2200012207031 14.3100004196167
108.129997253418 441.3900146484375 14.28999996185303
110.1100006103516 441.8800048828125 14.10000038146973
108.8300018310547 441.5799865722656 14.21000003814697
112.8099975585938 442.5599975585938 14.05000019073486
110.8199996948242 442.0899963378906 14.03999996185303
111.5299987792969 442.25 13.97999954223633
112.1800003051758 442.4299926757812 14.01000022888184
109.4599990844727 441.75 14.15999984741211
107.4700012207031 440.5400085449219 14.27999973297119
106.8899993896484 440.3699951171875 14.05000019073486
111.4100036621094 441.5199890136719 14.25
113.4199981689453 442.010009765625 14.06999969482422
110.0699996948242 441.1700134277344 14.35999965667725
112.7600021362305 441.8599853515625 14.13000011444092
110.7200012207031 441.3299865722656 14.27999973297119
109.3899993896484 441.0299987792969 14.43000030517578
112.0899963378906 441.6700134277344 14.17000007629395
108.0500030517578 440.6799926757812 14.48999977111816
108.8000030517578 440.8599853515625 14.47999954223633
106.7099990844727 439.6900024414062 12.55000019073486
107.5699996948242 439.8599853515625 15.55000019073486
107.2099990844727 439.7900085449219 14.68000030517578
106.8099975585938 439.6900024414062 14.0600004196167
108.5299987792969 440.1400146484375 14.67000007629395
111.2099990844727 440.8200073242188 14.51000022888184
112.629997253418 441.1799926757812 14.34000015258789
113.4000015258789 441.3699951171875 14.02000045776367
111.9000015258789 440.9599914550781 14.47000026702881
109.8600006103516 440.4500122070312 14.61999988555908
107.9700012207031 439.9700012207031 14.5
110.5400009155273 440.6199951171875 14.5600004196167
109.1600036621094 440.2699890136719 14.65999984741211
108.620002746582 439.5199890136719 14.59000015258789
109.8399963378906 439.8500061035156 14.76000022888184
108.0299987792969 439.3999938964844 14.47999954223633
111.1500015258789 440.1799926757812 14.77000045776367
112.5999984741211 440.5499877929688 14.39999961853027
109.2200012207031 439.6700134277344 14.6899995803833
107.4100036621094 439.2300109863281 14.27999973297119
110.4700012207031 439.9800109863281 14.76000022888184
113.3499984741211 440.739990234375 14.14000034332275
111.7900009155273 440.3399963378906 14.65999984741211
106.8300018310547 439.1099853515625 14.06999969482422
107.9800033569336 438.7000122070312 14.35000038146973
107.370002746582 438.5499877929688 14.23999977111816
106.8099975585938 438.4200134277344 14.02999973297119
109.9199981689453 439.1900024414062 14.47999954223633
113.4000015258789 440.1000061035156 14.11999988555908
110.5299987792969 439.3399963378906 14.56999969482422
111.8600006103516 439.6799926757812 14.64000034332275
108.5899963378906 438.8599853515625 14.35000038146973
111.1800003051758 439.510009765625 14.60000038146973
112.6100006103516 439.8999938964844 14.34000015258789
109.2600021362305 439.0199890136719 14.44999980926514
108.7699966430664 438.1900024414062 14.17000007629395
110.6500015258789 438.6700134277344 14.3100004196167
109.9700012207031 438.510009765625 14.27000045776367
107.0500030517578 437.7799987792969 13.60000038146973
108.129997253418 438.0299987792969 14.10000038146973
109.3600006103516 438.3399963378906 14.19999980926514
107.5999984741211 437.8900146484375 13.94999980926514
111.8899993896484 438.989990234375 14.4399995803833
113.2600021362305 439.3500061035156 14.14999961853027
112.5899963378906 439.1600036621094 14.38000011444092
111.2900009155273 438.8299865722656 14.38000011444092
107.629997253418 437.2999877929688 13.39000034332275
110.629997253418 438.0499877929688 14.10000038146973
108.9400024414062 437.6499938964844 13.47999954223633
112.5699996948242 438.5599975585938 14.27999973297119
110.0299987792969 437.8999938964844 13.94999980926514
109.5100021362305 437.7999877929688 13.60000038146973
111.9599990844727 438.3699951171875 14.23999977111816
106.9800033569336 437.1799926757812 13.39000034332275
111.3199996948242 438.2200012207031 14.18000030517578
113.2900009155273 438.7300109863281 14.07999992370605
108.2200012207031 437.4400024414062 13.4399995803833
107.1500015258789 436.6300048828125 13.26000022888184
110.8600006103516 437.5599975585938 13.5
112.5699996948242 437.9800109863281 14.07999992370605
108.9899978637695 437.1000061035156 13.27999973297119
110.2600021362305 437.4500122070312 13.44999980926514
109.5800018310547 437.2900085449219 13.39000034332275
