275.8299865722656 291.2300109863281 9.710000038146973
271.25 290.0899963378906 9.529999732971191
274.7200012207031 290.9800109863281 9.680000305175781
277.2799987792969 291.6600036621094 6.590000152587891
273.2699890136719 290 9.5
277.6799926757812 291.1199951171875 6.590000152587891
272.7000122070312 289.8800048828125 9.5
272.1000061035156 289.7000122070312 9.470000267028809
274.9800109863281 290.4400024414062 9.579999923706055
277.2900085449219 290.9800109863281 9.710000038146973
276.7099914550781 290.8599853515625 9.649999618530273
271 289.4100036621094 9.449999809265137
273.8500061035156 290.1600036621094 9.529999732971191
278.2699890136719 291.2900085449219 6.519999980926514
276.1700134277344 290.7099914550781 9.640000343322754
275.5199890136719 290.5799865722656 9.609999656677246
271.6000061035156 289.5899963378906 9.420000076293945
274.4100036621094 290.2699890136719 9.539999961853027
271.3999938964844 288.8800048828125 9.329999923706055
275.4500122070312 289.8800048828125 9.470000267028809
276.5599975585938 290.1499938964844 9.550000190734863
273.7300109863281 289.4800109863281 9.430000305175781
273.1900024414062 289.2900085449219 9.420000076293945
274.8900146484375 289.7200012207031 9.489999771118164
272.0499877929688 289.0400085449219 9.319999694824219
278.0700073242188 290.6000061035156 6.619999885559082
277.5 290.4299926757812 6.559999942779541
278.1499938964844 290.5700073242188 7.630000114440918
276.0199890136719 290.0299987792969 9.489999771118164
274.3500061035156 289.6199951171875 9.430000305175781
277.1300048828125 290.2999877929688 9.569999694824219
272.5700073242188 289.1499938964844 9.359999656677246
271.8999938964844 288.260009765625 9.210000038146973
275.8699951171875 289.2300109863281 9.399999618530273
273.0299987792969 288.5400085449219 9.279999732971191
275.25 289.0799865722656 9.329999923706055
278.1099853515625 289.8200073242188 7.690000057220459
272.4599914550781 288.3999938964844 9.239999771118164
276.4500122070312 289.3699951171875 9.409999847412109
274.739990234375 288.9500122070312 9.310000419616699
271.3599853515625 288.0899963378906 9.229999542236328
277.3900146484375 289.6600036621094 6.559999942779541
278.0400085449219 289.8099975585938 6.550000190734863
273.5899963378906 288.6700134277344 9.319999694824219
274.1499938964844 288.8299865722656 9.319999694824219
277.0400085449219 289.5400085449219 9.430000305175781
272.8200073242188 287.8399963378906 9.130000114440918
273.4400024414062 287.989990234375 9.170000076293945
274.6300048828125 288.3099975585938 9.239999771118164
271.0599975585938 287.4299926757812 9.119999885559082
277.4100036621094 289.0199890136719 9.409999847412109
276.8299865722656 288.8599853515625 9.319999694824219
275.1499938964844 288.4200134277344 9.239999771118164
277.7900085449219 289.1499938964844 6.590000152587891
273.989990234375 288.1300048828125 9.210000038146973
275.7300109863281 288.5700073242188 9.260000228881836
271.6900024414062 287.5499877929688 9.159999847412109
276.25 288.6900024414062 9.350000381469727
277.1900024414062 289 6.570000171661377
272.2900085449219 287.7300109863281 9.130000114440918
271.4599914550781 286.9800109863281 9.029999732971191
272.010009765625 287.1000061035156 8.989999771118164
273.6700134277344 287.510009765625 9.119999885559082
275.3999938964844 287.9299926757812 9.159999847412109
274.8299865722656 287.7999877929688 9.130000114440918
277.1000061035156 288.3699951171875 9.270000457763672
278.1400146484375 288.6600036621094 6.599999904632568
272.5199890136719 287.25 9.050000190734863
275.989990234375 288.1099853515625 9.189999580383301
270.8800048828125 286.8500061035156 9.079999923706055
277.5599975585938 288.510009765625 6.590000152587891
278.2000122070312 288.6700134277344 7.650000095367432
273.1600036621094 287.4100036621094 9.100000381469727
274.2799987792969 287.6900024414062 9.140000343322754
276.5700073242188 288.2300109863281 9.229999542236328
276.9299926757812 288.3599853515625 6.619999885559082
271.7699890136719 286.4700012207031 8.920000076293945
271.1900024414062 286.2900085449219 8.979999542236328
275.2799987792969 287.3200073242188 9.039999961853027
274.7099914550781 287.1700134277344 9.029999732971191
272.9200134277344 286.7300109863281 9.020000457763672
277.3200073242188 287.8999938964844 6.579999923706055
277.8599853515625 288 6.579999923706055
275.8200073242188 287.4800109863281 9.100000381469727
272.3900146484375 286.6199951171875 8.949999809265137
276.3699951171875 287.6000061035156 9.039999961853027
273.5199890136719 286.8800048828125 8.989999771118164
274.1400146484375 287.0599975585938 9.010000228881836
276.9100036621094 287.7200012207031 9.170000076293945
272.1499938964844 285.8599853515625 8.800000190734863
272.7099914550781 286 8.869999885559082
274.9800109863281 286.5400085449219 8.909999847412109
273.8200073242188 286.25 8.899999618530273
273.2699890136719 286.1199951171875 8.859999656677246
277.25 287.1000061035156 9.069999694824219
276.1300048828125 286.8299865722656 8.949999809265137
275.5400085449219 286.7099914550781 9
278.2900085449219 287.3999938964844 6.630000114440918
274.4100036621094 286.4200134277344 8.899999618530273
277.0899963378906 287.1000061035156 6.570000171661377
277.7200012207031 287.2699890136719 6.53000020980835
276.7099914550781 286.9700012207031 9.039999961853027
273.010009765625 285.3999938964844 8.720000267028809
272.489990234375 285.239990234375 8.760000228881836
273.6499938964844 285.5400085449219 8.779999732971191
274.8299865722656 285.8200073242188 8.819999694824219
274.2099914550781 285.7000122070312 8.779999732971191
277.0299987792969 286.3699951171875 8.989999771118164
276.8599853515625 286.3900146484375 6.550000190734863
278.0899963378906 286.7000122070312 7.710000038146973
278.0599975585938 286.6799926757812 6.559999942779541
275.9299926757812 286.1300048828125 8.840000152587891
276.4700012207031 286.239990234375 8.880000114440918
275.3800048828125 285.9500122070312 8.840000152587891
271.8900146484375 285.0899963378906 8.739999771118164
277.4500122070312 286.510009765625 6.579999923706055
271.3200073242188 284.9400024414062 8.75
271.1700134277344 284.3200073242188 8.680000305175781
274.6000061035156 285.1700134277344 8.680000305175781
274.010009765625 284.989990234375 8.680000305175781
273.4400024414062 284.8599853515625 8.649999618530273
276.739990234375 285.7000122070312 6.639999866485596
277.2999877929688 285.8599853515625 6.550000190734863
276.8900146484375 285.739990234375 8.829999923706055
275.1700134277344 285.3099975585938 8.699999809265137
276.2699890136719 285.6099853515625 8.789999961853027
277.8399963378906 286.0199890136719 6.570000171661377
275.6900024414062 285.4200134277344 8.720000267028809
273.8999938964844 284.3399963378906 8.529999732971191
273.2900085449219 284.2000122070312 8.539999961853027
276.760009765625 285.0599975585938 8.670000076293945
275.0599975585938 284.6400146484375 8.590000152587891
275.6600036621094 284.7900085449219 8.640000343322754
272.7300109863281 284.0299987792969 8.550000190734863
278.2900085449219 285.4700012207031 6.519999980926514
277.7300109863281 285.3099975585938 6.570000171661377
274.4800109863281 284.4800109863281 8.560000419616699
277.1099853515625 285.1900024414062 6.550000190734863
276.1799926757812 284.8900146484375 8.640000343322754
274.8099975585938 283.8200073242188 8.529999732971191
274.239990234375 283.7000122070312 8.5
273.6799926757812 283.5400085449219 8.510000228881836
276.5199890136719 284.2699890136719 8.529999732971191
278.1000061035156 284.7099914550781 6.510000228881836
275.9100036621094 284.1000061035156 8.5
275.3399963378906 283.9599914550781 8.5
276.7799987792969 283.7099914550781 8.5
276.239990234375 283.5400085449219 8.510000228881836
271.1700134277344 284.1499938964844 8.670000076293945
270.3800048828125 284.6099853515625 6.679999828338623
271.1099853515625 284.8500061035156 8.760000228881836
269.9200134277344 285.1600036621094 6.510000228881836
268.7000122070312 284.8599853515625 6.5
269.2900085449219 284.9800109863281 6.570000171661377
269.0700073242188 290.8399963378906 9.149999618530273
267.7799987792969 290.489990234375 9.149999618530273
268.3900146484375 290.6499938964844 9.130000114440918
266.5400085449219 290.2200012207031 9.159999847412109
269.7900085449219 291.010009765625 9.159999847412109
267.1600036621094 290.3699951171875 9.130000114440918
270.7000122070312 291.8900146484375 9.810000419616699
269.1900024414062 291.5400085449219 9.270000457763672
267.2699890136719 291.0299987792969 9.189999580383301
266.6000061035156 290.8699951171875 9.130000114440918
265.9500122070312 290.7099914550781 9.119999885559082
264.6000061035156 290.3999938964844 9.119999885559082
267.9100036621094 291.2099914550781 9.180000305175781
269.8399963378906 291.6799926757812 9.310000419616699
265.260009765625 290.5599975585938 9.090000152587891
268.5599975585938 291.3500061035156 9.260000228881836
267.25 291.8399963378906 9.319999694824219
266.6600036621094 291.6799926757812 9.279999732971191
264.1000061035156 291.0499877929688 9.310000419616699
265.9800109863281 291.5199890136719 9.279999732971191
264.7200012207031 291.1700134277344 9.25
265.3999938964844 291.3699951171875 9.210000038146973
270.739990234375 292.6799926757812 9.899999618530273
269.2799987792969 292.3299865722656 9.380000114440918
268.5499877929688 292.1600036621094 9.380000114440918
269.9299926757812 292.4700012207031 9.460000038146973
267.9200134277344 292 9.369999885559082
271.010009765625 293.4400024414062 10.07999992370605
266.260009765625 292.2900085449219 9.409999847412109
268.25 292.75 9.449999809265137
266.989990234375 292.4299926757812 9.420000076293945
268.8900146484375 292.9100036621094 9.5
264.9700012207031 291.9700012207031 9.340000152587891
269.5899963378906 293.1000061035156 9.5
264.3399963378906 291.8099975585938 9.319999694824219
267.5899963378906 292.5899963378906 9.430000305175781
265.6000061035156 292.1199951171875 9.340000152587891
269.0899963378906 293.5899963378906 9.640000343322754
269.7799987792969 293.7699890136719 9.659999847412109
266.4800109863281 292.9500122070312 9.520000457763672
270.5299987792969 293.989990234375 10.10000038146973
263.9400024414062 292.3200073242188 9.5
268.4100036621094 293.4200134277344 9.630000114440918
267.1199951171875 293.1199951171875 9.539999961853027
265.239990234375 292.6400146484375 9.460000038146973
265.8099975585938 292.8200073242188 9.510000228881836
264.510009765625 292.4800109863281 9.439999580383301
267.7300109863281 293.25 9.579999923706055
268.6400146484375 294.2000122070312 9.729999542236328
269.3399963378906 294.3800048828125 9.770000457763672
266.760009765625 293.739990234375 9.630000114440918
266.0499877929688 293.5700073242188 9.600000381469727
270.6600036621094 294.6900024414062 10.01000022888184
267.3200073242188 293.8999938964844 9.689999580383301
264.0899963378906 293.0799865722656 9.529999732971191
264.7000122070312 293.2200012207031 9.510000228881836
267.989990234375 294.0199890136719 9.720000267028809
265.3299865722656 293.3999938964844 9.539999961853027
269.9500122070312 294.510009765625 9.789999961853027
269.4200134277344 295.1499938964844 9.930000305175781
268.0599975585938 294.8299865722656 9.800000190734863
264.1600036621094 293.8500061035156 9.689999580383301
263.5899963378906 293.7099914550781 9.829999923706055
268.7300109863281 295.0199890136719 9.869999885559082
270.0599975585938 295.3200073242188 9.850000381469727
266.1099853515625 294.3800048828125 9.779999732971191
264.8699951171875 294.0299987792969 9.659999847412109
266.75 294.489990234375 9.800000190734863
265.4800109863281 294.2099914550781 9.739999771118164
270.7000122070312 295.489990234375 9.899999618530273
267.4200134277344 294.6799926757812 9.800000190734863
269.5799865722656 295.8800048828125 9.819999694824219
270.2300109863281 296.0599975585938 9.840000152587891
267.6600036621094 295.3900146484375 9.859999656677246
264.3900146484375 294.5799865722656 9.770000457763672
268.2900085449219 295.5400085449219 9.880000114440918
265.7300109863281 294.9400024414062 9.869999885559082
267.0199890136719 295.25 9.880000114440918
265.0400085449219 294.7300109863281 9.819999694824219
266.4100036621094 295.0700073242188 9.890000343322754
263.760009765625 294.4200134277344 9.800000190734863
270.7799987792969 296.1700134277344 9.779999732971191
268.9299926757812 295.7200012207031 9.819999694824219
270.2799987792969 296.6400146484375 9.720000267028809
268.3200073242188 296.1700134277344 9.770000457763672
267.7000122070312 296.010009765625 9.789999961853027
265.7699890136719 295.5599975585938 9.880000114440918
266.4299926757812 295.7099914550781 9.850000381469727
269.6400146484375 296.5199890136719 9.760000228881836
270.9100036621094 296.7999877929688 9.670000076293945
265.1700134277344 295.3900146484375 9.869999885559082
264.5799865722656 295.2300109863281 9.869999885559082
267.0299987792969 295.8299865722656 9.840000152587891
268.9800109863281 296.3200073242188 9.75
263.8500061035156 295.0799865722656 9.840000152587891
269.6700134277344 297.1900024414062 9.600000381469727
268.4100036621094 296.8500061035156 9.689999580383301
267.8500061035156 296.739990234375 9.710000038146973
267.1400146484375 296.5400085449219 9.729999542236328
269.0799865722656 297.0499877929688 9.619999885559082
265.260009765625 296.1000061035156 9.779999732971191
270.3200073242188 297.3200073242188 9.600000381469727
264.0199890136719 295.760009765625 9.829999923706055
270.9200134277344 297.489990234375 9.529999732971191
265.9100036621094 296.2300109863281 9.770000457763672
263.3900146484375 295.6300048828125 9.960000038146973
266.5799865722656 296.4299926757812 9.729999542236328
264.5799865722656 295.9299926757812 9.800000190734863
270.3900146484375 298.1300048828125 9.439999580383301
271.0199890136719 298.2699890136719 9.430000305175781
267.8399963378906 297.5 9.579999923706055
268.4800109863281 297.6400146484375 9.529999732971191
265.2999877929688 296.8399963378906 9.699999809265137
267.1600036621094 297.3099975585938 9.560000419616699
264.7300109863281 296.7300109863281 9.739999771118164
269.760009765625 297.9800109863281 9.489999771118164
266.5299987792969 297.1700134277344 9.630000114440918
264.0499877929688 296.5400085449219 9.710000038146973
263.4700012207031 296.3800048828125 9.899999618530273
269.1099853515625 297.7900085449219 9.520000457763672
265.9100036621094 297 9.630000114440918
263.6199951171875 297.1000061035156 9.800000190734863
264.8699951171875 297.4200134277344 9.529999732971191
264.1700134277344 297.25 9.560000419616699
269.8800048828125 298.6499938964844 9.350000381469727
271.1000061035156 298.9700012207031 9.319999694824219
268.6499938964844 298.3299865722656 9.409999847412109
267.3800048828125 298.0199890136719 9.439999580383301
269.2300109863281 298.510009765625 9.399999618530273
265.4700012207031 297.5799865722656 9.529999732971191
266.7200012207031 297.8900146484375 9.510000228881836
270.4800109863281 298.7900085449219 9.310000419616699
266.1099853515625 297.7000122070312 9.520000457763672
267.9700012207031 298.1700134277344 9.420000076293945
270.5700073242188 299.3800048828125 9.25
270.010009765625 299.260009765625 9.25
269.2900085449219 299.1000061035156 9.260000228881836
268.6700134277344 298.9299926757812 9.310000419616699
264.8599853515625 297.989990234375 9.460000038146973
266.0799865722656 298.2900085449219 9.409999847412109
268.0400085449219 298.760009765625 9.369999885559082
265.4400024414062 298.1499938964844 9.439999580383301
267.3699951171875 298.6300048828125 9.399999618530273
266.739990234375 298.4299926757812 9.439999580383301
264.260009765625 297.8399963378906 9.460000038146973
263.6900024414062 297.7000122070312 9.630000114440918
270.5299987792969 300.010009765625 9.119999885559082
269.9100036621094 299.8599853515625 9.130000114440918
265.5199890136719 298.7699890136719 9.300000190734863
268.1199951171875 299.4200134277344 9.25
266.8599853515625 299.0899963378906 9.279999732971191
269.3399963378906 299.6900024414062 9.159999847412109
266.1700134277344 298.9299926757812 9.279999732971191
264.9400024414062 298.6300048828125 9.359999656677246
268.7200012207031 299.5700073242188 9.220000267028809
264.2699890136719 298.4299926757812 9.380000114440918
267.4800109863281 299.25 9.25
269.4500122070312 300.4599914550781 9.159999847412109
266.8500061035156 299.8299865722656 9.159999847412109
268.1199951171875 300.1300048828125 9.130000114440918
265.489990234375 299.4700012207031 9.220000267028809
264.2799987792969 299.1700134277344 9.300000190734863
267.4700012207031 299.9599914550781 9.149999618530273
268.7799987792969 300.3099975585938 9.119999885559082
264.9100036621094 299.3299865722656 9.220000267028809
266.1700134277344 299.6700134277344 9.170000076293945
267.0700073242188 300.5799865722656 9.119999885559082
266.4500122070312 300.3900146484375 9.119999885559082
265.1400146484375 300.1000061035156 9.149999618530273
264.5799865722656 299.9100036621094 9.159999847412109
265.7699890136719 300.2099914550781 9.130000114440918
264.6099853515625 300.5400085449219 9.119999885559082
269.0499877929688 290.1900024414062 9.239999771118164
269.75 290.3900146484375 9.149999618530273
270.3800048828125 290.5499877929688 9.25
268.9299926757812 289.4700012207031 5.760000228881836
267.0599975585938 288.9599914550781 4.360000133514404
267.989990234375 289.2300109863281 5.03000020980835
270.8900146484375 289.989990234375 9.479999542236328
267.9500122070312 288.4299926757812 5
267.8699951171875 288.4200134277344 6.5
268.8399963378906 288.6900024414062 5.639999866485596
267.1900024414062 288.239990234375 4.570000171661377
269.6199951171875 288.8599853515625 6.110000133514404
270.7799987792969 289.2200012207031 9.430000305175781
267.260009765625 288.2999877929688 6.539999961853027
266.6000061035156 288.1099853515625 6.489999771118164
270.7099914550781 288.4800109863281 9.380000114440918
268.4100036621094 287.8800048828125 6.519999980926514
269.7000122070312 288.2099914550781 6.5
267.7799987792969 287.7300109863281 6.510000228881836
266.5199890136719 287.4400024414062 6.53000020980835
267.1099853515625 287.6000061035156 6.53000020980835
269.0599975585938 288.0400085449219 6.53000020980835
269.760009765625 287.6400146484375 6.519999980926514
269.0400085449219 287.4800109863281 6.539999961853027
267.7799987792969 287.1700134277344 6.510000228881836
270.7300109863281 287.8900146484375 9.350000381469727
268.489990234375 287.3200073242188 6.5
266.510009765625 286.8299865722656 6.53000020980835
267.1300048828125 287.010009765625 6.53000020980835
271.1300048828125 287.3599853515625 9.109999656677246
268.8900146484375 286.7799987792969 6.539999961853027
267.0499877929688 286.3500061035156 6.539999961853027
269.5899963378906 286.9500122070312 6.570000171661377
268.2900085449219 286.6300048828125 6.489999771118164
267.6300048828125 286.4700012207031 6.53000020980835
268.9100036621094 286.1300048828125 6.570000171661377
271.0499877929688 286.6799926757812 9
270.2099914550781 286.3999938964844 6.53000020980835
267.6099853515625 285.760009765625 6.519999980926514
268.3399963378906 285.9599914550781 6.5
269.5700073242188 286.25 6.53000020980835
269.989990234375 285.7300109863281 6.539999961853027
267.4599914550781 285.1000061035156 6.570000171661377
270.8699951171875 286 8.939999580383301
269.3500061035156 285.5799865722656 6.570000171661377
268.7200012207031 285.4200134277344 6.590000152587891
276.5599975585938 284.260009765625 8.470000267028809
274.6799926757812 283.7799987792969 8.489999771118164
275.25 283.9400024414062 8.479999542236328
274.0400085449219 283.6099853515625 8.569999694824219
275.8999938964844 284.1000061035156 8.430000305175781
276.8599853515625 284.9400024414062 8.630000114440918
276.1600036621094 284.7699890136719 8.590000152587891
274.2200012207031 284.2699890136719 8.550000190734863
277.3900146484375 285.0700073242188 6.579999923706055
273.5499877929688 284.1199951171875 8.479999542236328
277.989990234375 285.1799926757812 6.510000228881836
275.5299987792969 284.6000061035156 8.560000419616699
272.239990234375 283.8200073242188 8.550000190734863
272.9500122070312 283.9700012207031 8.489999771118164
274.8699951171875 284.4599914550781 8.550000190734863
271.6400146484375 283.6199951171875 8.600000381469727
276.9100036621094 284.9500122070312 7.090000152587891
278.0899963378906 285.8599853515625 6.539999961853027
276.8999938964844 285.5599975585938 6.849999904632568
277.4599914550781 285.6900024414062 6.559999942779541
276.9100036621094 285.5799865722656 8.75
274.9400024414062 285.0599975585938 8.670000076293945
271.739990234375 284.2999877929688 8.539999961853027
274.3299865722656 284.9299926757812 8.600000381469727
273.0499877929688 284.6000061035156 8.579999923706055
273.6700134277344 284.7799987792969 8.600000381469727
276.2300109863281 285.4200134277344 8.729999542236328
275.5799865722656 285.25 8.689999580383301
272.3999938964844 284.4500122070312 8.539999961853027
276.9100036621094 286.2200012207031 6.710000038146973
276.3399963378906 286.1199951171875 8.869999885559082
275.0799865722656 285.8099975585938 8.810000419616699
277.489990234375 286.3999938964844 6.570000171661377
274.4299926757812 285.6400146484375 8.789999961853027
277.010009765625 286.2799987792969 8.920000076293945
273.0599975585938 285.3299865722656 8.699999809265137
278.0499877929688 286.5199890136719 6.510000228881836
273.760009765625 285.4800109863281 8.739999771118164
275.7000122070312 285.9800109863281 8.800000190734863
271.7699890136719 284.9800109863281 8.699999809265137
272.4700012207031 285.1900024414062 8.710000038146973
276.9500122070312 286.9200134277344 6.590000152587891
276.5199890136719 286.8299865722656 8.949999809265137
274.5299987792969 286.3599853515625 8.880000114440918
277.6199951171875 287.0799865722656 6.550000190734863
278.25 287.2000122070312 6.5
277.2000122070312 287.010009765625 8.989999771118164
275.8399963378906 286.6400146484375 8.880000114440918
275.1400146484375 286.4700012207031 8.880000114440918
271.9800109863281 285.7099914550781 8.779999732971191
273.8800048828125 286.1499938964844 8.880000114440918
273.2699890136719 286 8.840000152587891
271.3299865722656 285.5299987792969 8.779999732971191
272.6499938964844 285.8500061035156 8.75
271.5199890136719 286.1499938964844 8.840000152587891
278.3299865722656 287.8099975585938 6.460000038146973
277.3699951171875 287.6400146484375 9.130000114440918
276.5700073242188 287.3900146484375 6.670000076293945
274.7699890136719 286.9500122070312 9.010000228881836
276.7300109863281 287.4400024414062 9.050000190734863
277.1099853515625 287.510009765625 6.519999980926514
277.7200012207031 287.6600036621094 6.539999961853027
272.1600036621094 286.3099975585938 8.890000343322754
274.1499938964844 286.7999877929688 8.960000038146973
275.4200134277344 287.1300048828125 8.960000038146973
272.8099975585938 286.4700012207031 8.880000114440918
276.0400085449219 287.3099975585938 9.039999961853027
273.4599914550781 286.6199951171875 8.960000038146973
277.2699890136719 288.1900024414062 6.519999980926514
277.4500122070312 288.2699890136719 9.039999961853027
276.6700134277344 288.0299987792969 6.650000095367432
276.9100036621094 288.1000061035156 9.189999580383301
273.6400146484375 287.3099975585938 9.029999732971191
274.8599853515625 287.6000061035156 9.090000152587891
276.2300109863281 287.9299926757812 9.170000076293945
272.3800048828125 287 8.979999542236328
273 287.1300048828125 9.039999961853027
274.260009765625 287.4400024414062 9.079999923706055
277.9599914550781 288.3299865722656 6.559999942779541
275.5400085449219 287.7999877929688 9.100000381469727
271.7300109863281 286.8500061035156 9.010000228881836
276.3099975585938 288.6900024414062 9.270000457763672
275.0299987792969 288.3500061035156 9.199999809265137
273.1000061035156 287.8599853515625 9.149999618530273
272.4100036621094 287.7200012207031 9.100000381469727
273.7900085449219 288.0599975585938 9.189999580383301
274.3999938964844 288.1799926757812 9.199999809265137
271.8099975585938 287.5499877929688 9.119999885559082
275.7000122070312 288.510009765625 9.220000267028809
277.2900085449219 288.8699951171875 6.550000190734863
277.8900146484375 289.0499877929688 6.559999942779541
276.9700012207031 288.8099975585938 7.420000076293945
277.0499877929688 288.8599853515625 9.289999961853027
278.0599975585938 289.7200012207031 6.570000171661377
277.1000061035156 289.4700012207031 7.349999904632568
277.4500122070312 289.5400085449219 6.510000228881836
274.4599914550781 288.8299865722656 9.270000457763672
273.8500061035156 288.6900024414062 9.260000228881836
277.1199951171875 289.5299987792969 9.409999847412109
275.1199951171875 289 9.300000190734863
273.2200012207031 288.5199890136719 9.220000267028809
275.8399963378906 289.1900024414062 9.319999694824219
272.5899963378906 288.3500061035156 9.239999771118164
276.4700012207031 289.3500061035156 9.399999618530273
271.260009765625 288.0400085449219 9.180000305175781
271.989990234375 288.2099914550781 9.159999847412109
277.1300048828125 290.0599975585938 7.519999980926514
278.010009765625 290.2900085449219 6.550000190734863
274.6199951171875 289.4800109863281 9.399999618530273
276.9599914550781 290.0199890136719 6.900000095367432
277.4200134277344 290.1099853515625 6.579999923706055
275.2900085449219 289.6300048828125 9.409999847412109
275.8699951171875 289.7999877929688 9.439999580383301
276.5799865722656 289.9400024414062 9.489999771118164
277.2000122070312 290.1099853515625 9.550000190734863
272.6600036621094 288.9800109863281 9.310000419616699
271.9599914550781 288.8399963378906 9.310000419616699
271.3500061035156 288.6799926757812 9.260000228881836
273.3099975585938 289.1600036621094 9.350000381469727
274 289.3099975585938 9.380000114440918
274.6400146484375 290.1499938964844 9.489999771118164
272.7099914550781 289.6900024414062 9.439999580383301
271.4700012207031 289.3599853515625 9.409999847412109
272.0899963378906 289.5 9.430000305175781
273.3500061035156 289.8299865722656 9.449999809265137
273.9599914550781 290.010009765625 9.470000267028809
277.5 290.8599853515625 6.579999923706055
276.989990234375 290.7300109863281 6.829999923706055
275.9700012207031 290.5199890136719 9.590000152587891
276.6600036621094 290.6799926757812 9.619999885559082
277.2799987792969 290.8099975585938 9.619999885559082
278.1400146484375 290.9800109863281 6.53000020980835
275.3099975585938 290.3399963378906 9.510000228881836
275.4599914550781 291.1300048828125 9.670000076293945
272.9100036621094 290.510009765625 9.619999885559082
276.9299926757812 291.4500122070312 6.75
271.5400085449219 290.1700134277344 9.550000190734863
273.5 290.6400146484375 9.590000152587891
276.739990234375 291.4400024414062 9.729999542236328
276.1400146484375 291.2799987792969 9.729999542236328
277.3699951171875 291.6199951171875 9.760000228881836
274.8500061035156 290.9800109863281 9.630000114440918
274.1099853515625 290.8099975585938 9.630000114440918
272.2200012207031 290.3099975585938 9.569999694824219
277.510009765625 291.5799865722656 6.539999961853027
278.1400146484375 291.75 6.570000171661377
278.3599853515625 292.4800109863281 6.429999828338623
276.9599914550781 292.2000122070312 9.859999656677246
278.3500061035156 292.4400024414062 4.480000019073486
277.6900024414062 292.3599853515625 9.899999618530273
276.3299865722656 292.0199890136719 9.810000419616699
275.6700134277344 291.8800048828125 9.789999961853027
277.7799987792969 292.3599853515625 6.590000152587891
274.3399963378906 291.510009765625 9.779999732971191
273.6499938964844 291.3500061035156 9.710000038146973
271.7900085449219 290.9100036621094 9.680000305175781
273.0499877929688 291.2000122070312 9.689999580383301
277.1600036621094 292.1900024414062 6.559999942779541
272.4200134277344 291.0700073242188 9.659999847412109
275.0599975585938 291.7200012207031 9.739999771118164
271.1600036621094 290.7200012207031 9.640000343322754
277.7900085449219 292.9800109863281 6.599999904632568
277.1199951171875 292.7999877929688 6.539999961853027
277.0899963378906 292.8099975585938 9.930000305175781
276.4400024414062 292.6499938964844 9.960000038146973
273.239990234375 291.8599853515625 9.800000190734863
277.7099914550781 293.010009765625 10.02999973297119
275.8500061035156 292.489990234375 9.939999580383301
274.5599975585938 292.2099914550781 9.890000343322754
272.6199951171875 291.7000122070312 9.770000457763672
275.1700134277344 292.3399963378906 9.859999656677246
271.260009765625 291.3800048828125 9.720000267028809
271.9100036621094 291.5599975585938 9.789999961853027
273.8399963378906 292 9.840000152587891
276.5400085449219 292.6600036621094 6.639999866485596
277.8399963378906 293.7000122070312 10.10000038146973
276.6700134277344 293.3599853515625 6.75
276.5899963378906 293.3800048828125 10.0600004196167
273.8800048828125 292.7099914550781 9.939999580383301
277.2000122070312 293.5199890136719 10.06999969482422
272.6000061035156 292.3900146484375 9.890000343322754
271.3299865722656 292.0499877929688 9.859999656677246
273.1799926757812 292.5400085449219 9.890000343322754
275.260009765625 293.0299987792969 9.989999771118164
271.9700012207031 292.239990234375 9.869999885559082
275.8699951171875 293.1700134277344 10.06999969482422
274.5799865722656 292.8800048828125 9.949999809265137
278.3099975585938 293.7300109863281 6.03000020980835
277.2000122070312 293.4599914550781 6.559999942779541
277.9299926757812 293.6600036621094 6.539999961853027
278.5199890136719 293.7699890136719 4.610000133514404
278.2799987792969 294.5199890136719 5.690000057220459
277.1799926757812 294.2799987792969 10.10000038146973
275.3399963378906 293.8500061035156 10.11999988555908
277.7999877929688 294.4500122070312 10.09000015258789
274.6400146484375 293.6600036621094 10.07999992370605
271.4100036621094 292.8399963378906 9.989999771118164
276.5499877929688 294.1300048828125 10.10999965667725
277.8900146484375 294.4100036621094 6.559999942779541
273.3599853515625 293.3500061035156 10.02000045776367
277.2099914550781 294.239990234375 6.579999923706055
272.0799865722656 293.0199890136719 9.970000267028809
272.7099914550781 293.1799926757812 10.02000045776367
275.9200134277344 294 10.14000034332275
274.0199890136719 293.510009765625 10.05000019073486
278.2999877929688 295.2000122070312 4.960000038146973
278 295.1799926757812 9.859999656677246
278.0899963378906 295.1900024414062 6.550000190734863
277.510009765625 295.0400085449219 6.570000171661377
276.9599914550781 294.9100036621094 6.840000152587891
277.4500122070312 295.0599975585938 9.949999809265137
275.4599914550781 294.5400085449219 10.01000022888184
274.9100036621094 294.4299926757812 10.01000022888184
273.5799865722656 294.1099853515625 10.14000034332275
272.2999877929688 293.760009765625 10.06999969482422
276.7900085449219 294.8800048828125 9.960000038146973
274.1799926757812 294.239990234375 10.06999969482422
272.8900146484375 293.9200134277344 10.14000034332275
271.6199951171875 293.5899963378906 10.10000038146973
276.1199951171875 294.739990234375 9.989999771118164
276.2300109863281 295.3699951171875 9.899999618530273
276.9200134277344 295.5400085449219 6.449999809265137
277.4800109863281 295.7000122070312 9.869999885559082
272.5 294.4700012207031 10.05000019073486
271.2200012207031 294.1499938964844 10.09000015258789
275 295.0499877929688 9.909999847412109
273.0799865722656 294.6300048828125 10.03999996185303
273.7099914550781 294.75 9.970000267028809
274.3800048828125 294.9100036621094 9.949999809265137
271.8900146484375 294.2999877929688 10.05000019073486
276.8800048828125 295.5599975585938 9.909999847412109
275.6000061035156 295.239990234375 9.899999618530273
276.9500122070312 295.4800109863281 4.559999942779541
277.0799865722656 296.2200012207031 4.550000190734863
277.6300048828125 296.4200134277344 9.770000457763672
275.739990234375 295.9500122070312 9.819999694824219
277.0299987792969 296.2699890136719 9.739999771118164
272.4800109863281 295.1400146484375 9.970000267028809
271.8999938964844 295.010009765625 9.930000305175781
273.7999877929688 295.4700012207031 9.859999656677246
274.4599914550781 295.6300048828125 9.829999923706055
275.0599975585938 295.7900085449219 9.819999694824219
276.7799987792969 296.1700134277344 7.349999904632568
273.1300048828125 295.3500061035156 9.899999618530273
276.3900146484375 296.1300048828125 9.75
277.0299987792969 296.2300109863281 6.110000133514404
271.25 294.8399963378906 9.989999771118164
276.7999877929688 296.989990234375 7.309999942779541
276.3200073242188 296.9100036621094 9.680000305175781
275.7000122070312 296.760009765625 9.689999580383301
277.0400085449219 297 6.110000133514404
275.1099853515625 296.6099853515625 9.720000267028809
276.6499938964844 296.8900146484375 4.980000019073486
272.5700073242188 295.9800109863281 9.819999694824219
276.9500122070312 297.0499877929688 9.630000114440918
271.9500122070312 295.8200073242188 9.850000381469727
277.6499938964844 297.2200012207031 9.619999885559082
274.5199890136719 296.4500122070312 9.729999542236328
273.8200073242188 296.260009765625 9.739999771118164
271.3399963378906 295.6300048828125 9.880000114440918
273.239990234375 296.1000061035156 9.789999961853027
277.1099853515625 297.7300109863281 9.529999732971191
275.239990234375 297.2900085449219 9.539999961853027
272.7000122070312 296.6300048828125 9.710000038146973
275.8800048828125 297.4599914550781 9.560000419616699
276.510009765625 297.5799865722656 9.539999961853027
273.2999877929688 296.8099975585938 9.649999618530273
271.989990234375 296.4700012207031 9.720000267028809
271.4100036621094 296.3099975585938 9.760000228881836
274.5700073242188 297.1099853515625 9.609999656677246
273.9700012207031 296.9500122070312 9.630000114440918
276.8699951171875 297.6099853515625 5.099999904632568
276.9800109863281 297.6700134277344 7.170000076293945
277.1700134277344 297.739990234375 6.010000228881836
277.4800109863281 297.760009765625 4.940000057220459
275.8999938964844 298.0400085449219 9.430000305175781
274.0700073242188 297.5899963378906 9.510000228881836
276.5 298.1900024414062 9.449999809265137
277.1499938964844 298.3800048828125 9.430000305175781
273.4200134277344 297.4200134277344 9.550000190734863
272.1300048828125 297.1300048828125 9.619999885559082
272.7900085449219 297.2699890136719 9.569999694824219
274.6600036621094 297.7300109863281 9.5
271.5499877929688 296.9599914550781 9.659999847412109
277 298.239990234375 5.070000171661377
277.0299987792969 298.2999877929688 7.010000228881836
275.2999877929688 297.8900146484375 9.470000267028809
277.4500122070312 298.3900146484375 4.579999923706055
276.9200134277344 298.9599914550781 6.429999828338623
276.0400085449219 298.7300109863281 9.380000114440918
276.6499938964844 298.8900146484375 9.329999923706055
277.3099975585938 299.0599975585938 9.300000190734863
275.4599914550781 298.6199951171875 9.350000381469727
273.5 298.1099853515625 9.430000305175781
274.1499938964844 298.2900085449219 9.420000076293945
271.5599975585938 297.6300048828125 9.529999732971191
272.8599853515625 297.9599914550781 9.449999809265137
272.1700134277344 297.7799987792969 9.529999732971191
274.75 298.4200134277344 9.420000076293945
276.4500122070312 299.5499877929688 4.730000019073486
276.6400146484375 299.6499938964844 9.229999542236328
274.1499938964844 299.0599975585938 9.319999694824219
275.3900146484375 299.3399963378906 9.229999542236328
276.0199890136719 299.5199890136719 9.199999809265137
277.3399963378906 299.8099975585938 9.189999580383301
276.1799926757812 299.5199890136719 5.900000095367432
274.8099975585938 299.2000122070312 9.340000152587891
272.8900146484375 298.7300109863281 9.340000152587891
272.2999877929688 298.6099853515625 9.380000114440918
271.6099853515625 298.4100036621094 9.399999618530273
273.5799865722656 298.8999938964844 9.310000419616699
275.6199951171875 300.0299987792969 5.460000038146973
276.2200012207031 300.1700134277344 5.400000095367432
276.2099914550781 300.2099914550781 9.140000343322754
274.3599853515625 299.760009765625 9.329999923706055
275.010009765625 299.9400024414062 9.199999809265137
273.6700134277344 299.5799865722656 9.239999771118164
271.7099914550781 299.1199951171875 9.270000457763672
274.760009765625 299.8900146484375 10.42000007629395
273.0499877929688 299.4299926757812 9.220000267028809
272.4500122070312 299.2999877929688 9.25
276.8500061035156 300.3999938964844 9.140000343322754
275.5799865722656 300.0599975585938 9.119999885559082
274.2200012207031 299.739990234375 10.72000026702881
274.989990234375 300.5 9.119999885559082
273.1099853515625 300.0499877929688 9.140000343322754
272.489990234375 299.8800048828125 9.159999847412109
273.5700073242188 300.0799865722656 5.130000114440918
271.1799926757812 299.5700073242188 9.25
275.0799865722656 300.4599914550781 5.769999980926514
273.7200012207031 300.1900024414062 9.140000343322754
271.8699951171875 299.7099914550781 9.180000305175781
274.3900146484375 300.3200073242188 9.180000305175781
274.4599914550781 300.3299865722656 5.789999961853027
272.5400085449219 300.510009765625 9.100000381469727
271.2200012207031 300.1600036621094 9.119999885559082
271.8900146484375 300.3200073242188 9.100000381469727
264.1000061035156 298.4800109863281 9.430000305175781
264.2200012207031 299.0299987792969 9.350000381469727
264.5400085449219 300.3099975585938 9.159999847412109
264.4100036621094 299.6799926757812 9.229999542236328
263.7699890136719 297.2200012207031 9.659999847412109
263.6000061035156 296.5499877929688 9.770000457763672
264.3800048828125 299.4800109863281 5.409999847412109
263.8399963378906 295.4800109863281 9.899999618530273
264.6700134277344 298.6700134277344 9.329999923706055
264.8500061035156 299.2999877929688 9.239999771118164
264.5299987792969 298.0599975585938 9.5
264.3299865722656 297.3999938964844 9.560000419616699
264.9800109863281 299.8999938964844 9.159999847412109
264.8900146484375 299.3599853515625 6.440000057220459
263.6900024414062 294.739990234375 9.850000381469727
264.9599914550781 299.4700012207031 5.03000020980835
265.1600036621094 300.5 9.069999694824219
264.1600036621094 296.75 9.699999809265137
264.0199890136719 296.1099853515625 9.819999694824219
264.1300048828125 294.1300048828125 9.710000038146973
264.3099975585938 294.8399963378906 9.840000152587891
264.9500122070312 297.4100036621094 9.600000381469727
265.4299926757812 299.2099914550781 9.279999732971191
264.6600036621094 296.1400146484375 9.789999961853027
265.5299987792969 299.3599853515625 6.25
265.1099853515625 298.0499877929688 9.489999771118164
265.5700073242188 299.4200134277344 4.769999980926514
265.2999877929688 298.6300048828125 9.380000114440918
264 293.5 9.640000343322754
265.7699890136719 300.5599975585938 9.180000305175781
264.8299865722656 296.7900085449219 9.689999580383301
263.7699890136719 292.7300109863281 9.539999961853027
265.6000061035156 299.9100036621094 9.189999580383301
264.4800109863281 295.5 9.960000038146973
264.1099853515625 291.3999938964844 9.310000419616699
264.2999877929688 292.0599975585938 9.340000152587891
264.4599914550781 292.8099975585938 9.489999771118164
264.9800109863281 294.9700012207031 9.840000152587891
265.3500061035156 296.2699890136719 9.770000457763672
265.2099914550781 295.7000122070312 9.880000114440918
266 298.8399963378906 9.329999923706055
266.3099975585938 300.0199890136719 9.140000343322754
266.1799926757812 299.4700012207031 6.159999847412109
265.5 296.9299926757812 9.680000305175781
265.6499938964844 297.6099853515625 9.569999694824219
265.8500061035156 298.2200012207031 9.489999771118164
264.8399963378906 294.2200012207031 9.710000038146973
264.6600036621094 293.5299987792969 9.640000343322754
265.7900085449219 295.7999877929688 9.850000381469727
266.1099853515625 297.0400085449219 9.649999618530273
266.7799987792969 299.5499877929688 9.220000267028809
266.7099914550781 299.0700073242188 6.440000057220459
266.4299926757812 298.2999877929688 9.430000305175781
266.5799865722656 298.8999938964844 9.380000114440918
266.7999877929688 299.3800048828125 5.699999809265137
266.9299926757812 300.2000122070312 9.180000305175781
265.6400146484375 295.1199951171875 9.920000076293945
266.2900085449219 297.6799926757812 9.550000190734863
265.989990234375 296.4400024414062 9.800000190734863
266.1700134277344 299.4700012207031 9.239999771118164
264.9599914550781 292.3200073242188 9.409999847412109
265.3200073242188 293.75 9.640000343322754
264.5400085449219 290.760009765625 9.119999885559082
265.1400146484375 293.0599975585938 9.510000228881836
265.4800109863281 294.4299926757812 9.800000190734863
264.739990234375 291.5199890136719 9.289999961853027
265 290.3200073242188 9.180000305175781
265.510009765625 292.4400024414062 9.460000038146973
265.1600036621094 290.9800109863281 9.180000305175781
265.8500061035156 293.8200073242188 9.659999847412109
266.5899963378906 296.6300048828125 9.680000305175781
266.2300109863281 295.3299865722656 9.859999656677246
266.9200134277344 297.9400024414062 9.5
266.0700073242188 294.6000061035156 9.75
267.3500061035156 299.7200012207031 9.170000076293945
266.4100036621094 295.9599914550781 9.869999885559082
265.3500061035156 291.7200012207031 9.270000457763672
267.5 300.3699951171875 9.130000114440918
267.2799987792969 299.2000122070312 6.360000133514404
265.6700134277344 293.1799926757812 9.560000419616699
267.3699951171875 299.4500122070312 5.269999980926514
266.7200012207031 297.260009765625 9.609999656677246
267.0299987792969 298.5400085449219 9.390000343322754
267.2000122070312 299.1199951171875 9.310000419616699
266.1700134277344 292.5899963378906 9.460000038146973
266.3900146484375 293.3099975585938 9.590000152587891
265.6499938964844 290.3599853515625 9.210000038146973
266.5299987792969 293.9700012207031 9.699999809265137
265.7900085449219 291.0799865722656 9.189999580383301
266 291.8299865722656 9.340000152587891
267.5199890136719 297.8500061035156 9.520000457763672
267.3699951171875 297.2799987792969 9.590000152587891
267.0700073242188 296.0199890136719 9.859999656677246
267.7000122070312 298.5 9.420000076293945
266.6900024414062 294.6900024414062 9.800000190734863
267.8399963378906 299.1799926757812 9.350000381469727
268.010009765625 299.8299865722656 9.220000267028809
268.1600036621094 300.3900146484375 9.159999847412109
267.2300109863281 296.6300048828125 9.710000038146973
266.739990234375 291.9599914550781 9.359999656677246
266.8999938964844 295.3500061035156 9.899999618530273
267.4500122070312 294.8200073242188 9.800000190734863
267.6199951171875 295.5 9.899999618530273
267.0799865722656 293.3299865722656 9.550000190734863
267.9100036621094 299.2200012207031 6.360000133514404
267.239990234375 294.0799865722656 9.699999809265137
268.7200012207031 299.8699951171875 9.210000038146973
268.8699951171875 300.5499877929688 9.109999656677246
266.5400085449219 291.1600036621094 9.229999542236328
267.9599914550781 296.7999877929688 9.670000076293945
268.2799987792969 298.0700073242188 9.449999809265137
268.5599975585938 299.2699890136719 9.300000190734863
268.0899963378906 297.4800109863281 9.569999694824219
268.4100036621094 298.6700134277344 9.390000343322754
267.7699890136719 296.1600036621094 9.779999732971191
266.9100036621094 292.6300048828125 9.420000076293945
266.3699951171875 290.4800109863281 9.140000343322754
266.4400024414062 288.1499938964844 6.559999942779541
266.989990234375 290.6000061035156 9.109999656677246
267.739990234375 293.510009765625 9.609999656677246
268.0899963378906 294.9200134277344 9.840000152587891
267.9100036621094 294.1900024414062 9.710000038146973
268.75 297.489990234375 9.550000190734863
268.5599975585938 296.8999938964844 9.680000305175781
269.0400085449219 298.75 9.369999885559082
268.2699890136719 295.6199951171875 9.890000343322754
269.2000122070312 299.4100036621094 9.260000228881836
267.5499877929688 292.8099975585938 9.479999542236328
268.3999938964844 296.1799926757812 9.779999732971191
269.2999877929688 299.4400024414062 6.090000152587891
266.510009765625 288.4599914550781 5.760000228881836
268.8999938964844 298.0700073242188 9.430000305175781
267.2000122070312 291.3500061035156 9.270000457763672
269.3900146484375 300 9.159999847412109
267.3599853515625 292.1400146484375 9.359999656677246
266.7900085449219 287.6199951171875 6.489999771118164
267.0700073242188 288.5 5.380000114440918
267.5700073242188 290.7099914550781 9.060000419616699
268.1099853515625 292.8800048828125 9.439999580383301
266.4700012207031 286.2999877929688 6.489999771118164
266.9599914550781 288.2799987792969 6.539999961853027
268.9800109863281 296.4200134277344 9.739999771118164
266.3299865722656 285.6499938964844 6.579999923706055
266.6400146484375 286.9400024414062 6.519999980926514
268.7999877929688 295.7900085449219 9.859999656677246
269.760009765625 299.4800109863281 9.25
269.2999877929688 297.6600036621094 9.520000457763672
268.489990234375 294.3900146484375 9.699999809265137
269.9100036621094 300.1400146484375 9.130000114440918
269.7999877929688 299.4500122070312 5.960000038146973
269.6300048828125 298.8900146484375 9.310000419616699
267.739990234375 291.4700012207031 9.25
269.1300048828125 297.0899963378906 9.619999885559082
268.260009765625 293.6600036621094 9.649999618530273
269.6900024414062 299.0400085449219 6.570000171661377
268.6400146484375 295.0599975585938 9.899999618530273
267.9299926757812 292.1600036621094 9.340000152587891
269.4700012207031 298.260009765625 9.439999580383301
266.75 284.9599914550781 6.559999942779541
267.6000061035156 288.260009765625 6.590000152587891
266.9100036621094 285.5499877929688 6.539999961853027
267.0700073242188 286.2300109863281 6.510000228881836
267.4299926757812 287.6700134277344 6.550000190734863
268.3900146484375 291.5400085449219 9.289999961853027
268.0400085449219 290.1600036621094 9.329999923706055
269.75 297.0199890136719 9.649999618530273
267.6700134277344 288.4700012207031 5.309999942779541
268.5700073242188 292.2200012207031 9.420000076293945
267.2900085449219 286.9400024414062 6.53000020980835
270.0799865722656 298.260009765625 9.430000305175781
270.4299926757812 299.5299987792969 9.220000267028809
269.8900146484375 297.5899963378906 9.569999694824219
269.260009765625 295.0599975585938 9.920000076293945
268.7200012207031 292.9700012207031 9.489999771118164
269.0700073242188 294.3699951171875 9.75
270.260009765625 298.8999938964844 9.390000343322754
268.1900024414062 290.760009765625 9.090000152587891
268.9299926757812 293.6600036621094 9.659999847412109
269.4299926757812 295.7200012207031 9.869999885559082
269.6300048828125 296.4100036621094 9.75
270.5799865722656 300.1400146484375 9.119999885559082
270.3599853515625 299.1400146484375 4.940000057220459
270.4800109863281 299.5599975585938 5.980000019073486
267.8800048828125 286.4200134277344 6.519999980926514
267.5299987792969 285.0799865722656 6.5
267.6700134277344 285.760009765625 6.53000020980835
268.3800048828125 288.4100036621094 6.519999980926514
268.9500122070312 290.8599853515625 9.189999580383301
268.4299926757812 288.5599975585938 5.340000152587891
269.489990234375 293.010009765625 9.529999732971191
270.6799926757812 297.739990234375 9.489999771118164
270.8399963378906 298.3599853515625 9.399999618530273
269.1000061035156 291.5899963378906 9.289999961853027
269.8500061035156 294.4500122070312 9.789999961853027
270.5400085449219 297.1799926757812 9.659999847412109
268.1700134277344 287.6900024414062 6.519999980926514
268.0400085449219 287.0799865722656 6.539999961853027
270.3599853515625 296.5299987792969 9.739999771118164
270.0199890136719 295.2200012207031 9.899999618530273
269.3099975585938 292.2799987792969 9.380000114440918
271.1199951171875 299.2699890136719 5.139999866485596
271.1400146484375 299.5899963378906 9.239999771118164
271.2300109863281 299.6799926757812 6.090000152587891
269.6799926757812 293.7799987792969 9.640000343322754
271.2799987792969 300.2300109863281 9.140000343322754
270.1799926757812 295.9200134277344 9.819999694824219
271 298.9599914550781 9.319999694824219
271.0899963378906 299.1400146484375 6.630000114440918
268.5499877929688 286.510009765625 6.519999980926514
