138.1799926757812 427.760009765625 13.27999973297119
138.7599945068359 427.6000061035156 13.67000007629395
137.1699981689453 427.9700012207031 12.52999973297119
142.2899932861328 430.6099853515625 11.55000019073486
141.1399993896484 430.2099914550781 11.36999988555908
140.4799957275391 430.3599853515625 11.47000026702881
141.3000030517578 430.1900024414062 12.72999954223633
139.8500061035156 430.5199890136719 11.4399995803833
142.0200042724609 430.0199890136719 12.71000003814697
140.6199951171875 430.3299865722656 12.72999954223633
140.3699951171875 429.7999877929688 12.77000045776367
141.7700042724609 429.489990234375 12.60999965667725
139.7299957275391 429.9599914550781 12.75
140.9799957275391 429.6799926757812 12.77999973297119
141.1699981689453 428.9299926757812 12.85999965667725
140.4799957275391 429.0899963378906 12.82999992370605
139.8899993896484 429.2799987792969 12.78999996185303
140.6799926757812 428.2999877929688 12.92000007629395
141.4100036621094 428.1300048828125 12.93000030517578
140.0700073242188 428.4500122070312 12.89000034332275
139.4700012207031 428.6499938964844 12.89000034332275
140.5099945068359 427.7099914550781 13.5
139.4400024414062 428 12.90999984741211
140.0500030517578 427.8399963378906 12.88000011444092
139.5700073242188 427.9500122070312 14.10000038146973
141.4700012207031 427.4599914550781 12.90999984741211
139.4199981689453 421.4599914550781 14.13000011444092
141.9499969482422 421.5400085449219 12.43000030517578
140.0399932861328 421.989990234375 13.85999965667725
141.0099945068359 421.7900085449219 13.17000007629395
139.6999969482422 422.7099914550781 14.07999992370605
140.6699981689453 422.4299926757812 13.39999961853027
141.5700073242188 422.1900024414062 12.69999980926514
141.3699951171875 422.9299926757812 12.97000026702881
139.5899963378906 423.3999938964844 14.10999965667725
140.4600067138672 423.1499938964844 13.60999965667725
141.0500030517578 423.7099914550781 13.18000030517578
140.1600036621094 423.9500122070312 13.76000022888184
140.7299957275391 424.4299926757812 13.36999988555908
139.9299926757812 424.6199951171875 13.92000007629395
141.4199981689453 424.8399963378906 12.89000034332275
140.4499969482422 425.0499877929688 13.53999996185303
139.5599975585938 425.3200073242188 14.09000015258789
139.4900054931641 425.989990234375 14.14999961853027
141.3099975585938 425.5400085449219 12.93000030517578
142.1300048828125 425.3299865722656 12.60999965667725
140.3699951171875 425.7799987792969 13.63000011444092
141.9400024414062 426.1400146484375 12.55000019073486
140.0700073242188 426.6199951171875 13.80000019073486
140.9700012207031 426.3999938964844 13.27999973297119
139.9299926757812 427.3099975585938 13.93000030517578
141.7400054931641 426.8599853515625 12.68000030517578
140.8800048828125 427.0700073242188 13.27000045776367
137.3899993896484 421.4500122070312 12.6899995803833
136.8999938964844 422.260009765625 11.60000038146973
138.9199981689453 421.7300109863281 13.72000026702881
138.4100036621094 421.8599853515625 13.35000038146973
137.3699951171875 422.1000061035156 12.60999965667725
137.8600006103516 422.010009765625 12.97999954223633
137.2100067138672 422.7300109863281 12.47999954223633
137.7700042724609 422.5799865722656 12.90999984741211
138.2599945068359 422.4599914550781 13.27000045776367
138.8399963378906 422.2999877929688 13.67000007629395
137.6199951171875 423.3399963378906 12.81999969482422
139.1799926757812 422.9299926757812 13.89000034332275
137.1000061035156 423.4599914550781 12.35999965667725
138.6900024414062 423.0599975585938 13.5600004196167
138.1600036621094 423.2000122070312 13.13000011444092
136.9499969482422 424.260009765625 12.4399995803833
137.5299987792969 424.1300048828125 12.76000022888184
138.0899963378906 423.9599914550781 13.10999965667725
138.5899963378906 423.8500061035156 13.44999980926514
139.1399993896484 423.6799926757812 13.84000015258789
138.0200042724609 424.6900024414062 13.02999973297119
137.4900054931641 424.7999877929688 12.67000007629395
138.5299987792969 424.5599975585938 13.39999961853027
139.0500030517578 424.3999938964844 13.78999996185303
138.8999938964844 425 13.72999954223633
137.8099975585938 425.2999877929688 12.96000003814697
137.2899932861328 425.4299926757812 12.5
138.4100036621094 425.1600036621094 13.3100004196167
137.75 425.9700012207031 12.90999984741211
138.7899932861328 425.7099914550781 13.59000015258789
138.2400054931641 425.8399963378906 13.23999977111816
139.3200073242188 425.5700073242188 13.97999954223633
137.2700042724609 426.1400146484375 12.5
138.1900024414062 426.6099853515625 13.17000007629395
137.6199951171875 426.739990234375 12.77999973297119
139.2599945068359 426.3399963378906 13.92000007629395
137.1100006103516 426.8699951171875 12.35000038146973
138.6900024414062 426.4800109863281 13.57999992370605
138.1999969482422 427.2699890136719 13.14999961853027
138.6499938964844 427.1700134277344 13.55000019073486
137.1900024414062 427.5299987792969 12.35000038146973
139.2400054931641 427.0299987792969 13.86999988555908
137.6600036621094 427.3999938964844 12.80000019073486
137.5200042724609 428.010009765625 12.73999977111816
139.1300048828125 427.6000061035156 13.8100004196167
137.9900054931641 427.9100036621094 13.02999973297119
138.5599975585938 427.7699890136719 13.47000026702881
138.0200042724609 428.5400085449219 12.82999992370605
138.5800018310547 428.3999938964844 12.86999988555908
139.1199951171875 428.2900085449219 12.88000011444092
137.4799957275391 428.6900024414062 12.63000011444092
137.3800048828125 429.3800048828125 12.60000038146973
139.0800018310547 428.9700012207031 12.8100004196167
137.9299926757812 429.25 12.80000019073486
138.4499969482422 429.1400146484375 12.77999973297119
137.4799957275391 430.0199890136719 12.51000022888184
138.0299987792969 429.8800048828125 12.72999954223633
138.6000061035156 429.760009765625 12.73999977111816
139.1499938964844 429.6400146484375 12.77999973297119
138.5500030517578 430.2999877929688 11.5
138.4299926757812 430.3399963378906 12.68000030517578
138.0299987792969 430.4500122070312 11.51000022888184
138.9900054931641 430.1799926757812 12.69999980926514
140.0500030517578 421.4299926757812 13.97999954223633
139.5200042724609 421.5899963378906 14.09000015258789
139.3999938964844 422.2000122070312 14.07999992370605
141.1900024414062 421.7300109863281 13.10000038146973
141.8099975585938 421.6099853515625 12.67000007629395
140.5899963378906 421.8699951171875 13.57999992370605
140.0099945068359 422.0199890136719 13.97000026702881
140.3699951171875 422.6099853515625 13.72999954223633
140.9799957275391 422.4700012207031 13.44999980926514
139.7799987792969 422.75 14.14000034332275
141.6199951171875 422.3200073242188 12.84000015258789
140.3500061035156 423.3900146484375 13.71000003814697
139.6900024414062 423.5400085449219 14.14000034332275
141.5500030517578 423.1000061035156 12.89999961853027
140.8999938964844 423.2799987792969 13.36999988555908
139.5700073242188 424.2900085449219 14.15999984741211
140.2299957275391 424.1300048828125 13.85000038146973
140.0700073242188 424.7200012207031 13.89000034332275
140.7299957275391 424.5899963378906 13.51000022888184
139.4499969482422 424.8699951171875 14.06999969482422
141.2700042724609 424.4100036621094 13.25
141.9100036621094 424.2799987792969 12.61999988555908
139.8600006103516 425.4500122070312 14.0600004196167
141.1100006103516 425.1300048828125 13.22000026702881
141.6999969482422 425.0199890136719 12.93000030517578
140.5 425.2799987792969 13.61999988555908
141.1000061035156 425.8900146484375 13.22999954223633
141.6900024414062 425.75 12.85999965667725
139.8000030517578 426.1799926757812 14.0600004196167
140.4400024414062 426.0499877929688 13.68000030517578
139.7599945068359 426.8599853515625 14.14000034332275
140.3800048828125 426.7099914550781 13.8100004196167
140.9799957275391 426.5700073242188 13.35000038146973
139.6399993896484 427.4599914550781 14.14999961853027
140.9499969482422 427.1799926757812 13.35000038146973
142.1600036621094 426.8599853515625 12.60000038146973
141.5500030517578 427 12.89000034332275
140.2599945068359 427.3099975585938 13.81999969482422
140.2700042724609 427.9700012207031 12.9399995803833
140.1600036621094 428 13.89000034332275
139.6999969482422 428.1499938964844 12.89999961853027
140.7400054931641 427.8699951171875 13.47999954223633
142.0200042724609 427.5400085449219 12.64999961853027
141.3399963378906 427.7300109863281 13.27999973297119
141.3999938964844 428.4100036621094 12.94999980926514
139.6799926757812 428.8299865722656 12.80000019073486
140.7899932861328 428.5499877929688 12.86999988555908
140.2200012207031 428.6799926757812 12.88000011444092
140.2599945068359 429.3500061035156 12.80000019073486
140.8099975585938 429.2099914550781 12.82999992370605
142 428.9200134277344 12.60000038146973
141.3999938964844 429.0799865722656 12.8100004196167
139.6799926757812 429.4700012207031 12.77000045776367
140.6900024414062 429.739990234375 12.76000022888184
140.1900024414062 429.8999938964844 12.72999954223633
141.3000030517578 429.6000061035156 12.76000022888184
141.9299926757812 429.4400024414062 12.57999992370605
139.5500030517578 430.0400085449219 12.71000003814697
139.6100006103516 430.7099914550781 11.53999996185303
140.2400054931641 430.5599975585938 11.40999984741211
141.3500061035156 430.25 11.52000045776367
141.1999969482422 430.2999877929688 12.69999980926514
141.7599945068359 430.1400146484375 12.56999969482422
140.7599945068359 430.3999938964844 11.52999973297119
138.4299926757812 430.3900146484375 12.73999977111816
138.2200012207031 430.4100036621094 11.55000019073486
137.6999969482422 430.5799865722656 11.52999973297119
138.9799957275391 430.239990234375 12.67000007629395
138.9100036621094 429.6000061035156 12.76000022888184
138.2700042724609 429.7300109863281 12.72999954223633
137.6799926757812 429.9100036621094 12.68000030517578
139.1100006103516 428.7999877929688 12.85000038146973
138.5800018310547 428.9100036621094 12.84000015258789
138 429.0599975585938 12.80000019073486
137.4499969482422 429.2300109863281 12.57999992370605
138.9100036621094 428.1799926757812 12.89999961853027
137.6999969482422 428.4800109863281 12.80000019073486
138.3099975585938 428.3299865722656 12.88000011444092
138.7200012207031 427.6600036621094 13.60000038146973
139.3399963378906 427.5299987792969 14.02000045776367
137.4700012207031 428 12.68000030517578
138.0899963378906 427.8299865722656 13.10999965667725
139.2200012207031 426.9100036621094 13.9399995803833
138.4700012207031 427.0400085449219 13.39999961853027
137.8099975585938 427.2200012207031 12.9399995803833
137.1399993896484 427.4100036621094 12.46000003814697
138.8300018310547 426.2699890136719 13.64999961853027
138.2200012207031 426.4200134277344 13.19999980926514
137.5399932861328 426.5499877929688 12.76000022888184
137.2299957275391 426.0199890136719 12.5
138.5500030517578 425.7099914550781 13.52000045776367
137.8300018310547 425.8500061035156 12.96000003814697
139.2400054931641 425.5299987792969 13.9399995803833
138.2299957275391 425.239990234375 13.25
137.6499938964844 425.3800048828125 12.77999973297119
138.9199981689453 425.0400085449219 13.72000026702881
137.9199981689453 424.6300048828125 13.02999973297119
138.6199951171875 424.4700012207031 13.52000045776367
137.3099975585938 424.7999877929688 12.56999969482422
139.3300018310547 424.3399963378906 13.98999977111816
136.9299926757812 424.2000122070312 12.47000026702881
137.6100006103516 424.0299987792969 12.76000022888184
138.8399963378906 423.7000122070312 13.67000007629395
138.2400054931641 423.8500061035156 13.1899995803833
139.1799926757812 422.9400024414062 13.90999984741211
138.4900054931641 423.1099853515625 13.47000026702881
137.1999969482422 423.4299926757812 12.52999973297119
137.8000030517578 423.2799987792969 12.94999980926514
138.8899993896484 422.4700012207031 13.61999988555908
138.2100067138672 422.6499938964844 13.22000026702881
137.6000061035156 422.7699890136719 12.78999996185303
138.6799926757812 421.8900146484375 13.55000019073486
139.3600006103516 421.7000122070312 14.07999992370605
137.9799957275391 422.0499877929688 13.07999992370605
137.3500061035156 422.2300109863281 12.64999961853027
137.0500030517578 421.5499877929688 12.39999961853027
137.6600036621094 421.4200134277344 12.75
139.6600036621094 430.7300109863281 11.53999996185303
140.2400054931641 430.5700073242188 11.39999961853027
140.7799987792969 430.3999938964844 11.48999977111816
141.5800018310547 430.2099914550781 12.64000034332275
141.3699951171875 430.2799987792969 11.44999980926514
141.8999938964844 429.5 12.55000019073486
140.1600036621094 429.9299926757812 12.77000045776367
139.5599975585938 430.1300048828125 12.73999977111816
140.7599945068359 429.7999877929688 12.72000026702881
141.3699951171875 429.6400146484375 12.75
139.4299926757812 429.4299926757812 12.77000045776367
141.1799926757812 428.9800109863281 12.86999988555908
140.5899963378906 429.1700134277344 12.84000015258789
141.75 428.8299865722656 12.75
140 429.2900085449219 12.80000019073486
140.9100036621094 428.3500061035156 12.90999984741211
140.2899932861328 428.5 12.85999965667725
139.7400054931641 428.6600036621094 12.85999965667725
140.1799926757812 427.8599853515625 13.84000015258789
139.5099945068359 428.0499877929688 12.86999988555908
139.7200012207031 428.0199890136719 14.18000030517578
140.7599945068359 427.739990234375 13.47999954223633
140.4400024414062 427.25 13.64000034332275
139.9199981689453 427.3599853515625 14.05000019073486
139.75 426.7300109863281 14.03999996185303
140.2899932861328 426.6000061035156 13.73999977111816
139.4400024414062 426.1099853515625 13.98999977111816
140.5700073242188 425.8099975585938 13.64000034332275
139.9799957275391 425.9400024414062 13.97000026702881
139.8200073242188 425.3599853515625 14.10000038146973
139.5200042724609 424.8900146484375 14.17000007629395
140.0899963378906 424.7900085449219 13.96000003814697
140.5899963378906 424.6099853515625 13.61999988555908
139.8899993896484 424.1600036621094 14.03999996185303
141.6900024414062 423 12.78999996185303
139.5399932861328 423.5599975585938 14.11999988555908
140.0500030517578 423.4299926757812 13.9399995803833
140.8000030517578 422.5400085449219 13.22999954223633
139.8099975585938 422.8200073242188 14.10000038146973
140.3000030517578 422.6700134277344 13.8100004196167
141.8899993896484 422.2799987792969 12.88000011444092
142.1999969482422 421.6099853515625 12.52999973297119
140.5500030517578 422.0799865722656 13.56999969482422
139.5 422.3500061035156 14.18000030517578
140.0599975585938 422.1700134277344 13.96000003814697
141.1100006103516 421.9200134277344 13.17000007629395
141.6799926757812 421.7799987792969 12.78999996185303
140.4100036621094 421.4299926757812 13.69999980926514
139.9400024414062 421.5700073242188 13.97999954223633
137.3999938964844 421.6499938964844 12.60000038146973
138.3099975585938 421.4400024414062 13.13000011444092
137.1100006103516 422.3699951171875 12.36999988555908
139.0399932861328 421.8900146484375 13.72000026702881
138.0599975585938 422.1499938964844 13.07999992370605
138.3300018310547 422.5799865722656 13.19999980926514
137.3300018310547 422.8500061035156 12.55000019073486
139.3699951171875 422.3099975585938 13.9399995803833
137.8300018310547 423.3299865722656 12.89999961853027
137.0299987792969 423.5400085449219 12.55000019073486
138.8200073242188 423.1199951171875 13.55000019073486
137.2700042724609 424.239990234375 12.48999977111816
138.1999969482422 423.9599914550781 13.14999961853027
137.9100036621094 424.7200012207031 12.89999961853027
138.1600036621094 425.2000122070312 13.15999984741211
137.2200012207031 425.4599914550781 12.47999954223633
137.6000061035156 426.0299987792969 12.60000038146973
138.0599975585938 428.6600036621094 12.77000045776367
137.5299987792969 429.6000061035156 12.64000034332275
138.6699981689453 429.9700012207031 12.69999980926514
137.9799957275391 430.1600036621094 12.65999984741211
139.0099945068359 430.4599914550781 11.44999980926514
138.3800048828125 430.6499938964844 11.51000022888184
139.5700073242188 421.7799987792969 11.94999980926514
140.8800048828125 421.4299926757812 13.31999969482422
139.8300018310547 421.7000122070312 14.07999992370605
140.0599975585938 421.6700134277344 11.39999961853027
140.3800048828125 421.5299987792969 13.72000026702881
141.6499938964844 421.75 12.81999969482422
140.0500030517578 422.1600036621094 13.97999954223633
141.1300048828125 421.8599853515625 13.26000022888184
141.0599975585938 423.25 13.26000022888184
142.0099945068359 430.4299926757812 11.47000026702881
138.6600036621094 430.3699951171875 12.77000045776367
139.1600036621094 430.510009765625 11.51000022888184
137.3800048828125 430.0499877929688 12.48999977111816
138.4799957275391 430.3500061035156 11.47000026702881
137.9900054931641 430.2000122070312 12.68000030517578
137.1900024414062 429.4100036621094 12.5
137.7100067138672 429.5499877929688 11.15999984741211
138.4499969482422 429.7300109863281 12.72999954223633
139.0700073242188 429.8800048828125 12.68000030517578
137.7700042724609 429.5499877929688 12.69999980926514
137.75 428.9200134277344 12.77000045776367
139.0800018310547 429.239990234375 12.77000045776367
138.4199981689453 429.0899963378906 12.77999973297119
137.1199951171875 428.75 12.55000019073486
137.6199951171875 428.2200012207031 12.77999973297119
137.0500030517578 428.0700073242188 12.48999977111816
138.2299957275391 428.3699951171875 12.85000038146973
138.8800048828125 428.5299987792969 12.84000015258789
138.1300048828125 427.5599975585938 13.19999980926514
138.6399993896484 427.6799926757812 13.56999969482422
137.1000061035156 427.3099975585938 12.40999984741211
137.6199951171875 427.4299926757812 12.85999965667725
139.1399993896484 427.8200073242188 13.93000030517578
138.9400024414062 421.5700073242188 13.77999973297119
137.9700012207031 421.3299865722656 12.94999980926514
139.1600036621094 421.6199951171875 11.52999973297119
138.4499969482422 421.4200134277344 13.34000015258789
137.3600006103516 421.760009765625 12.72000026702881
138.4499969482422 422.0199890136719 13.46000003814697
138.9600067138672 422.1900024414062 13.8100004196167
137.9199981689453 421.9299926757812 13.07999992370605
137.3200073242188 421.7799987792969 11.14000034332275
137.9700012207031 422.510009765625 13.10000038146973
138.5500030517578 422.6799926757812 13.51000022888184
137.1199951171875 422.3099975585938 11.94999980926514
137.4799957275391 422.3999938964844 12.72999954223633
139.0099945068359 422.7699890136719 13.82999992370605
139.1399993896484 423.4599914550781 13.89999961853027
138.6199951171875 423.3299865722656 13.52999973297119
137.3699951171875 423.0799865722656 11.5600004196167
136.9900054931641 422.9500122070312 12.42000007629395
138.0299987792969 423.2000122070312 13.14999961853027
137.5 423.0899963378906 12.77999973297119
137.6199951171875 423.6799926757812 12.84000015258789
138.6499938964844 423.9299926757812 13.59000015258789
139.1999969482422 424.0700073242188 13.97000026702881
138.1300048828125 423.7999877929688 13.22000026702881
137.0800018310547 423.5700073242188 12.47999954223633
138.2599945068359 424.4100036621094 13.31999969482422
137.7100067138672 424.3099975585938 12.9399995803833
137.1999969482422 424.2000122070312 12.57999992370605
138.7899932861328 424.5299987792969 13.71000003814697
137.3899993896484 424.8500061035156 12.69999980926514
138.4100036621094 425.0899963378906 13.40999984741211
137.3899993896484 424.8900146484375 11.13000011444092
136.8800048828125 424.7300109863281 12.35999965667725
138.9499969482422 425.2300109863281 13.77000045776367
137.8800048828125 424.989990234375 13.02999973297119
137.2400054931641 425.5899963378906 11.30000019073486
138.9400024414062 425.9599914550781 13.77000045776367
137.3099975585938 425.5899963378906 12.67000007629395
138.4299926757812 425.8299865722656 13.40999984741211
137.8800048828125 425.7200012207031 13.05000019073486
138.9400024414062 426.5700073242188 13.77999973297119
137.0299987792969 426.1199951171875 12.14999961853027
137.9400024414062 426.2999877929688 13.13000011444092
137.4799957275391 426.2099914550781 12.69999980926514
138.4600067138672 426.4200134277344 13.4399995803833
136.9900054931641 426.6600036621094 12.34000015258789
139.0200042724609 427.1099853515625 13.86999988555908
138.5299987792969 427.0299987792969 13.5
137.4400024414062 426.7799987792969 12.75
137.9100036621094 426.8800048828125 13.10000038146973
139.9199981689453 430.7000122070312 11.3100004196167
140.3999938964844 430.1799926757812 12.71000003814697
140.9199981689453 430.3599853515625 11.38000011444092
141.6100006103516 430.5400085449219 11.5
141.1499938964844 430.3599853515625 12.72999954223633
139.75 430.0199890136719 12.71000003814697
141.7799987792969 429.9200134277344 12.53999996185303
139.7299957275391 429.4299926757812 12.78999996185303
140.3200073242188 429.5899963378906 12.77999973297119
140.9900054931641 429.7200012207031 12.73999977111816
140.8899993896484 429.0599975585938 12.81999969482422
140.2799987792969 428.8800048828125 12.82999992370605
139.6000061035156 428.7200012207031 12.81999969482422
141.6399993896484 429.2200012207031 12.72999954223633
140.8500061035156 428.25 12.89999961853027
141.5599975585938 428.4299926757812 12.76000022888184
139.7100067138672 427.9599914550781 14.10000038146973
140.1799926757812 428.0700073242188 12.86999988555908
142.1399993896484 421.6900024414062 12.44999980926514
141.3399963378906 421.5 12.85000038146973
140.3800048828125 421.8999938964844 13.59000015258789
139.4400024414062 421.6600036621094 14.15999984741211
141.25 422.1600036621094 12.93000030517578
140.3699951171875 422.5 13.60000038146973
139.4799957275391 422.2799987792969 14.10999965667725
141.2100067138672 422.739990234375 13.0600004196167
140.4499969482422 423.1300048828125 13.5600004196167
141.3999938964844 423.3699951171875 13.02000045776367
139.5500030517578 422.9100036621094 14.14000034332275
139.7100067138672 423.6300048828125 14.06999969482422
140.4299926757812 423.7900085449219 13.81999969482422
141.4299926757812 424.0899963378906 12.97000026702881
141.6600036621094 424.7000122070312 12.73999977111816
139.8300018310547 424.2099914550781 14
140.6600036621094 424.4599914550781 13.5600004196167
141.0399932861328 425.1400146484375 13.11999988555908
141.8999938964844 425.3699951171875 12.5
140.1399993896484 424.8900146484375 13.72000026702881
139.3399963378906 424.6799926757812 14.07999992370605
139.4499969482422 425.3399963378906 14.14999961853027
141.2299957275391 425.7999877929688 13.06999969482422
140.3200073242188 425.5700073242188 13.65999984741211
142.0399932861328 426.010009765625 12.53999996185303
139.4499969482422 426.1000061035156 14.11999988555908
140.3800048828125 426.3399963378906 13.60000038146973
141.3399963378906 426.5700073242188 12.86999988555908
139.5099945068359 426.6799926757812 14.14999961853027
142.1199951171875 427.3699951171875 12.52999973297119
140.3399963378906 426.8900146484375 13.67000007629395
141.3300018310547 427.1600036621094 12.9399995803833
139.5599975585938 427.260009765625 14.13000011444092
141.3699951171875 427.7200012207031 13.09000015258789
140.4700012207031 427.4800109863281 13.53999996185303
139.2700042724609 421.8999938964844 13.96000003814697
138.1999969482422 421.6199951171875 13.22000026702881
137.6100006103516 421.5199890136719 12.84000015258789
138.7400054931641 421.760009765625 13.60999965667725
137.1499938964844 421.3599853515625 12.46000003814697
137.8000030517578 422.1900024414062 12.89000034332275
138.3300018310547 422.3099975585938 13.25
139.3600006103516 422.6000061035156 14.02000045776367
137.2899932861328 422.0299987792969 12.52999973297119
138.8000030517578 422.4200134277344 13.64999961853027
137.8999938964844 422.9599914550781 13.01000022888184
137.3500061035156 422.8200073242188 12.59000015258789
138.5 423.1099853515625 13.39000034332275
139 423.2099914550781 13.77000045776367
136.9700012207031 422.6799926757812 11.42000007629395
138.0500030517578 423.6700134277344 13.0600004196167
137.0800018310547 423.4200134277344 11.98999977111816
137.5299987792969 423.5199890136719 12.73999977111816
139.0399932861328 423.9500122070312 13.8100004196167
138.5500030517578 423.8099975585938 13.4399995803833
137.1100006103516 424.0799865722656 12.47000026702881
139.2400054931641 424.6400146484375 13.92000007629395
137.6499938964844 424.2099914550781 12.82999992370605
138.2400054931641 424.3599853515625 13.22000026702881
138.6999969482422 424.5199890136719 13.5600004196167
137.6799926757812 424.9200134277344 12.88000011444092
138.6900024414062 425.2200012207031 13.59000015258789
138.2200012207031 425.0599975585938 13.22999954223633
137.3699951171875 424.8500061035156 10.8100004196167
137.1900024414062 424.7900085449219 12.47999954223633
139.3099975585938 425.3599853515625 13.96000003814697
137.8699951171875 425.75 12.97999954223633
138.8699951171875 426.010009765625 13.6899995803833
137.3099975585938 425.5700073242188 12.57999992370605
138.3800048828125 425.8699951171875 13.30000019073486
139.4199981689453 426.1300048828125 14.07999992370605
137.4600067138672 426.2699890136719 12.6899995803833
137.0700073242188 426.1700134277344 11.35999965667725
138.4700012207031 426.5700073242188 13.4399995803833
137.9499969482422 426.4200134277344 13.03999996185303
136.9600067138672 426.1400146484375 12.17000007629395
139.0500030517578 426.6799926757812 13.76000022888184
138.1900024414062 427.0799865722656 13.18000030517578
138.7200012207031 427.1799926757812 13.56999969482422
137.6699981689453 426.9200134277344 12.81999969482422
139.2799987792969 427.3299865722656 13.93000030517578
137.1699981689453 426.7999877929688 12.34000015258789
139.2799987792969 428.0199890136719 14
139.3999938964844 428.0199890136719 12.9399995803833
138.6999969482422 427.8900146484375 13.55000019073486
138.1799926757812 427.7300109863281 13.17000007629395
137.6399993896484 427.5799865722656 12.85000038146973
137.1600036621094 427.4599914550781 12.40999984741211
137.7299957275391 428.4400024414062 12.82999992370605
138.9299926757812 428.7200012207031 12.82999992370605
138.3000030517578 428.5499877929688 12.85000038146973
138.3999938964844 429.260009765625 12.77000045776367
137.8099975585938 429.1000061035156 12.80000019073486
137.2700042724609 428.9800109863281 12.52999973297119
139.0099945068359 429.4100036621094 12.77999973297119
139.1999969482422 430.0799865722656 12.6899995803833
138.6300048828125 429.9299926757812 12.71000003814697
137.5 429.6499938964844 12.5600004196167
138.0500030517578 429.7900085449219 12.72000026702881
137.6399993896484 430.2799987792969 11.52000045776367
138.8500061035156 430.6199951171875 11.32999992370605
137.5200042724609 430.2799987792969 12.56999969482422
138.25 430.4700012207031 11.48999977111816
142.1100006103516 421.9800109863281 12.47999954223633
140.2100067138672 421.5299987792969 13.77999973297119
140.8899993896484 421.6799926757812 13.36999988555908
139.6000061035156 421.3800048828125 14.13000011444092
141.5 421.8299865722656 12.86999988555908
141.0599975585938 422.3399963378906 13.10000038146973
141.7299957275391 422.5199890136719 12.73999977111816
139.7599945068359 422.0700073242188 14.17000007629395
140.4799957275391 422.2300109863281 13.67000007629395
141.1900024414062 423.0499877929688 13.13000011444092
140.5700073242188 422.8599853515625 13.64999961853027
139.8999938964844 422.7099914550781 14.01000022888184
140.75 423.6799926757812 13.5
139.4799957275391 423.3800048828125 14.11999988555908
140.1300048828125 423.5299987792969 13.90999984741211
141.3600006103516 423.7900085449219 13.19999980926514
140.8999938964844 424.3999938964844 13.42000007629395
140.2599945068359 424.2200012207031 13.76000022888184
139.6399993896484 424.0599975585938 14.1899995803833
139.8000030517578 424.7799987792969 14.07999992370605
141.0700073242188 425.0799865722656 13.23999977111816
140.4100036621094 424.9400024414062 13.64999961853027
141.6600036621094 425.2099914550781 12.90999984741211
140.5099945068359 425.6300048828125 13.61999988555908
141.1199951171875 425.7999877929688 13.18000030517578
141.7400054931641 425.9599914550781 12.82999992370605
139.8500061035156 425.4800109863281 14.02999973297119
140.0200042724609 426.2999877929688 14.02000045776367
140.6300048828125 426.4500122070312 13.53999996185303
141.2400054931641 426.5599975585938 13.07999992370605
140.8200073242188 427.1499938964844 13.44999980926514
140.2299957275391 426.989990234375 13.80000019073486
141.4900054931641 427.260009765625 12.92000007629395
139.5800018310547 426.8500061035156 14.18000030517578
142.2400054931641 428.0499877929688 12.42000007629395
141.0299987792969 427.760009765625 13.35000038146973
141.6499938964844 427.8999938964844 12.96000003814697
139.7599945068359 427.489990234375 14.14000034332275
140.4600067138672 427.6199951171875 13.6899995803833
141.7700042724609 428.6199951171875 12.65999984741211
139.8200073242188 428.1900024414062 14.22000026702881
140.5800018310547 428.3200073242188 12.88000011444092
139.9799957275391 428.1700134277344 12.89999961853027
141.1199951171875 428.4800109863281 12.88000011444092
141.1799926757812 429.2699890136719 12.80000019073486
139.4199981689453 428.8599853515625 12.82999992370605
141.7299957275391 429.3900146484375 12.67000007629395
140.6000061035156 429.1199951171875 12.78999996185303
140.0299987792969 429.0199890136719 12.84000015258789
140.1300048828125 429.6900024414062 12.76000022888184
139.5800018310547 429.5599975585938 12.77999973297119
140.7400054931641 429.8399963378906 12.73999977111816
141.3600006103516 430.010009765625 12.71000003814697
141.9100036621094 430.1199951171875 12.53999996185303
141.0200042724609 430.4800109863281 11.42000007629395
140.3200073242188 430.3299865722656 12.69999980926514
139.7400054931641 430.2300109863281 12.71000003814697
141.5800018310547 430.6300048828125 11.5
140.4700012207031 430.3500061035156 11.52000045776367
137.5099945068359 430.1900024414062 12.56999969482422
138.1499938964844 430.3500061035156 12.72000026702881
137.9499969482422 430.3099975585938 11.51000022888184
139.1300048828125 430.6000061035156 11.52999973297119
138.4900054931641 430.4200134277344 11.47000026702881
138.3899993896484 429.7799987792969 12.75
137.8200073242188 429.6199951171875 12.6899995803833
138.9700012207031 429.9100036621094 12.6899995803833
138.6799926757812 429.25 12.78999996185303
137.5200042724609 428.9299926757812 12.67000007629395
138.1100006103516 429.0700073242188 12.8100004196167
139.2599945068359 429.3900146484375 12.76000022888184
138.5200042724609 428.5400085449219 12.86999988555908
137.9299926757812 428.3900146484375 12.88000011444092
139.1300048828125 428.7300109863281 12.86999988555908
137.3399963378906 428.2799987792969 12.64999961853027
138.3699951171875 427.7900085449219 13.31999969482422
138.8500061035156 427.9100036621094 12.93000030517578
137.0700073242188 427.489990234375 12.30000019073486
137.6900024414062 427.6199951171875 12.8100004196167
138.9799957275391 427.9500122070312 13.80000019073486
138.6600036621094 427.2300109863281 13.5600004196167
137.3399963378906 426.9500122070312 12.60000038146973
137.9700012207031 427.1099853515625 13.09000015258789
137.6499938964844 426.4200134277344 12.8100004196167
136.9600067138672 426.2900085449219 12.36999988555908
138.3000030517578 426.5799865722656 13.28999996185303
138.9499969482422 426.7200012207031 13.72999954223633
137.4600067138672 425.739990234375 12.64000034332275
138.7400054931641 426.0499877929688 13.5600004196167
138.0899963378906 425.8900146484375 13.03999996185303
137.2899932861328 424.8999938964844 12.48999977111816
137.8999938964844 425.0299987792969 12.97999954223633
138.6000061035156 425.1799926757812 13.47000026702881
139.1900024414062 425.3299865722656 13.89999961853027
137.0200042724609 424.1300048828125 12.46000003814697
139.0200042724609 424.6199951171875 13.73999977111816
138.3200073242188 424.4400024414062 13.26000022888184
137.6999969482422 424.3200073242188 12.82999992370605
138.7299957275391 423.8999938964844 13.56999969482422
137.3699951171875 423.6099853515625 12.60999965667725
138.0299987792969 423.7799987792969 13.09000015258789
137.0899963378906 422.8299865722656 12.4399995803833
139.1499938964844 423.3399963378906 13.85999965667725
138.4199981689453 423.1400146484375 13.39000034332275
137.8099975585938 423 12.90999984741211
138.1499938964844 422.3299865722656 13.15999984741211
137.5099945068359 422.1400146484375 12.72999954223633
136.8899993896484 422.0299987792969 12.44999980926514
138.8399963378906 422.4800109863281 13.60000038146973
137.8600006103516 421.5299987792969 12.97999954223633
138.4700012207031 421.7200012207031 13.43000030517578
137.1699981689453 421.3699951171875 12.55000019073486
139.1499938964844 421.8500061035156 13.89000034332275
139.6799926757812 430.7000122070312 11.52000045776367
140.1900024414062 430.1799926757812 12.6899995803833
141.6600036621094 430.5499877929688 11.51000022888184
139.6199951171875 430.0400085449219 12.72999954223633
141.0599975585938 430.4200134277344 11.42000007629395
140.5200042724609 430.3099975585938 11.48999977111816
140.7700042724609 430.3399963378906 12.71000003814697
140.4199981689453 429.6300048828125 12.80000019073486
141.0500030517578 429.8099975585938 12.73999977111816
142.1699981689453 430.1099853515625 12.48999977111816
139.8500061035156 429.5299987792969 12.77000045776367
141.5899963378906 429.9299926757812 12.6899995803833
141.3999938964844 429.2799987792969 12.78999996185303
141.8999938964844 429.3999938964844 12.48999977111816
140.3200073242188 428.9800109863281 12.81999969482422
139.7100067138672 428.8599853515625 12.82999992370605
140.8800048828125 429.1400146484375 12.81999969482422
139.7100067138672 428.1000061035156 14.17000007629395
140.6199951171875 428.3500061035156 12.88000011444092
141.1999969482422 428.5 12.85999965667725
140.0099945068359 428.2300109863281 12.90999984741211
139.5099945068359 428.0799865722656 12.89000034332275
141.7899932861328 428.6300048828125 12.64000034332275
139.9600067138672 427.5499877929688 14.02000045776367
140.4600067138672 427.6799926757812 13.65999984741211
139.3399963378906 427.3900146484375 13.98999977111816
140.9799957275391 427.7999877929688 13.30000019073486
140.6199951171875 427.1799926757812 13.5600004196167
140.1699981689453 427.0299987792969 13.88000011444092
139.6000061035156 426.8900146484375 14.14000034332275
139.3999938964844 426.1799926757812 13.98999977111816
140.0500030517578 426.3299865722656 13.93000030517578
139.8500061035156 425.5199890136719 14.0600004196167
140.3300018310547 425.6400146484375 13.72999954223633
140.2299957275391 424.8900146484375 13.84000015258789
139.7100067138672 424.75 14.1899995803833
139.3800048828125 424.0700073242188 13.97000026702881
139.9799957275391 424.2000122070312 14.03999996185303
140.4600067138672 424.3500061035156 13.63000011444092
139.7700042724609 423.4500122070312 14.1899995803833
139.4400024414062 422.6300048828125 14.10999965667725
140.0399932861328 422.7799987792969 13.97000026702881
140.3399963378906 422.1400146484375 13.68000030517578
139.8399963378906 422 14.11999988555908
141.8699951171875 422.5599975585938 12.73999977111816
140.1300048828125 421.4700012207031 13.90999984741211
140.6199951171875 421.6000061035156 13.5600004196167
141.1000061035156 421.6900024414062 13.19999980926514
138.6900024414062 422.0799865722656 13.38000011444092
137.8000030517578 421.8699951171875 12.88000011444092
136.7400054931641 421.6000061035156 11.97000026702881
137.3099975585938 422.4200134277344 12.52999973297119
138.3200073242188 422.7099914550781 13.1899995803833
137.1399993896484 423 12.47000026702881
137.2599945068359 425.8299865722656 12.42000007629395
137.7700042724609 426.6900024414062 12.8100004196167
139.4600067138672 427.8800048828125 14.01000022888184
137.5800018310547 427.3900146484375 12.72999954223633
138.5599975585938 427.6600036621094 13.43000030517578
138.6199951171875 428.3599853515625 12.89000034332275
137.0500030517578 427.9500122070312 12.32999992370605
139.3800048828125 428.510009765625 12.82999992370605
137.9900054931641 428.2000122070312 12.90999984741211
138.4299926757812 428.8900146484375 12.81999969482422
139.1000061035156 429.0799865722656 12.82999992370605
137.7400054931641 428.75 12.78999996185303
138.0700073242188 429.5 12.76000022888184
139.4100036621094 429.8099975585938 12.73999977111816
138.7299957275391 429.6300048828125 12.76000022888184
137.3300018310547 429.2900085449219 12.64999961853027
139.3300018310547 430.6000061035156 11.47000026702881
138.5500030517578 430.4100036621094 12.75
137.8300018310547 430.239990234375 12.6899995803833
140.1699981689453 428.0499877929688 13.93000030517578
140.8099975585938 428.8599853515625 12.82999992370605
141.4299926757812 429.0299987792969 12.76000022888184
141.8000030517578 429.7300109863281 12.60999965667725
139.8399963378906 429.25 12.78999996185303
141.2100067138672 429.5899963378906 12.77999973297119
140.1600036621094 429.9800109863281 12.75
142.3899993896484 430.5400085449219 11.39999961853027
140.8300018310547 430.1900024414062 12.73999977111816
141.5200042724609 430.3299865722656 12.64999961853027
139.9600067138672 430.7099914550781 11.36999988555908
140.4299926757812 421.9200134277344 13.60999965667725
141.0399932861328 424.3699951171875 13.42000007629395
140.5399932861328 422.4599914550781 13.56999969482422
141.3099975585938 425.4800109863281 13.14000034332275
141.4799957275391 426.1000061035156 13.09000015258789
141.1799926757812 424.8900146484375 13.17000007629395
141.8899993896484 427.7799987792969 12.57999992370605
141.1100006103516 426.7799987792969 13.22000026702881
141.8600006103516 429.760009765625 12.57999992370605
142 430.2799987792969 12.39999961853027
141.5399932861328 428.5700073242188 12.81999969482422
141.6999969482422 429.1400146484375 12.64999961853027
141.4100036621094 427.9700012207031 13.13000011444092
140.9100036621094 426.1700134277344 13.27000045776367
142.0899963378906 430.6099853515625 11.47000026702881
140.7899932861328 425.5199890136719 13.35999965667725
139.8600006103516 422.0299987792969 14.0600004196167
140.5099945068359 424.3999938964844 13.61999988555908
140.1600036621094 423.2200012207031 13.85999965667725
140.6600036621094 425 13.53999996185303
141.4299926757812 430.6000061035156 11.47999954223633
140.0399932861328 422.5899963378906 13.90999984741211
141.3300018310547 430.3500061035156 12.67000007629395
139.4100036621094 422.7099914550781 14.03999996185303
140.0599975585938 425.2699890136719 13.96000003814697
140.1999969482422 425.8099975585938 13.84000015258789
139.8600006103516 424.5799865722656 14.05000019073486
139.7299957275391 423.9800109863281 14.17000007629395
139.1999969482422 422.0199890136719 13.92000007629395
140.6300048828125 427.5299987792969 13.56999969482422
140.75 428.0899963378906 13.32999992370605
140.8699951171875 428.5799865722656 12.88000011444092
141.1999969482422 429.7699890136719 12.72999954223633
141.0200042724609 429.2099914550781 12.85999965667725
140.3399963378906 426.3900146484375 13.82999992370605
140.4799957275391 426.9299926757812 13.63000011444092
140.1699981689453 428.5799865722656 12.86999988555908
140.6499938964844 430.4299926757812 12.60000038146973
139.5299987792969 423.3399963378906 14.09000015258789
140.7100067138672 430.5899963378906 11.34000015258789
140.4900054931641 429.8500061035156 12.77000045776367
140.3200073242188 429.2699890136719 12.8100004196167
138.4799957275391 421.9100036621094 13.4399995803833
139.9499969482422 427.7099914550781 13.97999954223633
140.0099945068359 427.9800109863281 12.93000030517578
138.6699981689453 422.5599975585938 13.57999992370605
139.3000030517578 425.1900024414062 14.05000019073486
139.6300048828125 426.4400024414062 14.14999961853027
138.7799987792969 423.2000122070312 13.63000011444092
139.1300048828125 424.5299987792969 13.90999984741211
139.4900054931641 425.8699951171875 14.10999965667725
139.8000030517578 427.1000061035156 14.11999988555908
137.9499969482422 422.489990234375 13.02999973297119
138.1199951171875 423.1799926757812 13.14000034332275
138.4799957275391 424.5400085449219 13.40999984741211
139.3000030517578 427.8299865722656 13.92000007629395
139.1199951171875 427.1900024414062 13.89000034332275
138.8000030517578 425.8999938964844 13.60999965667725
138.2700042724609 423.8299865722656 13.25
139.6600036621094 429.2900085449219 12.77999973297119
139.5399932861328 428.7300109863281 12.85999965667725
138.9600067138672 423.8800048828125 13.78999996185303
137.7899932861328 421.7900085449219 12.89999961853027
138.6399993896484 425.2000122070312 13.52999973297119
140.0200042724609 430.6799926757812 11.27000045776367
139.8399963378906 429.9299926757812 12.69999980926514
139.3500061035156 428.0700073242188 12.92000007629395
138.9499969482422 426.5199890136719 13.77000045776367
137.5099945068359 422.9500122070312 12.71000003814697
137.3399963378906 422.3299865722656 12.56999969482422
137.2200012207031 421.7099914550781 12.5
138.3399963378906 426.2900085449219 13.36999988555908
138.1600036621094 425.6600036621094 13.19999980926514
138.5 426.9299926757812 13.4399995803833
137.8399963378906 424.3099975585938 12.97000026702881
137.6999969482422 423.6400146484375 12.85000038146973
138.7799987792969 428.0899963378906 12.93000030517578
138.9700012207031 428.6700134277344 12.84000015258789
139.0899963378906 429.2699890136719 12.81999969482422
138.0200042724609 424.9400024414062 13.06999969482422
138.6499938964844 427.6199951171875 13.51000022888184
139.2400054931641 429.9200134277344 12.72999954223633
136.9900054931641 423.4500122070312 12.10999965667725
137.8399963378906 426.9200134277344 12.94999980926514
137.5299987792969 425.5599975585938 12.72000026702881
138.4700012207031 429.3099975585938 12.77999973297119
138.1499938964844 428.1199951171875 13.01000022888184
137.9900054931641 427.5599975585938 13.03999996185303
138.6199951171875 429.8900146484375 12.6899995803833
137.6799926757812 426.2900085449219 12.85000038146973
138.3200073242188 428.7000122070312 12.85999965667725
137.1799926757812 424.1499938964844 12.4399995803833
137.3399963378906 424.8800048828125 12.59000015258789
138.8099975585938 430.6900024414062 11.26000022888184
136.9600067138672 426.1099853515625 12.4399995803833
137.0899963378906 426.7099914550781 12.46000003814697
136.8899993896484 425.7699890136719 11.4399995803833
137.4700012207031 428.0499877929688 12.67000007629395
138.0299987792969 430.2300109863281 11.48999977111816
137.7799987792969 429.3099975585938 12.76000022888184
137.9600067138672 430 12.72999954223633
137.6000061035156 428.739990234375 12.73999977111816
137.2599945068359 427.3699951171875 12.52000045776367
137.3000030517578 430.0599975585938 12.47999954223633
137.3999938964844 430.3800048828125 11.57999992370605
137.4600067138672 428.1900024414062 12.64999961853027
137.1600036621094 427.0799865722656 12.43000030517578
137.0399932861328 426.5199890136719 12.25
137.3500061035156 427.6400146484375 12.5
137.8999938964844 429.9400024414062 12.69999980926514
137.6199951171875 428.8099975585938 12.68000030517578
138.0099945068359 430.4800109863281 11.52999973297119
138.0700073242188 430.5299987792969 12.72999954223633
137.7799987792969 429.3800048828125 12.73999977111816
138.6799926757812 430.5199890136719 11.53999996185303
138.5700073242188 430.0199890136719 12.72999954223633
137.6900024414062 426.5899963378906 12.85999965667725
138.6600036621094 430.5599975585938 12.67000007629395
138.1000061035156 428.2900085449219 12.85000038146973
137.9700012207031 427.7200012207031 13.05000019073486
137.8699951171875 427.2200012207031 12.96000003814697
137.5599975585938 426.0199890136719 12.77000045776367
136.9600067138672 423.6499938964844 11.72999954223633
137.3899993896484 425.4500122070312 12.63000011444092
137.2299957275391 424.8699951171875 12.48999977111816
138.2599945068359 428.8599853515625 12.84000015258789
137.0899963378906 424.25 12.42000007629395
138.4100036621094 429.4200134277344 12.73999977111816
139.1300048828125 430.1000061035156 12.72999954223633
138.6600036621094 428.3500061035156 12.89000034332275
138.1199951171875 426.1799926757812 13.18000030517578
138.4299926757812 427.260009765625 13.35000038146973
137.7100067138672 424.4400024414062 12.81999969482422
138.9499969482422 429.5299987792969 12.76000022888184
138.8500061035156 428.9700012207031 12.84000015258789
137.1000061035156 422.1600036621094 12.36999988555908
137.8300018310547 425.0400085449219 12.97999954223633
137.4400024414062 423.3399963378906 12.64999961853027
138.2700042724609 426.7300109863281 13.27000045776367
137.5500030517578 423.8599853515625 12.81999969482422
139.2200012207031 430.5899963378906 11.48999977111816
138 425.5899963378906 13.05000019073486
136.9400024414062 421.5499877929688 11.64000034332275
138.5399932861328 427.8599853515625 13.39999961853027
137 421.6000061035156 12.43000030517578
137.2899932861328 422.739990234375 12.48999977111816
139.8000030517578 430.2200012207031 12.73999977111816
139.3399963378906 428.510009765625 12.85000038146973
139.1100006103516 427.3999938964844 13.85000038146973
139.4900054931641 429.0499877929688 12.77999973297119
139.6600036621094 429.6600036621094 12.77000045776367
138.1000061035156 423.4100036621094 13.10000038146973
138.3699951171875 424.4800109863281 13.35000038146973
139.2700042724609 428.0400085449219 13.98999977111816
137.6300048828125 421.6900024414062 12.8100004196167
137.8099975585938 422.2699890136719 12.92000007629395
138.7799987792969 426.2799987792969 13.64000034332275
139.2100067138672 427.989990234375 12.90999984741211
138.6699981689453 425.6799926757812 13.52999973297119
137.9600067138672 422.8500061035156 13.0600004196167
138.2200012207031 423.9200134277344 13.19999980926514
138.4900054931641 425.0700073242188 13.43000030517578
138.9700012207031 426.8399963378906 13.69999980926514
140.4799957275391 430.1499938964844 12.6899995803833
140.2200012207031 429.010009765625 12.8100004196167
139.9400024414062 427.8999938964844 12.85000038146973
139.8300018310547 427.4100036621094 14.07999992370605
139.9400024414062 427.9200134277344 14.03999996185303
139.5099945068359 426.2900085449219 14.14999961853027
139.6999969482422 426.8599853515625 14.11999988555908
138.6499938964844 422.8599853515625 13.53999996185303
140.0500030517578 428.4299926757812 12.86999988555908
138.8000030517578 423.4100036621094 13.71000003814697
139.1100006103516 424.5499877929688 13.84000015258789
140.3500061035156 429.5499877929688 12.80000019073486
138.5399932861328 422.2799987792969 13.43000030517578
139.2299957275391 425.1499938964844 13.97000026702881
138.9600067138672 424.010009765625 13.77000045776367
138.3500061035156 421.7000122070312 13.35000038146973
139.4100036621094 425.7300109863281 14.06999969482422
141.2700042724609 430.6199951171875 11.52000045776367
140.7200012207031 428.4500122070312 12.89999961853027
140.8600006103516 429 12.82999992370605
140.9900054931641 429.5899963378906 12.80000019073486
140.4499969482422 427.3200073242188 13.67000007629395
141.1300048828125 430.1600036621094 12.6899995803833
139.8899993896484 425.010009765625 14.02000045776367
139.7599945068359 424.4800109863281 14.10999965667725
140.3000030517578 426.7999877929688 13.77999973297119
140.1600036621094 426.1900024414062 13.85999965667725
140.5899963378906 427.8800048828125 13.28999996185303
139.3500061035156 422.8299865722656 13.98999977111816
140.0099945068359 425.6300048828125 13.93000030517578
139.6199951171875 423.9200134277344 14.1899995803833
139.4900054931641 423.3900146484375 14.10999965667725
139.1600036621094 422.260009765625 13.89999961853027
139.0399932861328 421.6799926757812 13.81999969482422
140.8500061035156 426.8200073242188 13.36999988555908
140.5700073242188 425.6900024414062 13.52000045776367
140.4400024414062 425.1700134277344 13.64000034332275
139.9199981689453 422.9100036621094 14.02999973297119
140.1600036621094 424.0599975585938 13.93000030517578
139.7700042724609 422.2999877929688 14.09000015258789
140.75 426.2799987792969 13.43000030517578
