313.6700134277344 305.7900085449219 11.67000007629395
314.3299865722656 305.9500122070312 11.77999973297119
319.4500122070312 307.2300109863281 10.39000034332275
318.6300048828125 307 10.6899995803833
321.1900024414062 307.6300048828125 9.979999542236328
322.010009765625 307.8500061035156 11.1899995803833
317.7999877929688 306.7999877929688 10.85000038146973
316.9800109863281 306.6099853515625 11.10999965667725
321.5299987792969 307.7000122070312 10.81999969482422
316.1199951171875 306.3800048828125 11.35000038146973
313.010009765625 305.7000122070312 8.539999961853027
325 308.5299987792969 12.75
322.6300048828125 307.989990234375 11.44999980926514
328.3200073242188 309.3399963378906 13.35999965667725
324.3599853515625 308.3800048828125 12.43000030517578
325.5599975585938 308.6400146484375 13.09000015258789
329.3599853515625 309.6000061035156 12.80000019073486
315.2099914550781 306.1600036621094 11.63000011444092
326.7000122070312 308.9299926757812 13.72000026702881
335.0199890136719 311.0299987792969 7.849999904632568
335.7300109863281 311.1600036621094 7.829999923706055
323.8299865722656 308.239990234375 12.09000015258789
313.4400024414062 305.739990234375 10.72999954223633
327.3800048828125 309.0899963378906 13.86999988555908
320.4200134277344 307.4700012207031 10.07999992370605
332.6300048828125 310.3800048828125 10.93000030517578
331.510009765625 310.1000061035156 11.60000038146973
326.1900024414062 308.7900085449219 13.39000034332275
330.4800109863281 309.8599853515625 12.14999961853027
323.2000122070312 308.0799865722656 11.80000019073486
313.010009765625 305.0400085449219 7.659999847412109
312.8299865722656 305.0700073242188 5.019999980926514
314.1000061035156 305.2900085449219 11.06999969482422
315.3399963378906 305.5899963378906 11.46000003814697
313.3999938964844 305.1199951171875 10.89999961853027
320.8999938964844 306.9100036621094 10.78999996185303
319.1199951171875 306.4599914550781 11.35000038146973
322.1900024414062 307.2099914550781 11.27000045776367
319.9800109863281 306.7099914550781 11.07999992370605
312.9200134277344 305.0499877929688 6.309999942779541
323.2999877929688 307.5 11.82999992370605
312.739990234375 304.9700012207031 9.470000267028809
313.4700012207031 305.1300048828125 9.510000228881836
325.5899963378906 308.010009765625 13.09000015258789
324.3900146484375 307.760009765625 12.47999954223633
321.6199951171875 307.0799865722656 10.94999980926514
326.1900024414062 308.1499938964844 13.4399995803833
316.0299987792969 305.75 11.63000011444092
316.6600036621094 305.8699951171875 11.76000022888184
323.9200134277344 307.6400146484375 12.13000011444092
314.6900024414062 305.3999938964844 11.27999973297119
332.7999877929688 309.7900085449219 10.85999965667725
317.3800048828125 306.0299987792969 11.77000045776367
322.7699890136719 307.3399963378906 11.57999992370605
335.2300109863281 310.4100036621094 7.860000133514404
330.5700073242188 309.2300109863281 12.13000011444092
326.7000122070312 308.2999877929688 13.75
335.9400024414062 310.5700073242188 7.889999866485596
325.0499877929688 307.8999938964844 12.81999969482422
327.3699951171875 308.4299926757812 13.92000007629395
329.5700073242188 309 12.78999996185303
328.4599914550781 308.7000122070312 13.30000019073486
331.7099914550781 309.5299987792969 11.52000045776367
318.2300109863281 306.2900085449219 11.60000038146973
312.9599914550781 304.3099975585938 7.539999961853027
312.8200073242188 304.2900085449219 4.909999847412109
313.1000061035156 304.2999877929688 9.920000076293945
315.7300109863281 304.9400024414062 10.72999954223633
315.0299987792969 304.7799987792969 10.56999969482422
318.3099975585938 305.5400085449219 11.44999980926514
312.9700012207031 304.3099975585938 6.050000190734863
314.4500122070312 304.6400146484375 10.30000019073486
317.7200012207031 305.4100036621094 11.21000003814697
317.0700073242188 305.239990234375 11.07999992370605
324.4599914550781 307.010009765625 12.46000003814697
323.8599853515625 306.8800048828125 12.10999965667725
318.9200134277344 305.7099914550781 11.65999984741211
326.7799987792969 307.5799865722656 13.77999973297119
326.2099914550781 307.4299926757812 13.4399995803833
322.6600036621094 306.6099853515625 11.52000045776367
328.5199890136719 307.989990234375 13.25
329.5199890136719 308.25 12.65999984741211
320.3699951171875 306.0299987792969 11.71000003814697
322.0400085449219 306.4299926757812 11.43000030517578
332.5799865722656 308.989990234375 11.11999988555908
319.6099853515625 305.8299865722656 11.75
321.1799926757812 306.2200012207031 11.52999973297119
323.260009765625 306.75 11.86999988555908
316.4200134277344 305.1000061035156 10.92000007629395
330.5799865722656 308.510009765625 12.11999988555908
335.1499938964844 309.6499938964844 7.789999961853027
331.6199951171875 308.7699890136719 11.52999973297119
325.6000061035156 307.2699890136719 13.10999965667725
327.4599914550781 307.739990234375 13.81999969482422
324.9800109863281 307.1300048828125 12.77999973297119
334.25 309.3800048828125 10.90999984741211
322.5700073242188 305.9599914550781 11.78999996185303
325.5599975585938 306.6199951171875 13.10999965667725
333.4599914550781 309.1900024414062 10.93000030517578
324.9500122070312 306.5 12.72000026702881
326.1000061035156 306.7799987792969 13.36999988555908
328.3500061035156 307.3299865722656 13.39000034332275
333.0499877929688 308.489990234375 11.71000003814697
329.3999938964844 307.5499877929688 12.80000019073486
323.25 306.1300048828125 11.88000011444092
331.1799926757812 308.010009765625 12.25
330.3299865722656 307.7900085449219 12.53999996185303
333.989990234375 308.7200012207031 11.47000026702881
323.8099975585938 306.2200012207031 12.14000034332275
327.3200073242188 307.0499877929688 13.89000034332275
334.7999877929688 308.8900146484375 11.21000003814697
324.3999938964844 306.3900146484375 12.42000007629395
335.8599853515625 309.8099975585938 7.869999885559082
332.1300048828125 308.25 11.98999977111816
335.6799926757812 309.0899963378906 10.98999977111816
326.6900024414062 306.9200134277344 13.72000026702881
312.8800048828125 303.6600036621094 6.199999809265137
312.9599914550781 303.6799926757812 7.489999771118164
313.4400024414062 303.7900085449219 9.329999923706055
314.7099914550781 304.1000061035156 9.680000305175781
312.8500061035156 303.6000061035156 9.229999542236328
317.3200073242188 304.7000122070312 10.40999984741211
319.25 305.1600036621094 11.02000045776367
315.9800109863281 304.3599853515625 10.05000019073486
316.6799926757812 304.5299987792969 10.1899995803833
321.8900146484375 305.7699890136719 11.6899995803833
320.5299987792969 305.4500122070312 11.27999973297119
319.9200134277344 305.3299865722656 11.14999961853027
312.7799987792969 303.6600036621094 4.829999923706055
314.2099914550781 303.4299926757812 8.909999847412109
314.1199951171875 303.9299926757812 9.550000190734863
312.9100036621094 303.1199951171875 8.640000343322754
316.2000122070312 303.9200134277344 9.479999542236328
315.3099975585938 304.2300109863281 9.899999618530273
321.1700134277344 305.6000061035156 11.47999954223633
318.5599975585938 304.989990234375 10.73999977111816
316.7999877929688 304.0499877929688 9.680000305175781
314.9299926757812 303.6000061035156 9.069999694824219
317.9500122070312 304.8200073242188 10.60999965667725
318.7699890136719 304.5400085449219 10.23999977111816
320.0700073242188 304.8399963378906 10.60999965667725
323.1000061035156 305.5799865722656 11.76000022888184
319.3900146484375 304.6600036621094 10.43000030517578
321.9500122070312 305.260009765625 11.18000030517578
318.2099914550781 304.3999938964844 10.02000045776367
325.4500122070312 306.0799865722656 13.02000045776367
322.5700073242188 305.4400024414062 11.4399995803833
326.0299987792969 306.2200012207031 13.38000011444092
320.6600036621094 304.9700012207031 10.75
317.5400085449219 304.25 9.899999618530273
323.7099914550781 305.7000122070312 12.05000019073486
326.6300048828125 306.3800048828125 13.6899995803833
324.8699951171875 305.9599914550781 12.72999954223633
328.2799987792969 306.7900085449219 13.32999992370605
321.3699951171875 305.1300048828125 10.94999980926514
324.260009765625 305.8500061035156 12.36999988555908
312.8900146484375 303.1300048828125 7.289999961853027
329.3099975585938 307.0499877929688 12.80000019073486
334.989990234375 308.4299926757812 11.77999973297119
327.2900085449219 306.510009765625 13.97000026702881
330.9200134277344 307.4200134277344 12.48999977111816
330.2200012207031 307.239990234375 12.42000007629395
335.8900146484375 308.6300048828125 11.64000034332275
332.4500122070312 307.7999877929688 12.48999977111816
334.1799926757812 308.2099914550781 12
331.6400146484375 307.6199951171875 12.64000034332275
333.3500061035156 308.0199890136719 12.19999980926514
312.8500061035156 303.1400146484375 5.949999809265137
313.2799987792969 302.6900024414062 8.079999923706055
312.6400146484375 302.510009765625 7.800000190734863
314.5400085449219 302.989990234375 8.399999618530273
318.3900146484375 303.8800048828125 9.479999542236328
322.0299987792969 304.75 11.07999992370605
315.239990234375 303.1499938964844 8.600000381469727
323.2099914550781 305.0299987792969 11.81999969482422
319.6099853515625 304.2000122070312 9.880000114440918
316.4599914550781 303.4100036621094 8.939999580383301
317.1199951171875 303.5599975585938 9.149999618530273
319.0499877929688 304.0599975585938 9.619999885559082
315.8099975585938 303.2699890136719 8.729999542236328
324.2799987792969 305.2900085449219 12.42000007629395
328.1300048828125 306.2099914550781 13.47000026702881
330.2799987792969 306.7000122070312 12.28999996185303
331.2300109863281 306.9299926757812 12
331.8699951171875 307.0899963378906 12.10999965667725
317.7300109863281 303.739990234375 9.300000190734863
322.6400146484375 304.8900146484375 11.44999980926514
332.5400085449219 307.25 12.35999965667725
326.5400085449219 305.7900085449219 13.65999984741211
333.2099914550781 307.4400024414062 12.48999977111816
321 304.510009765625 10.22000026702881
321.4100036621094 304.5899963378906 10.80000019073486
329.1600036621094 306.4599914550781 12.94999980926514
334.6799926757812 307.760009765625 12.5600004196167
324.8800048828125 305.3999938964844 12.71000003814697
323.7999877929688 305.1700134277344 12.10000038146973
325.4400024414062 305.5199890136719 13.01000022888184
334 307.6199951171875 12.5600004196167
327.2000122070312 305.9400024414062 13.96000003814697
335.3399963378906 307.2799987792969 12.39999961853027
335.5499877929688 307.9800109863281 12.32999992370605
334.7099914550781 307.1499938964844 12.22999954223633
334.0899963378906 306.9700012207031 12.01000022888184
335.9700012207031 307.4299926757812 12.75
326.010009765625 305.6900024414062 13.34000015258789
315.3900146484375 302.5299987792969 7.880000114440918
318.0400085449219 303.1400146484375 8.619999885559082
316.7000122070312 302.8500061035156 8.279999732971191
321.2300109863281 303.8999938964844 9.569999694824219
316.0700073242188 302.6600036621094 8.090000152587891
321.2999877929688 303.9200134277344 10.73999977111816
323.6099853515625 304.4599914550781 12
322.4700012207031 304.1799926757812 11.38000011444092
325.3999938964844 304.8699951171875 13
317.3999938964844 302.9700012207031 8.470000267028809
324.1900024414062 304.6000061035156 12.32999992370605
318.7200012207031 303.3099975585938 8.859999656677246
328.2099914550781 305.5400085449219 13.4399995803833
324.7699890136719 304.7099914550781 12.68000030517578
320.6099853515625 303.7699890136719 9.359999656677246
331.2699890136719 306.3200073242188 11.67000007629395
323.0899963378906 304.3099975585938 11.72000026702881
319.3599853515625 303.4400024414062 9.029999732971191
332.1000061035156 306.5199890136719 11.5
332.760009765625 306.6499938964844 11.6899995803833
329.2300109863281 305.7999877929688 12.84000015258789
325.9400024414062 305 13.27000045776367
316.25 302.1099853515625 7.690000057220459
321.989990234375 304.0899963378906 11.0600004196167
330.239990234375 306.0400085449219 12.3100004196167
317.6099853515625 302.4800109863281 7.849999904632568
327.1099853515625 305.2799987792969 13.96000003814697
320.8099975585938 303.2099914550781 8.729999542236328
326.5700073242188 305.1199951171875 13.65999984741211
318.8599853515625 302.7300109863281 8.270000457763672
319.5700073242188 302.9400024414062 8.409999847412109
323.0899963378906 303.739990234375 11.72000026702881
321.2900085449219 303.3200073242188 10.69999980926514
316.9299926757812 302.2999877929688 7.730000019073486
325.3500061035156 304.260009765625 12.93000030517578
325.9100036621094 304.3900146484375 13.18000030517578
324.739990234375 304.1300048828125 12.64999961853027
318.3099975585938 302.6300048828125 7.989999771118164
321.4700012207031 303.3999938964844 8.960000038146973
333.4299926757812 306.8099975585938 11.86999988555908
321.8900146484375 303.4200134277344 11.06999969482422
320.1900024414062 303.0799865722656 8.590000152587891
327.1799926757812 304.7000122070312 13.56999969482422
322.4700012207031 303.5599975585938 11.35999965667725
331.1400146484375 305.6400146484375 11.84000015258789
326.6300048828125 304.5599975585938 13.35000038146973
330.0599975585938 305.3900146484375 12.39999961853027
335.0799865722656 306.6099853515625 11.61999988555908
328.9800109863281 305.1600036621094 12.97999954223633
332.260009765625 305.9599914550781 11.14999961853027
323.6600036621094 303.8699951171875 12.05000019073486
320.0199890136719 303.6099853515625 9.189999580383301
333.7099914550781 306.2799987792969 11.27000045776367
334.3999938964844 306.4400024414062 11.47000026702881
324.2200012207031 303.9700012207031 12.38000011444092
328.010009765625 304.8900146484375 13.55000019073486
333 306.1400146484375 11.03999996185303
335.6799926757812 306.7699890136719 11.81999969482422
321.8999938964844 303.4599914550781 9.550000190734863
319.7900085449219 302.4400024414062 7.840000152587891
319.0199890136719 302.2200012207031 7.710000038146973
321.1700134277344 302.7300109863281 10.64999961853027
321.7099914550781 302.8599853515625 10.9399995803833
322.8599853515625 303.1300048828125 11.59000015258789
322.3399963378906 302.9800109863281 11.30000019073486
323.5 303.2900085449219 11.89999961853027
321.0700073242188 302.739990234375 8.119999885559082
326.7200012207031 304.0400085449219 12.75
324.7300109863281 303.5499877929688 12.27999973297119
326.0799865722656 303.8999938964844 12.65999984741211
330.9800109863281 305.0599975585938 11.89000034332275
321.8500061035156 302.8800048828125 9.420000076293945
321.6600036621094 302.8800048828125 8.449999809265137
332 305.3200073242188 11.27999973297119
325.4299926757812 303.7099914550781 12.40999984741211
324.0700073242188 303.4100036621094 12.10999965667725
329.9400024414062 304.8399963378906 12.4399995803833
334.4700012207031 305.9100036621094 10.89999961853027
327.3999938964844 304.1700134277344 13.0600004196167
333.8200073242188 305.760009765625 10.71000003814697
332.9700012207031 305.5499877929688 10.89000034332275
320.3999938964844 302.5499877929688 8.039999961853027
328.0400085449219 304.3599853515625 13.18000030517578
335.7699890136719 306.2200012207031 11.27000045776367
328.9200134277344 304.5499877929688 13.02999973297119
335.1499938964844 306.1099853515625 11.01000022888184
321.25 302.1400146484375 7.639999866485596
321.8299865722656 302.260009765625 10.77999973297119
323.2000122070312 302.6400146484375 6.769999980926514
323.8999938964844 302.7999877929688 6.829999923706055
323.6799926757812 302.7900085449219 5.820000171661377
324.3900146484375 302.9200134277344 5.920000076293945
324.4599914550781 302.8999938964844 11.5
322.4800109863281 302.4100036621094 10.94999980926514
323.8399963378906 302.7200012207031 11.26000022888184
327.7099914550781 303.6600036621094 12.35000038146973
328.9599914550781 303.9299926757812 12.77000045776367
331.9200134277344 304.6900024414062 11.35999965667725
326.9700012207031 303.5 12.18000030517578
326.3900146484375 303.3200073242188 11.97999954223633
321.9299926757812 302.2999877929688 7.679999828338623
330.8200073242188 304.3999938964844 11.96000003814697
323.1600036621094 302.5700073242188 11.09000015258789
329.7699890136719 304.1400146484375 12.53999996185303
325.1700134277344 303.0599975585938 11.65999984741211
325.7200012207031 303.1900024414062 11.80000019073486
324.6400146484375 302.25 10.85999965667725
325.8299865722656 302.5799865722656 5.800000190734863
325.9100036621094 302.5299987792969 11.14999961853027
325.8299865722656 302.6000061035156 7.119999885559082
328.2799987792969 303.7999877929688 12.5
328.5899963378906 303.1900024414062 11.81999969482422
330.8299865722656 303.7200012207031 11.92000007629395
331.8500061035156 303.9700012207031 11.40999984741211
326.6199951171875 302.7000122070312 11.27000045776367
326.7000122070312 302.7999877929688 6.980000019073486
326.5799865722656 302.7900085449219 5.789999961853027
327.3200073242188 302.8500061035156 11.52000045776367
332.9400024414062 304.9100036621094 10.9399995803833
332.8599853515625 304.2200012207031 10.84000015258789
327.8900146484375 303.0299987792969 11.71000003814697
329.260009765625 303.3200073242188 12.02000045776367
329.9100036621094 303.5 12.27999973297119
325.2699890136719 302.3699951171875 11.02999973297119
328.2900085449219 302.5899963378906 6.789999961853027
328.8099975585938 302.6300048828125 11.23999977111816
326.8299865722656 302.1799926757812 10.8100004196167
329.4100036621094 302.7699890136719 11.39000034332275
330.1300048828125 302.9700012207031 11.5600004196167
328.1400146484375 302.4800109863281 11.05000019073486
327.5400085449219 302.3699951171875 6.760000228881836
330.739990234375 303.1099853515625 11.82999992370605
328.9700012207031 302.7200012207031 6.75
327.489990234375 302.2999877929688 10.98999977111816
332.6300048828125 303.5499877929688 10.98999977111816
331.6099853515625 303.2999877929688 11.47999954223633
328.0499877929688 301.9500122070312 6.699999809265137
331 302.7099914550781 5.53000020980835
330.4299926757812 302.5299987792969 6.53000020980835
331.5700073242188 302.7799987792969 11.39000034332275
328.8500061035156 302.0899963378906 10.80000019073486
332.5 303.010009765625 11.05000019073486
328.75 302.1499938964844 6.71999979019165
330.9599914550781 302.5899963378906 11.28999996185303
330.2699890136719 302.4299926757812 11.03999996185303
329.5700073242188 302.2699890136719 10.92000007629395
331.7200012207031 302.8299865722656 6.929999828338623
331.1400146484375 302.7300109863281 6.559999942779541
327.3599853515625 301.7799987792969 6.710000038146973
328.1700134277344 301.3299865722656 6.610000133514404
333.5299987792969 302.6400146484375 4.809999942779541
328.8699951171875 301.5 6.670000076293945
333.8900146484375 302.75 6.900000095367432
333.6300048828125 302.6499938964844 6.099999904632568
331.8299865722656 302.1799926757812 10.77999973297119
332.4700012207031 302.3399963378906 10.93000030517578
333.0199890136719 302.2000122070312 10.88000011444092
332.0499877929688 302.6600036621094 11.22000026702881
334.0799865722656 303.1400146484375 7.869999885559082
331.4100036621094 302.5 11.06999969482422
327.7099914550781 301.5199890136719 6.659999847412109
328.9100036621094 301.8500061035156 6.679999828338623
330.2699890136719 302.2200012207031 10.81999969482422
327.1199951171875 301.3699951171875 6.559999942779541
328.3399963378906 301.6799926757812 6.630000114440918
332.739990234375 302.8500061035156 10.93000030517578
330.9100036621094 302.3699951171875 10.93000030517578
334.3200073242188 303.8699951171875 7.730000019073486
332.260009765625 303.3900146484375 11.21000003814697
331.5499877929688 303.25 11.57999992370605
330.9599914550781 303.0799865722656 11.6899995803833
329.239990234375 302.6400146484375 11.17000007629395
328.1300048828125 302.3900146484375 10.92000007629395
332.9400024414062 303.5599975585938 10.81999969482422
330.3900146484375 302.9500122070312 11.52999973297119
329.8800048828125 302.7999877929688 11.30000019073486
327.9299926757812 302.260009765625 6.699999809265137
327.3500061035156 302.1499938964844 6.71999979019165
327.5599975585938 302.2099914550781 10.89999961853027
328.5799865722656 302.4100036621094 6.739999771118164
328.7000122070312 302.5299987792969 11
332.6300048828125 304.1000061035156 11.03999996185303
331.8699951171875 303.9299926757812 11.39000034332275
334.6400146484375 304.5899963378906 7.71999979019165
329.2900085449219 303.2900085449219 11.89999961853027
328.1199951171875 303.0299987792969 11.64999961853027
328.7000122070312 303.1400146484375 11.78999996185303
325.9500122070312 302.4400024414062 10.9399995803833
325.3399963378906 302.3200073242188 10.92000007629395
333.9400024414062 304.4299926757812 7.940000057220459
330.4500122070312 303.5899963378906 12.18000030517578
327.6300048828125 302.8900146484375 11.40999984741211
327.0799865722656 302.7300109863281 11.27000045776367
326.510009765625 302.6199951171875 11.14000034332275
335.9100036621094 305.5799865722656 10.59000015258789
329.8900146484375 303.4599914550781 12.06999969482422
328.7999877929688 303.8399963378906 12.55000019073486
331.4599914550781 304.510009765625 11.65999984741211
327.1000061035156 303.3999938964844 12.06999969482422
328.2099914550781 303.7200012207031 12.40999984741211
334.1099853515625 305.1300048828125 7.849999904632568
331.1700134277344 303.75 11.81999969482422
330.0299987792969 304.1400146484375 12.44999980926514
332.1199951171875 304.6700134277344 11.28999996185303
325.4100036621094 302.9800109863281 11.51000022888184
327.7099914550781 303.5599975585938 12.22000026702881
323.6900024414062 302.5299987792969 11.0600004196167
326.5599975585938 303.2799987792969 11.88000011444092
324.7999877929688 302.8599853515625 11.36999988555908
329.3500061035156 303.9800109863281 12.72000026702881
322.5700073242188 302.2799987792969 10.90999984741211
325.9700012207031 303.1099853515625 11.71000003814697
323.1400146484375 302.3999938964844 10.9399995803833
330.7200012207031 304.3399963378906 12.05000019073486
324.2300109863281 302.7000122070312 11.1899995803833
332.7799987792969 304.8099975585938 10.93000030517578
324.3800048828125 303.4700012207031 12.02000045776367
322.1700134277344 302.8900146484375 11.14999961853027
321.1000061035156 302.5899963378906 7.880000114440918
320.4700012207031 302.4500122070312 7.769999980926514
324.9100036621094 303.5799865722656 12.23999977111816
323.2799987792969 303.1900024414062 11.72999954223633
321.7000122070312 302.7300109863281 8.069999694824219
321.6000061035156 302.739990234375 10.90999984741211
319.9100036621094 302.3099975585938 7.71999979019165
322.7099914550781 303.0499877929688 11.44999980926514
323.7699890136719 303.3399963378906 11.89999961853027
335.9800109863281 306.3500061035156 11.35000038146973
334.8900146484375 306.0700073242188 10.97000026702881
333.8299865722656 305.760009765625 8.069999694824219
334.4800109863281 305.9500122070312 7.690000057220459
330.9700012207031 305.1300048828125 11.93000030517578
333.1199951171875 305.6199951171875 10.89000034332275
329.6199951171875 304.7900085449219 12.67000007629395
331.739990234375 305.2799987792969 11.55000019073486
330.3099975585938 304.9700012207031 12.30000019073486
328.2300109863281 304.4500122070312 13.21000003814697
332.4800109863281 305.4700012207031 11.02999973297119
326.6000061035156 304.010009765625 12.75
334.3399963378906 305.9299926757812 10.88000011444092
335.4800109863281 306.25 11.10999965667725
327.6900024414062 304.2900085449219 13.01000022888184
325.489990234375 303.760009765625 12.40999984741211
326.0199890136719 303.8999938964844 12.5600004196167
328.8599853515625 304.5799865722656 13.13000011444092
333.3299865722656 306.3099975585938 11.14999961853027
334.5199890136719 306.6199951171875 11.51000022888184
333.8699951171875 306.4700012207031 11.31999969482422
332.75 306.2000122070312 11.02000045776367
328.6199951171875 305.1499938964844 13.21000003814697
327.1499938964844 304.1700134277344 12.86999988555908
332.1300048828125 306.010009765625 11.3100004196167
329.3399963378906 305.3699951171875 12.88000011444092
330 305.5199890136719 12.44999980926514
331.4500122070312 305.8299865722656 11.65999984741211
335.6099853515625 306.8800048828125 11.89000034332275
325.6400146484375 304.4500122070312 13.09000015258789
330.7799987792969 305.7000122070312 12.05000019073486
322.9800109863281 303.739990234375 11.65999984741211
325.0799865722656 304.2900085449219 12.80000019073486
335.0599975585938 306.75 11.6899995803833
324.5599975585938 304.1199951171875 12.56999969482422
323.9700012207031 303.9700012207031 12.21000003814697
321.3099975585938 303.260009765625 8.699999809265137
327.3699951171875 304.8699951171875 13.63000011444092
320.739990234375 303.1199951171875 8.539999961853027
322.489990234375 303.6199951171875 11.35999965667725
326.7900085449219 304.7000122070312 13.47000026702881
320.2000122070312 303.010009765625 8.340000152587891
323.4700012207031 303.8900146484375 11.92000007629395
326.1600036621094 304.5400085449219 13.32999992370605
327.9599914550781 304.989990234375 13.60999965667725
321.3900146484375 303.3200073242188 10.76000022888184
321.9200134277344 303.4800109863281 11.0600004196167
321.8599853515625 303.3999938964844 8.970000267028809
319.6400146484375 302.8699951171875 8.199999809265137
317.3200073242188 302.25 7.739999771118164
319.0499877929688 302.7200012207031 8
317.9100036621094 302.4100036621094 7.710000038146973
318.489990234375 302.5499877929688 7.860000133514404
320.2300109863281 303.6000061035156 9.130000114440918
318.0599975585938 303.0700073242188 8.430000305175781
317.4800109863281 302.9299926757812 8.289999961853027
316.3500061035156 302.6099853515625 7.960000038146973
318.6099853515625 303.1900024414062 8.600000381469727
315.8099975585938 302.4700012207031 7.789999961853027
319.1799926757812 303.3299865722656 8.710000038146973
314.6499938964844 302.2099914550781 7.690000057220459
319.7200012207031 303.4599914550781 8.979999542236328
316.9200134277344 302.7900085449219 8.100000381469727
315.260009765625 302.3399963378906 7.690000057220459
335.739990234375 307.5299987792969 12.63000011444092
331.1199951171875 306.3699951171875 11.86999988555908
331.7799987792969 306.5199890136719 11.52999973297119
333.5199890136719 306.9599914550781 11.90999984741211
334.0700073242188 307.0899963378906 12.07999992370605
330.4200134277344 306.2000122070312 12.22999954223633
334.6199951171875 307.260009765625 12.23999977111816
335.1900024414062 307.3800048828125 12.43000030517578
328.9500122070312 305.8200073242188 13.09000015258789
329.6700134277344 306.010009765625 12.68000030517578
326.9500122070312 305.3299865722656 13.84000015258789
324.8900146484375 304.7999877929688 12.71000003814697
322.7699890136719 304.25 11.55000019073486
326.4599914550781 305.2300109863281 13.55000019073486
321.7200012207031 304.010009765625 10.89999961853027
324.2900085449219 304.6900024414062 12.39999961853027
321.4299926757812 303.9200134277344 9.420000076293945
332.4100036621094 306.6700134277344 11.61999988555908
322.2000122070312 304.1099853515625 11.22999954223633
325.9299926757812 305.1000061035156 13.26000022888184
323.8200073242188 304.5400085449219 12.07999992370605
332.9500122070312 306.8099975585938 11.76000022888184
325.3599853515625 304.9400024414062 12.97999954223633
320.8099975585938 303.7799987792969 9.289999961853027
327.5400085449219 305.489990234375 13.82999992370605
328.2099914550781 305.6799926757812 13.44999980926514
323.2799987792969 304.3900146484375 11.8100004196167
333.510009765625 307.6499938964844 12.61999988555908
334.1400146484375 307.7999877929688 12.57999992370605
329.9400024414062 306.739990234375 12.51000022888184
331.7799987792969 307.2099914550781 12.23999977111816
331.2900085449219 307.1099853515625 12.10000038146973
332.3699951171875 307.3699951171875 12.39999961853027
329.239990234375 306.6000061035156 12.85999965667725
328.5299987792969 306.3999938964844 13.31999969482422
330.6700134277344 306.9200134277344 12.09000015258789
332.8800048828125 307.4700012207031 12.60000038146973
335.4500122070312 308.1099853515625 12.19999980926514
334.8099975585938 307.989990234375 12.36999988555908
336.1000061035156 308.2999877929688 12.23999977111816
327.8699951171875 306.260009765625 13.64000034332275
325.0599975585938 305.5599975585938 12.8100004196167
326.0899963378906 305.8299865722656 13.38000011444092
326.6400146484375 305.9400024414062 13.68000030517578
322.8999938964844 305 11.56999969482422
323.3999938964844 305.1099853515625 11.86999988555908
324.489990234375 305.3699951171875 12.48999977111816
321.8699951171875 304.75 11.06999969482422
321.3699951171875 304.5799865722656 10.56999969482422
317.5400085449219 303.6000061035156 9.079999923706055
320.8900146484375 304.4800109863281 10.11999988555908
316.9100036621094 303.4700012207031 8.930000305175781
319.75 304.1700134277344 9.869999885559082
315.75 303.1799926757812 8.539999961853027
316.3500061035156 303.2999877929688 8.779999732971191
325.6000061035156 305.6900024414062 13.05000019073486
315.239990234375 303.0199890136719 8.369999885559082
314.1499938964844 302.75 8.039999961853027
319.2300109863281 304.0199890136719 9.649999618530273
313.5899963378906 302.6099853515625 7.889999866485596
327.2099914550781 306.0899963378906 13.97000026702881
318.0599975585938 303.739990234375 9.260000228881836
312.4800109863281 302.3200073242188 7.53000020980835
318.6400146484375 303.9200134277344 9.449999809265137
323.9500122070312 305.2699890136719 12.22000026702881
322.4200134277344 304.8699951171875 11.26000022888184
313.0499877929688 302.4500122070312 7.75
314.6700134277344 302.8699951171875 8.260000228881836
318.6700134277344 304.7000122070312 10.28999996185303
318.1099853515625 304.5299987792969 10.18000030517578
316.9599914550781 304.25 9.850000381469727
317.5499877929688 304.4299926757812 10.02000045776367
315.3099975585938 303.8299865722656 9.359999656677246
315.8500061035156 303.9599914550781 9.550000190734863
314.739990234375 303.7200012207031 9.130000114440918
314.1700134277344 303.5400085449219 9.020000457763672
312.9400024414062 303.2000122070312 6.489999771118164
313.6199951171875 303.3900146484375 8.779999732971191
316.4500122070312 304.1400146484375 9.670000076293945
312.510009765625 303.1400146484375 8.340000152587891
313.0799865722656 303.2999877929688 8.710000038146973
334.6700134277344 308.6900024414062 11.5600004196167
332.1199951171875 308.0899963378906 12.23999977111816
329.5199890136719 307.4500122070312 12.73999977111816
331.4299926757812 307.9100036621094 12.43000030517578
328.8200073242188 307.2799987792969 13.11999988555908
334.0299987792969 308.5799865722656 11.76000022888184
332.75 308.2200012207031 12.09000015258789
325.8099975585938 306.5 13.21000003814697
330.1900024414062 307.6000061035156 12.60999965667725
335.9200134277344 309.0400085449219 11.22999954223633
330.760009765625 307.739990234375 12.53999996185303
323.6600036621094 305.9500122070312 12.0600004196167
322.010009765625 305.5299987792969 11.39000034332275
322.5899963378906 305.6799926757812 11.55000019073486
328.0199890136719 307.0700073242188 13.5600004196167
335.3699951171875 308.8999938964844 11.38000011444092
333.3699951171875 308.3999938964844 11.89000034332275
327.3599853515625 306.9100036621094 13.97000026702881
324.75 306.239990234375 12.60999965667725
323.1600036621094 305.8200073242188 11.80000019073486
319.7200012207031 304.9599914550781 10.68000030517578
326.3200073242188 306.6799926757812 13.5
326.8399963378906 306.7900085449219 13.78999996185303
324.1900024414062 306.1199951171875 12.3100004196167
321.4400024414062 305.4200134277344 11.19999980926514
320.8900146484375 305.239990234375 11.02000045776367
335.3200073242188 309.4599914550781 7.829999923706055
331.9400024414062 308.6700134277344 11.57999992370605
325.2699890136719 306.3599853515625 12.93000030517578
330.6300048828125 308.3500061035156 12.09000015258789
333.8699951171875 309.1600036621094 11.05000019073486
331.2699890136719 308.5 11.82999992370605
320.3099975585938 305.1000061035156 10.8100004196167
326.6400146484375 307.3699951171875 13.64000034332275
332.5299987792969 308.8399963378906 11.39999961853027
324.9800109863281 306.9800109863281 12.75
329.2300109863281 308.010009765625 12.86999988555908
328.489990234375 307.8500061035156 13.3100004196167
326.0299987792969 307.239990234375 13.35000038146973
327.1799926757812 307.510009765625 13.92000007629395
323.8599853515625 306.6900024414062 12.15999984741211
325.5599975585938 307.0899963378906 13.06999969482422
333.1799926757812 308.9800109863281 11.21000003814697
320.4700012207031 305.8399963378906 11.64999961853027
321.6300048828125 306.1199951171875 11.78999996185303
329.8999938964844 308.1600036621094 12.55000019073486
321.0499877929688 305.9500122070312 11.76000022888184
324.4400024414062 306.8299865722656 12.44999980926514
322.8500061035156 306.3900146484375 11.61999988555908
322.2900085449219 306.2699890136719 11.71000003814697
323.3699951171875 306.5299987792969 11.88000011444092
327.8099975585938 307.6600036621094 13.6899995803833
319.2000122070312 304.8500061035156 10.47999954223633
335.1799926757812 309.489990234375 10.85999965667725
335.9700012207031 309.6400146484375 7.789999961853027
334.5499877929688 309.3099975585938 10.92000007629395
335.7900085449219 309.6600036621094 10.67000007629395
319.3500061035156 305.5199890136719 11.30000019073486
317.6499938964844 305.1099853515625 10.8100004196167
319.9400024414062 305.6799926757812 11.47000026702881
317.1199951171875 304.9800109863281 10.64999961853027
315.3999938964844 304.5299987792969 10.06999969482422
318.239990234375 305.239990234375 10.96000003814697
314.2999877929688 304.2300109863281 9.770000457763672
313.75 304.1099853515625 9.630000114440918
312.8200073242188 303.8399963378906 6.119999885559082
315.9200134277344 304.6700134277344 10.28999996185303
313.0499877929688 303.9100036621094 7.440000057220459
318.8099975585938 305.3900146484375 11.14000034332275
312.6099853515625 303.7999877929688 9.300000190734863
316.5199890136719 304.7900085449219 10.47000026702881
312.9500122070312 303.8699951171875 5.559999942779541
314.8200073242188 304.3699951171875 9.909999847412109
313.2200012207031 303.9599914550781 9.470000267028809
312.8399963378906 304.3999938964844 7.25
335.0499877929688 310 7.869999885559082
333.8200073242188 309.6799926757812 7.889999866485596
336.2699890136719 310.260009765625 7.96999979019165
333.1000061035156 309.5299987792969 10.84000015258789
328.8299865722656 308.4700012207031 13.13000011444092
330.9800109863281 309.0299987792969 11.94999980926514
329.5700073242188 308.6499938964844 12.75
331.7099914550781 309.1799926757812 11.51000022888184
326.3500061035156 307.8599853515625 13.53999996185303
327.4299926757812 308.1300048828125 13.92000007629395
326.9100036621094 308.0199890136719 13.77999973297119
323.760009765625 307.2099914550781 12.03999996185303
325.2799987792969 307.5799865722656 12.94999980926514
321.5599975585938 306.6499938964844 11.17000007629395
322.7000122070312 306.9400024414062 11.44999980926514
330.2799987792969 308.8500061035156 12.28999996185303
332.4700012207031 309.3599853515625 11.10000038146973
320.8399963378906 306.4500122070312 11.39000034332275
322.1300048828125 306.7999877929688 11.1899995803833
317.2999877929688 305.6000061035156 11.38000011444092
328.1000061035156 308.3299865722656 13.52000045776367
318.3599853515625 305.8399963378906 11.68000030517578
316.7300109863281 305.4500122070312 11.22999954223633
324.8099975585938 307.4700012207031 12.60999965667725
324.239990234375 307.3099975585938 12.32999992370605
323.2200012207031 307.0499877929688 11.78999996185303
315.0599975585938 305.0299987792969 10.68000030517578
320.2099914550781 306.3200073242188 11.57999992370605
316.1300048828125 305.2999877929688 11.02000045776367
318.9100036621094 306.010009765625 11.80000019073486
312.7699890136719 304.4500122070312 9.960000038146973
317.8299865722656 305.7000122070312 11.53999996185303
325.8500061035156 307.7699890136719 13.23999977111816
314.489990234375 304.8599853515625 10.52999973297119
313.9200134277344 304.7000122070312 10.35000038146973
335.6900024414062 310.1199951171875 7.809999942779541
319.5299987792969 306.1499938964844 11.72999954223633
313.3599853515625 304.5899963378906 10.15999984741211
315.5899963378906 305.1400146484375 10.85999965667725
334.4400024414062 309.8099975585938 7.880000114440918
332.6499938964844 310.0599975585938 11.02999973297119
329.2000122070312 309.2200012207031 12.90999984741211
328.5199890136719 309.0299987792969 13.30000019073486
329.8900146484375 309.3900146484375 12.57999992370605
326.0599975585938 308.4500122070312 13.36999988555908
326.6300048828125 308.5599975585938 13.64000034332275
327.7999877929688 308.8500061035156 13.6899995803833
324.4400024414062 307.989990234375 12.46000003814697
323.3800048828125 307.7099914550781 11.88000011444092
325.5299987792969 308.3099975585938 13.09000015258789
325.0299987792969 308.1400146484375 12.76000022888184
321.8800048828125 307.3399963378906 11
335.3399963378906 310.6799926757812 7.860000133514404
322.8800048828125 307.5899963378906 11.60000038146973
331.3099975585938 309.7300109863281 11.73999977111816
322.3500061035156 307.489990234375 11.30000019073486
330.6400146484375 309.5599975585938 12.10999965667725
319.4200134277344 306.7200012207031 11.13000011444092
320.0700073242188 306.9100036621094 10.93000030517578
334.0199890136719 310.3200073242188 7.920000076293945
323.9100036621094 307.8599853515625 12.14000034332275
321.3299865722656 307.1900024414062 10.61999988555908
335.9800109863281 310.8399963378906 7.829999923706055
318.1600036621094 306.4299926757812 11.43000030517578
320.7300109863281 307.0400085449219 10.76000022888184
318.8099975585938 306.5700073242188 11.26000022888184
313.9700012207031 305.3599853515625 11.10999965667725
316.2300109863281 305.9500122070312 11.76000022888184
314.510009765625 305.489990234375 11.31999969482422
331.989990234375 309.8599853515625 11.43000030517578
315.0400085449219 305.6199951171875 11.46000003814697
327.1700134277344 308.7200012207031 13.93000030517578
312.9299926757812 305.0199890136719 5.53000020980835
313.2799987792969 305.1799926757812 9.220000267028809
334.6799926757812 310.5 7.889999866485596
312.6099853515625 304.989990234375 9.399999618530273
313.0400085449219 305.0700073242188 7.659999847412109
315.6400146484375 305.7799987792969 11.67000007629395
316.8800048828125 306.1199951171875 11.81999969482422
317.4299926757812 306.2699890136719 11.67000007629395
313.4400024414062 305.2200012207031 10.97999954223633
326.8399963378906 309.3599853515625 13.75
325.2799987792969 308.9500122070312 12.90999984741211
324.760009765625 308.8200073242188 12.60999965667725
326.3299865722656 309.2300109863281 13.51000022888184
327.3599853515625 309.5299987792969 13.9399995803833
321.5499877929688 308 10.81999969482422
321.2000122070312 307.9299926757812 9.739999771118164
319.2099914550781 307.4100036621094 10.30000019073486
325.7999877929688 309.0799865722656 13.22999954223633
319.8999938964844 307.6000061035156 10.14000034332275
318.5899963378906 307.2900085449219 10.51000022888184
322.5899963378906 308.2900085449219 11.47999954223633
320.5499877929688 307.7200012207031 9.939999580383301
317.9800109863281 307.1000061035156 10.63000011444092
315.3699951171875 306.489990234375 11.43000030517578
323.6700134277344 308.5700073242188 12
316.7000122070312 306.8099975585938 11.05000019073486
314.1499938964844 306.1499938964844 11.77000045776367
313.1400146484375 305.8900146484375 8.489999771118164
322.1199951171875 308.1600036621094 11.11999988555908
313.5 306 11.81999969482422
317.3699951171875 306.9500122070312 10.85000038146973
324.2300109863281 308.6900024414062 12.28999996185303
314.760009765625 306.3299865722656 11.60999965667725
313.5499877929688 306.010009765625 8.970000267028809
334.3599853515625 311.1600036621094 7.900000095367432
332.3699951171875 310.7300109863281 11.13000011444092
331.6600036621094 310.5599975585938 11.53999996185303
333.0799865722656 310.8999938964844 10.8100004196167
323.1700134277344 308.4100036621094 11.76000022888184
316.0499877929688 306.6300048828125 11.23999977111816
329.5199890136719 310 12.77000045776367
333.7999877929688 311.0199890136719 7.889999866485596
328.0299987792969 309.6499938964844 13.56999969482422
335.0299987792969 311.3200073242188 7.880000114440918
328.7799987792969 309.8699951171875 13.14999961853027
335.6300048828125 311.489990234375 7.809999942779541
330.260009765625 310.2099914550781 12.35999965667725
330.8900146484375 310.3699951171875 11.96000003814697
313.0199890136719 306.5299987792969 7.75
313.5499877929688 306.6300048828125 5.559999942779541
322.8800048828125 309.0199890136719 11.56999969482422
323.3900146484375 309.1400146484375 11.85999965667725
322.3699951171875 308.8900146484375 11.32999992370605
323.8800048828125 309.2999877929688 12.14000034332275
318.5299987792969 307.9299926757812 9.729999542236328
320.510009765625 308.4100036621094 9.170000076293945
315.9200134277344 307.260009765625 10.48999977111816
321.8399963378906 308.75 11.09000015258789
321.1900024414062 308.5899963378906 8.970000267028809
313.989990234375 306.8099975585938 11.11999988555908
317.2799987792969 307.6099853515625 10.10999965667725
315.260009765625 307.1000061035156 10.69999980926514
314.5799865722656 306.9400024414062 10.88000011444092
317.8699951171875 307.7699890136719 9.909999847412109
313.5299987792969 306.6300048828125 8.149999618530273
319.2000122070312 308.1000061035156 9.529999732971191
316.5899963378906 307.4200134277344 10.3100004196167
321.25 308.5899963378906 10.90999984741211
319.8500061035156 308.2300109863281 9.369999885559082
313.3399963378906 306.6600036621094 11.26000022888184
335.3399963378906 312.0799865722656 7.849999904632568
329.9299926757812 310.8200073242188 12.5600004196167
334.0199890136719 311.7900085449219 7.940000057220459
326.0599975585938 309.8699951171875 13.36999988555908
331.3399963378906 311.1300048828125 11.72999954223633
325.0400085449219 309.5700073242188 12.6899995803833
328.489990234375 310.4700012207031 13.30000019073486
332.7000122070312 311.4800109863281 10.97000026702881
325.5400085449219 309.739990234375 13.0600004196167
334.7000122070312 311.9100036621094 7.909999847412109
326.6199951171875 309.9800109863281 13.67000007629395
324.4800109863281 309.4299926757812 12.4399995803833
327.8200073242188 310.2699890136719 13.65999984741211
335.9400024414062 312.260009765625 7.860000133514404
329.25 310.6600036621094 12.96000003814697
332.0299987792969 311.3200073242188 11.35999965667725
327.1700134277344 310.1300048828125 13.9399995803833
330.6300048828125 310.9599914550781 12.13000011444092
319.0499877929688 308.6799926757812 8.850000381469727
316.5400085449219 308.0400085449219 9.539999961853027
317.1400146484375 308.2099914550781 9.409999847412109
313.9200134277344 307.3800048828125 10.28999996185303
315.239990234375 307.7200012207031 9.960000038146973
313.4700012207031 307.2300109863281 7.150000095367432
318.4800109863281 308.5299987792969 9.029999732971191
313.6199951171875 307.3099975585938 8.960000038146973
312.6499938964844 307.0199890136719 5.489999771118164
313.239990234375 307.25 10.59000015258789
317.8299865722656 308.3399963378906 9.199999809265137
315.8800048828125 307.8800048828125 9.760000228881836
314.6000061035156 307.5400085449219 10.15999984741211
335.7099914550781 312.8200073242188 7.860000133514404
333.8800048828125 312.3500061035156 7.869999885559082
333.0899963378906 312.1700134277344 10.85999965667725
330.2900085449219 311.489990234375 12.32999992370605
326.8900146484375 310.6600036621094 13.84000015258789
325.2999877929688 310.25 12.94999980926514
329.5799865722656 311.3500061035156 12.72000026702881
326.3900146484375 310.5400085449219 13.5
323.6799926757812 309.8699951171875 12.27000045776367
324.2000122070312 310.010009765625 12.48999977111816
330.989990234375 311.6700134277344 11.96000003814697
327.4100036621094 310.8200073242188 13.93000030517578
324.7900085449219 310.1199951171875 12.73999977111816
320.8399963378906 309.1499938964844 11.38000011444092
335.1000061035156 312.6600036621094 7.860000133514404
320.3500061035156 308.9800109863281 8.439999580383301
334.4800109863281 312.510009765625 7.940000057220459
322.5499877929688 309.5799865722656 11.96000003814697
331.7300109863281 311.8399963378906 11.53999996185303
332.489990234375 312.0499877929688 11.13000011444092
325.8699951171875 310.3999938964844 13.23999977111816
320.989990234375 309.1400146484375 8.310000419616699
321.2799987792969 309.2000122070312 9.619999885559082
323.1499938964844 309.7099914550781 12.10999965667725
321.9500122070312 309.4400024414062 11.8100004196167
321.4299926757812 309.2799987792969 11.63000011444092
328.1499938964844 310.9800109863281 13.51000022888184
319.7300109863281 308.8200073242188 8.659999847412109
328.8399963378906 311.1499938964844 13.10000038146973
314.989990234375 308.3099975585938 9.289999961853027
313.7200012207031 307.989990234375 9.689999580383301
313.1300048828125 307.8500061035156 9.770000457763672
312.9299926757812 307.739990234375 5.510000228881836
313.5700073242188 307.8900146484375 7.989999771118164
313.5400085449219 307.8800048828125 5.369999885559082
314.3800048828125 308.1400146484375 9.529999732971191
334.0299987792969 313.010009765625 7.920000076293945
330.6300048828125 312.25 12.15999984741211
327.8200073242188 311.5700073242188 13.69999980926514
334.6900024414062 313.1600036621094 7.920000076293945
331.3299865722656 312.3900146484375 11.72999954223633
325.9800109863281 311.0700073242188 13.73999977111816
328.510009765625 311.7300109863281 13.36999988555908
325.4500122070312 310.9400024414062 13.60000038146973
329.2300109863281 311.8699951171875 12.9399995803833
335.9299926757812 313.489990234375 7.869999885559082
324.8699951171875 310.8200073242188 13.47000026702881
323.1499938964844 310.3500061035156 12.88000011444092
335.3099975585938 313.3599853515625 7.860000133514404
329.9200134277344 312.0599975585938 12.53999996185303
327.1499938964844 311.4100036621094 13.97999954223633
332 312.5499877929688 11.35000038146973
321.260009765625 309.8399963378906 8.590000152587891
321.260009765625 309.7999877929688 5.960000038146973
321.5299987792969 309.9700012207031 12.47999954223633
320.8299865722656 309.739990234375 7.710000038146973
319.6600036621094 309.4299926757812 7.920000076293945
322.0599975585938 310.0799865722656 12.5600004196167
323.7200012207031 310.5199890136719 13.0600004196167
316.9800109863281 308.7699890136719 8.710000038146973
318.9299926757812 309.239990234375 8.109999656677246
320.9400024414062 309.7999877929688 12.26000022888184
317.6199951171875 308.9500122070312 8.539999961853027
332.6600036621094 312.7000122070312 11.02999973297119
318.3099975585938 309.1099853515625 8.310000419616699
316.2900085449219 308.5899963378906 8.920000076293945
322.6000061035156 310.2099914550781 12.75
321.3399963378906 309.8999938964844 10.51000022888184
315.6499938964844 308.4500122070312 9.050000190734863
320.2300109863281 309.5799865722656 7.71999979019165
324.2799987792969 310.6400146484375 13.22000026702881
326.6099853515625 311.2200012207031 13.82999992370605
316.2799987792969 309.3200073242188 8.069999694824219
316.9400024414062 309.4700012207031 7.860000133514404
313.6499938964844 308.6600036621094 8.840000152587891
314.9800109863281 309.010009765625 8.449999809265137
312.6400146484375 308.3599853515625 5.420000076293945
315.6199951171875 309.1700134277344 8.289999961853027
313.2200012207031 308.5 5.559999942779541
313.5499877929688 308.6000061035156 6.949999809265137
314.3599853515625 308.8500061035156 8.649999618530273
318.2099914550781 309.7799987792969 7.710000038146973
317.5299987792969 309.6099853515625 7.75
335.0899963378906 314.0400085449219 7.909999847412109
334.4299926757812 313.8299865722656 7.920000076293945
333.8599853515625 313.6900024414062 7.920000076293945
335.7000122070312 314.1700134277344 7.840000152587891
333.0899963378906 313.5799865722656 10.89999961853027
328.1300048828125 312.3299865722656 13.53999996185303
