169.4199981689453 385.2300109863281 13.39000034332275
169.8500061035156 386.9700012207031 13.47999954223633
169.5599975585938 385.8299865722656 13.44999980926514
169.6799926757812 386.3900146484375 13.46000003814697
170.1100006103516 388.1199951171875 13.44999980926514
169.1000061035156 384.0899963378906 13.43000030517578
171.2899932861328 392.8200073242188 16.07999992370605
172.3699951171875 397.2000122070312 12.86999988555908
172.7599945068359 398.8699951171875 12.86999988555908
172.1900024414062 396.6499938964844 12.85999965667725
172.6499938964844 398.3399963378906 12.84000015258789
172.8999938964844 399.4500122070312 12.82999992370605
172.4900054931641 397.7200012207031 12.84000015258789
173.3000030517578 398.7000122070312 12.82999992370605
173.6000061035156 399.8200073242188 12.94999980926514
173.4799957275391 399.239990234375 12.85999965667725
173.1499938964844 398.0799865722656 12.84000015258789
172.2200012207031 394.1600036621094 12.84000015258789
172.7400054931641 396.4100036621094 12.81999969482422
172.6100006103516 395.8099975585938 12.85000038146973
171.8800048828125 392.6700134277344 16.1299991607666
172.1600036621094 393.75 15.81999969482422
172.5 395.2900085449219 12.88000011444092
171.6199951171875 391.5199890136719 16.44000053405762
171.4900054931641 390.9800109863281 16.54000091552734
173.0200042724609 397.4800109863281 12.85000038146973
172.0500030517578 393.25 15.88000011444092
172.0399932861328 393.5599975585938 12.89000034332275
172.8999938964844 396.9299926757812 12.86999988555908
170.7899932861328 388.4400024414062 13.46000003814697
170.3699951171875 386.7999877929688 13.42000007629395
171.1799926757812 389.760009765625 16.04000091552734
171.7400054931641 392.1000061035156 16.29000091552734
172.3200073242188 394.7099914550781 12.85000038146973
170.6799926757812 387.8999938964844 13.36999988555908
170.5200042724609 387.3500061035156 13.40999984741211
171 389.1799926757812 15.86999988555908
170.1000061035156 385.6400146484375 13.52000045776367
170.2599945068359 386.2099914550781 13.43000030517578
169.8399963378906 384.489990234375 13.42000007629395
171.3300018310547 390.3699951171875 16.26000022888184
169.9499969482422 385.0899963378906 13.35999965667725
171.6399993896484 389.0700073242188 15.78999996185303
171.9700012207031 390.2200012207031 16.28000068664551
171.1399993896484 387.1199951171875 13.39000034332275
171.8099975585938 389.5899963378906 16
171.3200073242188 387.7699890136719 13.40999984741211
171.4199981689453 388.3299865722656 13.39999961853027
171.0099945068359 386.5799865722656 13.40999984741211
170.4299926757812 384.2699890136719 13.5
170.7200012207031 385.4100036621094 13.47000026702881
170.5800018310547 384.7900085449219 13.46000003814697
170.8899993896484 386.010009765625 13.42000007629395
173.9600067138672 398.489990234375 12.85000038146973
173.6799926757812 397.3599853515625 12.85999965667725
174.2599945068359 399.6700134277344 12.94999980926514
173.3999938964844 396.2099914550781 12.85999965667725
173.8200073242188 397.9100036621094 12.82999992370605
173.5200042724609 396.8500061035156 12.85999965667725
172.5200042724609 392.4500122070312 16.19000053405762
172.6199951171875 392.9700012207031 15.97999954223633
172.9799957275391 394.510009765625 12.86999988555908
172.2299957275391 391.3900146484375 16.47999954223633
172.8000030517578 393.8699951171875 12.86999988555908
174.0700073242188 399.1000061035156 12.81999969482422
172.1000061035156 390.75 16.36000061035156
173.1199951171875 395.0799865722656 12.84000015258789
172.3600006103516 391.8900146484375 16.38999938964844
173.2700042724609 395.6600036621094 12.88000011444092
172.75 393.5400085449219 15.84000015258789
174.9299926757812 399.9800109863281 12.96000003814697
174.7599945068359 399.3900146484375 12.86999988555908
174.4600067138672 398.1900024414062 12.84000015258789
174.0500030517578 396.5199890136719 12.8100004196167
174.6399993896484 398.8399963378906 12.88000011444092
173.3399963378906 393.3699951171875 15.86999988555908
173.7700042724609 395.4200134277344 12.85000038146973
174.1799926757812 397.0599975585938 12.88000011444092
173.2100067138672 392.8500061035156 16.05999946594238
172.6100006103516 390.510009765625 16.29999923706055
173.8999938964844 395.9800109863281 12.84000015258789
172.7899932861328 391.1199951171875 16.54999923706055
174.3399963378906 397.6000061035156 12.85999965667725
171.8399963378906 387.4800109863281 13.39999961853027
172.8999938964844 391.6499938964844 16.43000030517578
171.6999969482422 386.9100036621094 13.42000007629395
171.9400024414062 388.0499877929688 13.39999961853027
173.5200042724609 394.3099975585938 12.80000019073486
171.3999938964844 385.7900085449219 13.42000007629395
173.0700073242188 392.25 16.1200008392334
172.3099975585938 389.2900085449219 15.9399995803833
171.5500030517578 386.3299865722656 13.38000011444092
172.4900054931641 389.9400024414062 16.13999938964844
171.2700042724609 385.1900024414062 13.44999980926514
171.1100006103516 384.6600036621094 13.42000007629395
173.6300048828125 394.8299865722656 12.89000034332275
172.1600036621094 388.7699890136719 15.82999992370605
173.3399963378906 393.6799926757812 12.85000038146973
171.5899963378906 384.4100036621094 13.43000030517578
175.3600006103516 399.8299865722656 12.9399995803833
174.2400054931641 395.239990234375 12.85000038146973
174.9400024414062 398.0599975585938 12.86999988555908
173.7899932861328 393.4500122070312 12.85999965667725
173.6300048828125 392.5700073242188 16.06999969482422
173.5399932861328 392.0899963378906 16.31999969482422
175.2100067138672 399.2200012207031 12.84000015258789
174.1100006103516 394.6300048828125 12.81999969482422
172.9199981689453 389.7999877929688 16.05999946594238
172.5599975585938 388.5 13.40999984741211
175.1000061035156 398.6499938964844 12.85999965667725
174.7899932861328 397.5499877929688 12.85999965667725
173.6600036621094 392.9200134277344 12.82999992370605
174.3899993896484 395.7799987792969 12.82999992370605
172.3500061035156 387.3900146484375 14.8100004196167
173.3699951171875 391.5 16.45999908447266
174.6600036621094 396.9700012207031 12.85000038146973
173.0700073242188 390.3800048828125 16.25
172.4600067138672 388.010009765625 14.89000034332275
173.2599945068359 390.9599914550781 16.45999908447266
172.2700042724609 387.3200073242188 13.39000034332275
172.8099975585938 389.2000122070312 15.89000034332275
172.0200042724609 386.1600036621094 13.39999961853027
171.7100067138672 384.9599914550781 13.4399995803833
174.5500030517578 396.4100036621094 12.81999969482422
171.8699951171875 385.5299987792969 13.42000007629395
173.9400024414062 394.0499877929688 12.82999992370605
172.1399993896484 386.7300109863281 13.36999988555908
175.5800018310547 398.4299926757812 12.90999984741211
174.8899993896484 395.6400146484375 12.86999988555908
174.75 395.0700073242188 12.89999961853027
175.0700073242188 396.2000122070312 12.85000038146973
174.4600067138672 393.9200134277344 12.84000015258789
174.6399993896484 394.4599914550781 12.86999988555908
175.7400054931641 398.9800109863281 12.94999980926514
175.3399963378906 397.2900085449219 12.82999992370605
173.4600067138672 389.5 16.06999969482422
174.1900024414062 392.8200073242188 12.84000015258789
173.1000061035156 388.2200012207031 13.4399995803833
175.1600036621094 396.7200012207031 12.84000015258789
172.7100067138672 386.6799926757812 15.22000026702881
173.5899963378906 390.0899963378906 16.22999954223633
172.5700073242188 386.1300048828125 14.9399995803833
174.3500061035156 393.3200073242188 12.82999992370605
172.3999938964844 385.3800048828125 13.44999980926514
172.5200042724609 386.010009765625 13.35999965667725
173.0099945068359 387.760009765625 14.97999954223633
172.8699951171875 387.239990234375 15.17000007629395
172.1000061035156 384.3200073242188 13.51000022888184
172.25 384.8399963378906 13.4399995803833
173.3300018310547 388.9500122070312 15.88000011444092
175.4400024414062 397.7999877929688 12.85000038146973
172.9499969482422 387.989990234375 9.880000114440918
175.0599975585938 393.6300048828125 12.85999965667725
175.1999969482422 394.2099914550781 12.84000015258789
175.3200073242188 394.8200073242188 12.84000015258789
174.7899932861328 392.5499877929688 12.92000007629395
174.8999938964844 393.0799865722656 12.85999965667725
175.6399993896484 395.9500122070312 12.89000034332275
175.4700012207031 395.4200134277344 12.89999961853027
173.2700042724609 386.6199951171875 9.760000228881836
173.1799926757812 386.2300109863281 12.10999965667725
173.4299926757812 387.239990234375 9.920000076293945
173.0899963378906 385.7099914550781 13.4399995803833
172.9700012207031 385.1600036621094 13.46000003814697
173.3099975585938 386.4299926757812 14.77000045776367
172.8000030517578 384.5499877929688 13.4399995803833
173.1000061035156 386.0599975585938 9.810000419616699
175.4700012207031 392.9100036621094 12.85999965667725
175.3300018310547 392.3200073242188 12.85000038146973
173.3500061035156 384.3800048828125 13.42000007629395
175.6100006103516 393.4599914550781 12.89999961853027
173.0700073242188 384.4500122070312 13.48999977111816
173.2200012207031 385.0599975585938 13.47999954223633
175.1699981689453 392.8599853515625 12.85999965667725
175.4700012207031 394.0400085449219 12.90999984741211
175.3500061035156 393.4200134277344 12.84000015258789
175.6499938964844 394.6199951171875 12.93000030517578
172.5 384.4500122070312 13.46000003814697
172.9199981689453 386.2000122070312 13.64999961853027
173.2599945068359 387.6799926757812 14.85000038146973
172.6600036621094 385.0899963378906 13.35999965667725
173.1399993896484 387.1000061035156 14.8100004196167
172.75 385.6300048828125 13.42000007629395
172.6199951171875 384.8500061035156 8.729999542236328
172.9499969482422 386.5 15.05000019073486
174.6000061035156 392.8500061035156 12.86999988555908
175.4799957275391 396.3800048828125 12.93000030517578
173.6499938964844 389.260009765625 15.9399995803833
175.3399963378906 395.8200073242188 12.85000038146973
175.1499938964844 395.2300109863281 12.88000011444092
174.8600006103516 394.0499877929688 12.82999992370605
174.6699981689453 393.0799865722656 9.079999923706055
174.7400054931641 393.4299926757812 12.8100004196167
175.0099945068359 394.6000061035156 12.85999965667725
175.5899963378906 396.9800109863281 12.93000030517578
172.1000061035156 384.8399963378906 8.279999732971191
172.1399993896484 384.989990234375 10.60999965667725
172.1100006103516 384.989990234375 13.42000007629395
171.9299926757812 384.3699951171875 13.47000026702881
172.3999938964844 386.1600036621094 13.53999996185303
172.2400054931641 385.5799865722656 13.43000030517578
172.4799957275391 386.5299987792969 14.89000034332275
173 388.5499877929688 13.43000030517578
173.2400054931641 389.7000122070312 16.11000061035156
173.1300048828125 389.0899963378906 13.46000003814697
173.6399993896484 391.3299865722656 16.6200008392334
174.3300018310547 393.9299926757812 12.85000038146973
173.4100036621094 390.3099975585938 16.21999931335449
174.7899932861328 395.7799987792969 12.86999988555908
174.2200012207031 393.3900146484375 12.84000015258789
173.1900024414062 389.2699890136719 12.51000022888184
175.25 397.5299987792969 12.85999965667725
175.3800048828125 398.0799865722656 12.85000038146973
172.5800018310547 387.0299987792969 15.02000045776367
173.5399932861328 390.8299865722656 16.48999977111816
174.4700012207031 394.5799865722656 12.84000015258789
173.1000061035156 389.2099914550781 15.90999984741211
175.0800018310547 396.9299926757812 12.85000038146973
175.5299987792969 398.6700134277344 12.93000030517578
174.6399993896484 395.1799926757812 12.85000038146973
175.6699981689453 399.239990234375 12.97000026702881
174.9700012207031 396.3999938964844 12.81999969482422
174.0299987792969 392.760009765625 12.85000038146973
171.3500061035156 384.489990234375 9.979999542236328
171.5700073242188 385.5199890136719 13.35999965667725
171.4499969482422 384.8900146484375 13.43000030517578
171.8699951171875 386.6499938964844 13.47000026702881
171.4199981689453 384.6600036621094 9.060000419616699
172.4700012207031 389.0299987792969 13.42000007629395
172.1799926757812 387.8099975585938 13.39999961853027
172.3200073242188 388.4299926757812 13.42000007629395
172.6000061035156 389.6600036621094 16.06999969482422
173.1699981689453 391.9500122070312 16.39999961853027
172.8999938964844 390.8099975585938 16.42000007629395
171.7200012207031 386.1199951171875 13.35999965667725
172.4799957275391 389.1099853515625 15.82999992370605
171.5099945068359 384.989990234375 10.09000015258789
172.75 390.260009765625 16.20000076293945
174.2899932861328 396.2099914550781 12.86999988555908
173.3300018310547 392.6000061035156 16.09000015258789
173.9600067138672 395.0700073242188 12.85999965667725
174.8800048828125 398.5899963378906 12.88000011444092
174.75 398.0700073242188 12.84000015258789
171.3099975585938 384.3200073242188 13.39999961853027
173.0200042724609 391.3699951171875 16.54000091552734
172.0099945068359 387.2799987792969 13.43000030517578
174.5700073242188 397.4100036621094 12.85000038146973
174.4100036621094 396.8399963378906 12.81999969482422
175.1499938964844 399.8399963378906 12.98999977111816
173.8500061035156 394.489990234375 12.82999992370605
174.1499938964844 395.6799926757812 12.82999992370605
175.0200042724609 399.2300109863281 12.89000034332275
172.1699981689453 390.7200012207031 16.42000007629395
172.6399993896484 392.5 16.17000007629395
173.3099975585938 395.0400085449219 12.85999965667725
173.1300048828125 394.4500122070312 12.76000022888184
171.7899932861328 389.010009765625 13.36999988555908
173.4400024414062 395.6400146484375 12.84000015258789
172.4600067138672 391.8599853515625 16.40999984741211
173.8999938964844 397.4200134277344 12.82999992370605
174.0200042724609 397.9700012207031 12.81999969482422
174.1699981689453 398.5499877929688 12.86999988555908
172.0200042724609 390.1600036621094 16.18000030517578
173.6199951171875 396.2799987792969 12.82999992370605
172.3300018310547 391.2799987792969 16.60000038146973
174.3200073242188 399.1600036621094 12.85000038146973
171.9299926757812 389.6400146484375 16.04000091552734
171.7799987792969 389.0400085449219 15.81999969482422
174.4600067138672 399.7099914550781 12.94999980926514
173.7299957275391 396.8500061035156 12.85000038146973
170.6999969482422 384.5400085449219 9.039999961853027
170.7599945068359 384.8699951171875 13.39999961853027
170.6199951171875 384.2799987792969 13.46000003814697
171.1799926757812 386.7099914550781 13.39000034332275
171.0500030517578 386.0499877929688 13.36999988555908
171.3399963378906 387.2699890136719 13.4399995803833
171.5200042724609 387.8800048828125 13.39000034332275
170.8000030517578 384.9700012207031 10.03999996185303
170.8999938964844 385.4299926757812 13.44999980926514
171.6100006103516 388.4200134277344 13.44999980926514
170.25 385.4800109863281 13.40999984741211
170.2100067138672 385.0199890136719 10.06999969482422
170.5500030517578 386.6700134277344 13.44999980926514
170.1000061035156 384.6400146484375 8.989999771118164
171.0200042724609 388.4100036621094 13.43000030517578
171.1499938964844 389.1000061035156 15.8100004196167
170.4100036621094 386.0299987792969 13.5
170.1499938964844 384.9100036621094 13.39999961853027
171.3099975585938 389.6799926757812 16.02000045776367
169.9799957275391 384.3299865722656 13.4399995803833
172.0200042724609 392.5799865722656 16.11000061035156
171.7400054931641 391.3900146484375 16.5
171.1399993896484 389.0499877929688 13.36999988555908
173 396.2699890136719 12.84000015258789
172.6699981689453 395.0499877929688 12.88000011444092
172.8000030517578 395.5899963378906 12.93000030517578
173.1199951171875 396.7999877929688 12.82999992370605
173.8500061035156 399.7900085449219 12.9399995803833
173.6900024414062 399.2099914550781 12.85999965667725
170.7299957275391 387.239990234375 13.44999980926514
173.5599975585938 398.6300048828125 12.84000015258789
170.8399963378906 387.8399963378906 13.4399995803833
173.4299926757812 398 12.85000038146973
171.5700073242188 390.7900085449219 16.40999984741211
173.2400054931641 397.4100036621094 12.85000038146973
172.5399932861328 394.4599914550781 12.88000011444092
171.8999938964844 392.010009765625 16.29000091552734
171.4199981689453 390.1799926757812 16.26000022888184
171.4600067138672 392.489990234375 16.13999938964844
172.1100006103516 395.010009765625 12.85000038146973
172.2799987792969 395.6700134277344 12.80000019073486
173.0399932861328 398.5799865722656 12.89999961853027
171.3099975585938 391.8599853515625 16.39999961853027
173.1499938964844 399.1600036621094 12.85999965667725
171.8200073242188 393.8099975585938 15.73999977111816
172.75 397.3999938964844 12.88000011444092
171.6300048828125 393.1300048828125 16.03000068664551
173.3000030517578 399.760009765625 12.92000007629395
172.8999938964844 398.0199890136719 12.84000015258789
172.5800018310547 396.8699951171875 12.88000011444092
172.4299926757812 396.2200012207031 12.82999992370605
169.5700073242188 384.8200073242188 13.43000030517578
170.4799957275391 388.4299926757812 13.42000007629395
169.7200012207031 385.4599914550781 13.39999961853027
171.1900024414062 391.3099975585938 16.51000022888184
169.5500030517578 384.5499877929688 9.079999923706055
170.0500030517578 386.6400146484375 13.46000003814697
171 390.7200012207031 16.29999923706055
170.6000061035156 389 13.46000003814697
170.7599945068359 389.5899963378906 15.98999977111816
170.6100006103516 389.0700073242188 15.80000019073486
170.8800048828125 390.1499938964844 16.21999931335449
170.3600006103516 387.8699951171875 13.34000015258789
170.1699981689453 387.2799987792969 13.46000003814697
168.6900024414062 383.6900024414062 13.42000007629395
169.5599975585938 387.1700134277344 13.44999980926514
168.9600067138672 384.8299865722656 13.4399995803833
169.1000061035156 385.4500122070312 13.38000011444092
170.4100036621094 390.6900024414062 16.42000007629395
168.8300018310547 384.2699890136719 13.4399995803833
169.8300018310547 388.3299865722656 13.42000007629395
170.1100006103516 389.6300048828125 15.98999977111816
169.3800048828125 386.6099853515625 13.52999973297119
171 393.1499938964844 16.06999969482422
170.5599975585938 391.2699890136719 16.53000068664551
171.1399993896484 393.7200012207031 16.03000068664551
170 388.9400024414062 13.5
171.5899963378906 395.5199890136719 15.85999965667725
169.7100067138672 387.7799987792969 13.42000007629395
170.7200012207031 391.9100036621094 16.40999984741211
170.8500061035156 392.510009765625 16.21999931335449
172.5599975585938 399.1300048828125 12.86999988555908
169.9799957275391 389 15.80000019073486
171.9400024414062 396.739990234375 15.77000045776367
169.0099945068359 384.8299865722656 7.940000057220459
171.2899932861328 394.3099975585938 15.97000026702881
170.25 390.1199951171875 16.15999984741211
171.75 396.1600036621094 15.78999996185303
172.6799926757812 399.6900024414062 12.92000007629395
172.4100036621094 398.5299987792969 12.84000015258789
172.2200012207031 397.9100036621094 12.86999988555908
171.4700012207031 394.8900146484375 15.9399995803833
168.1399993896484 384.010009765625 8.779999732971191
168.4299926757812 385.3800048828125 13.52000045776367
168.1199951171875 384.2099914550781 13.38000011444092
168.5500030517578 386.0400085449219 15.9399995803833
167.9799957275391 383.5299987792969 8.460000038146973
168.3000030517578 384.8399963378906 13.35000038146973
168.2100067138672 384.4400024414062 9.659999847412109
169.3399963378906 389.010009765625 13.46000003814697
168.1600036621094 384.25 10.53999996185303
169.0299987792969 387.9500122070312 15.73999977111816
170.1900024414062 392.5 16.29999923706055
169.5599975585938 390.1499938964844 16.18000030517578
170.2899932861328 393.0199890136719 16.27000045776367
170.4600067138672 393.6799926757812 16.21999931335449
169.4700012207031 389.6199951171875 15.96000003814697
171.3699951171875 397.3099975585938 15.96000003814697
169.3000030517578 389.1000061035156 15.77999973297119
171.0700073242188 396.1600036621094 16.01000022888184
171.8600006103516 399.1400146484375 12.89999961853027
169.7299957275391 390.6799926757812 16.36000061035156
169.8500061035156 391.25 16.51000022888184
170.9400024414062 395.5 16.1200008392334
172.0200042724609 399.7000122070312 12.92000007629395
168.4400024414062 385.510009765625 15.82999992370605
170.7599945068359 394.8800048828125 16.06999969482422
171.2200012207031 396.760009765625 16.01000022888184
167.8800048828125 382.9700012207031 8.060000419616699
167.2100067138672 383.0299987792969 8.130000114440918
167.3300018310547 383.7699890136719 13.4399995803833
167.4700012207031 384.3599853515625 13.43000030517578
167.6199951171875 384.6199951171875 9.210000038146973
168.6600036621094 389.0599975585938 15.88000011444092
168.5099945068359 388.4599914550781 15.92000007629395
167.8899993896484 386.0700073242188 16.02000045776367
168.0299987792969 386.7200012207031 16.17000007629395
168.9600067138672 390.239990234375 16.17000007629395
169.5399932861328 392.5700073242188 16.54999923706055
167.6699981689453 384.9700012207031 13.39000034332275
168.2200012207031 387.2799987792969 15.97999954223633
168.3399963378906 387.9200134277344 15.97999954223633
167.7700042724609 385.4800109863281 13.47000026702881
170.2299957275391 395.489990234375 16.29999923706055
169.9400024414062 394.2699890136719 16.45999908447266
170.1100006103516 394.8500061035156 16.43000030517578
167.7599945068359 385.5899963378906 15.78999996185303
169.0700073242188 390.7200012207031 16.3799991607666
171.3500061035156 399.7999877929688 12.9399995803833
169.2100067138672 391.3299865722656 16.54999923706055
167.4600067138672 384.0799865722656 8.859999656677246
169.3399963378906 391.9599914550781 16.54999923706055
169.8300018310547 393.739990234375 16.42000007629395
170.5399932861328 396.7099914550781 16.19000053405762
168.8000030517578 389.6400146484375 15.98999977111816
169.6799926757812 393.1199951171875 16.54000091552734
170.7100067138672 397.3200073242188 15.97000026702881
170.3999938964844 396.0799865722656 16.23999977111816
171.2299957275391 399.1700134277344 12.92000007629395
167.3699951171875 383.5899963378906 8.5
166.7799987792969 383.4800109863281 8.449999809265137
166.8899993896484 384.0400085449219 8.859999656677246
167.1900024414062 385.510009765625 15.8100004196167
166.6300048828125 383.0400085449219 8.109999656677246
167.2200012207031 385.4299926757812 13.42000007629395
168.2200012207031 389.6700134277344 15.98999977111816
166.9299926757812 384.2799987792969 13.35999965667725
167.3600006103516 386.0899963378906 16.02000045776367
168.1000061035156 389.0599975585938 16.06999969482422
167.0099945068359 384.5199890136719 9.189999580383301
168.3500061035156 390.1600036621094 16.13999938964844
169.1999969482422 393.5599975585938 16.6299991607666
167.9299926757812 388.5299987792969 16.04999923706055
169.5 394.8399963378906 16.56999969482422
167.8000030517578 387.8699951171875 16.13999938964844
170.0200042724609 396.7200012207031 16.19000053405762
168.6399993896484 391.260009765625 16.51000022888184
168.4799957275391 390.739990234375 16.28000068664551
168.7799987792969 391.8099975585938 16.70999908447266
169.0599975585938 393 16.6299991607666
167.4600067138672 386.6099853515625 16.19000053405762
170.6600036621094 399.1700134277344 12.82999992370605
168.9400024414062 392.4299926757812 16.67000007629395
169.3699951171875 394.2200012207031 16.54000091552734
170.1799926757812 397.3599853515625 15.97999954223633
169.8099975585938 396.0499877929688 16.42000007629395
167.0700073242188 384.8599853515625 13.43000030517578
167.6100006103516 387.2699890136719 16.15999984741211
170.7799987792969 399.760009765625 12.9399995803833
168.8800048828125 394.760009765625 16.68000030517578
169.0200042724609 395.3299865722656 16.75
169.3600006103516 396.6700134277344 16.22999954223633
169.5099945068359 397.260009765625 16.05999946594238
170.1699981689453 399.760009765625 12.9399995803833
169.1900024414062 396.010009765625 16.3700008392334
169.9700012207031 399.1300048828125 12.88000011444092
166.2700042724609 384.0499877929688 8.810000419616699
166.1199951171875 383.5 8.489999771118164
166.0200042724609 383.010009765625 8.079999923706055
166.3999938964844 384.5700073242188 9.170000076293945
166.7200012207031 386.1199951171875 16.01000022888184
166.2700042724609 384.2999877929688 13.43000030517578
166.8500061035156 386.6300048828125 16.07999992370605
166.9900054931641 387.2200012207031 16.39999961853027
167.9900054931641 391.239990234375 16.54000091552734
166.4100036621094 384.8900146484375 13.4399995803833
168.1199951171875 391.8500061035156 16.70000076293945
168.4199981689453 393.0299987792969 16.88999938964844
167.8399963378906 390.760009765625 16.3799991607666
167.5700073242188 389.510009765625 16.31999969482422
168.6999969482422 394.2200012207031 16.73999977111816
168.5599975585938 393.6000061035156 16.76000022888184
168.2799987792969 392.3999938964844 16.89999961853027
167.2599945068359 388.3599853515625 16.36000061035156
167.1000061035156 387.7200012207031 16.42000007629395
166.5899963378906 385.5 13.4399995803833
166.5399932861328 385.5499877929688 15.84000015258789
167.4299926757812 388.9700012207031 16.20000076293945
167.7299957275391 390.1700134277344 16.22999954223633
165.5899963378906 384.0700073242188 8.829999923706055
165.6100006103516 384.3099975585938 10.56999969482422
165.6000061035156 384.3099975585938 13.35999965667725
165.75 384.989990234375 15.8100004196167
165.7299957275391 384.9100036621094 13.42000007629395
166.1499938964844 386.6900024414062 16.20000076293945
166.4400024414062 387.7999877929688 16.55999946594238
166.5899963378906 388.3999938964844 16.52000045776367
166.8999938964844 389.6099853515625 16.44000053405762
166.2799987792969 387.2000122070312 16.40999984741211
166.0299987792969 386.1199951171875 16.01000022888184
165.4400024414062 383.6400146484375 8.329999923706055
167.0500030517578 390.2000122070312 16.3700008392334
166.7599945068359 389.0299987792969 16.53000068664551
167.6999969482422 392.9800109863281 17.11000061035156
167.4700012207031 391.8800048828125 16.73999977111816
168.3600006103516 395.4299926757812 16.68000030517578
167.1900024414062 390.7699890136719 16.42000007629395
165.4400024414062 383.75 13.3100004196167
169.4700012207031 399.7900085449219 12.93000030517578
168.4799957275391 396.0799865722656 16.45999908447266
168.8600006103516 397.3900146484375 16.03000068664551
165.8600006103516 385.5400085449219 15.82999992370605
169.3600006103516 399.2799987792969 12.89999961853027
167.8899993896484 393.5700073242188 17.01000022888184
168.0200042724609 394.1099853515625 17.04000091552734
167.3000030517578 391.2900085449219 16.57999992370605
168.6900024414062 396.7200012207031 16.20999908447266
167.5599975585938 392.4299926757812 16.94000053405762
168.1600036621094 394.8099975585938 16.84000015258789
165.6999969482422 387.2999877929688 16.3799991607666
165.2599945068359 385.6400146484375 16.04999923706055
165.9600067138672 388.3699951171875 16.73999977111816
166.2299957275391 389.6000061035156 16.70000076293945
166.5599975585938 390.7699890136719 16.54999923706055
166.8200073242188 391.9500122070312 16.72999954223633
165.8399963378906 387.8800048828125 16.54000091552734
165.1100006103516 385.010009765625 13.48999977111816
167.4199981689453 394.2900085449219 16.95000076293945
167.8899993896484 396.1199951171875 16.35000038146973
165.5700073242188 386.7799987792969 16.1299991607666
168.2400054931641 397.3999938964844 15.98999977111816
167.1000061035156 393.0599975585938 17.19000053405762
167.5599975585938 394.8999938964844 16.82999992370605
165.1100006103516 385.1099853515625 16.06999969482422
168.3999938964844 398.0499877929688 15.78999996185303
166.1000061035156 388.989990234375 16.70999908447266
166.9900054931641 392.489990234375 16.94000053405762
167.7299957275391 395.4800109863281 16.6200008392334
168.8800048828125 399.8500061035156 12.97000026702881
166.6999969482422 391.3900146484375 16.55999946594238
167.2899932861328 393.6700134277344 17.23999977111816
166.4100036621094 390.1600036621094 16.57999992370605
168.6999969482422 399.2699890136719 12.85999965667725
165.4199981689453 386.1900024414062 16.07999992370605
168.0599975585938 396.7900085449219 16.1299991607666
164.9600067138672 384.3999938964844 13.44999980926514
165.1900024414062 384.9299926757812 7.989999771118164
164.4700012207031 384.2799987792969 7.929999828338623
164.6399993896484 385.0400085449219 9.960000038146973
164.6199951171875 384.9100036621094 7.760000228881836
164.5700073242188 384.9400024414062 16.25
164.3999938964844 384.3099975585938 13.71000003814697
165.0200042724609 386.7300109863281 16.20999908447266
164.7200012207031 385.5400085449219 16.15999984741211
164.9100036621094 386.0499877929688 7.949999809265137
165.7299957275391 389.5899963378906 16.85000038146973
165.8699951171875 390.1400146484375 16.86000061035156
166.2799987792969 391.8500061035156 16.75
165.5800018310547 388.9800109863281 16.88999938964844
165.3899993896484 388.3900146484375 16.68000030517578
167.1999969482422 395.4400024414062 16.56999969482422
167.3500061035156 396.1000061035156 16.42000007629395
168.1999969482422 399.2900085449219 12.85999965667725
167.6600036621094 397.4100036621094 15.98999977111816
166.4499969482422 392.4599914550781 16.88999938964844
167.5299987792969 396.7300109863281 16.25
166.8800048828125 394.1600036621094 17.03000068664551
166.5599975585938 392.9800109863281 17.04999923706055
168.3200073242188 399.8299865722656 12.97999954223633
165.1300048828125 387.260009765625 16.36000061035156
165.9900054931641 390.760009765625 16.72999954223633
164.5399932861328 384.8200073242188 13.82999992370605
165.25 387.8299865722656 16.60000038146973
166.7299957275391 393.5799865722656 17.22999954223633
164.8600006103516 386.1000061035156 16.1299991607666
163.8200073242188 384.2300109863281 7.989999771118164
164.3300018310547 386.6799926757812 16.34000015258789
163.9900054931641 385.0499877929688 9.819999694824219
163.8899993896484 384.8699951171875 13.8100004196167
163.8800048828125 384.8699951171875 16.52000045776367
164.8999938964844 388.8800048828125 16.92000007629395
164.2799987792969 386.0700073242188 8.119999885559082
164.75 388.3399963378906 16.69000053405762
164.5 387.239990234375 16.38999938964844
165.5 391.2699890136719 16.94000053405762
164.6000061035156 387.7799987792969 16.56999969482422
164.0599975585938 385.5299987792969 16.43000030517578
165.6100006103516 391.8200073242188 16.95999908447266
165.8000030517578 392.4400024414062 16.93000030517578
165.0099945068359 389.4599914550781 17.05999946594238
165.1600036621094 390.0199890136719 17.09000015258789
166.6999969482422 396.0499877929688 16.54000091552734
164.1999969482422 386.0799865722656 16.40999984741211
166.3699951171875 394.8800048828125 16.85000038146973
166.2200012207031 394.2099914550781 17.04000091552734
165.3300018310547 390.6000061035156 16.96999931335449
167.5099945068359 399.25 12.81999969482422
167.6499938964844 399.75 12.9399995803833
166.5299987792969 395.4500122070312 16.60000038146973
167.0399932861328 397.3699951171875 16.04000091552734
165.9299926757812 393.010009765625 17.14999961853027
166.0399932861328 393.5899963378906 17.26000022888184
166.8399963378906 396.6600036621094 16.21999931335449
163.1499938964844 384.3599853515625 7.929999828338623
163.1600036621094 384.6700134277344 14.8100004196167
163.2599945068359 384.9599914550781 7.78000020980835
163.2899932861328 385.0899963378906 9.859999656677246
163.6100006103516 386.6199951171875 16.51000022888184
163.2100067138672 384.8500061035156 13.82999992370605
164.3600006103516 389.5299987792969 17.13999938964844
164.6100006103516 390.7200012207031 17.22999954223633
163.4600067138672 386.0700073242188 16.57999992370605
164.0399932861328 388.3999938964844 16.70999908447266
163.1999969482422 384.8900146484375 16.53000068664551
165.3600006103516 393.5400085449219 17.26000022888184
164.8999938964844 391.8599853515625 17.17000007629395
163.9199981689453 387.8399963378906 16.55999946594238
164.5 390.0899963378906 17.28000068664551
165.5200042724609 394.2300109863281 17.04999923706055
166.3399963378906 397.3599853515625 16.01000022888184
164.7599945068359 391.2799987792969 17.18000030517578
165.0399932861328 392.4200134277344 17.1299991607666
163.5899963378906 386.1000061035156 7.949999809265137
163.8000030517578 387.2900085449219 16.53000068664551
166.8200073242188 399.3099975585938 12.86999988555908
165.2100067138672 393.0199890136719 17.10000038146973
166.1699981689453 396.7900085449219 16.13999938964844
165.9799957275391 396.1199951171875 16.36000061035156
163.3399963378906 385.4800109863281 16.56999969482422
166.7100067138672 398.7200012207031 12.69999980926514
164.1900024414062 388.9500122070312 16.85000038146973
166.9700012207031 399.9299926757812 12.92000007629395
165.6799926757812 394.8099975585938 16.86000061035156
166.4900054931641 398.0400085449219 15.77999973297119
163.2299957275391 384.7000122070312 9
162.5500030517578 384.7000122070312 9.5
162.6699981689453 385.0400085449219 7.860000133514404
162.5700073242188 384.9700012207031 13.8100004196167
162.6999969482422 385.239990234375 9.899999618530273
162.4700012207031 384.4700012207031 13.76000022888184
162.6100006103516 385.1099853515625 16.35000038146973
162.8000030517578 385.6900024414062 7.849999904632568
162.9499969482422 386.1799926757812 8.029999732971191
162.75 385.6700134277344 16.39999961853027
163.1799926757812 387.4100036621094 16.54000091552734
163.6900024414062 389.6300048828125 17.10000038146973
163.3200073242188 387.9700012207031 16.67000007629395
163.5500030517578 389.0599975585938 16.94000053405762
164.6199951171875 393.1499938964844 17.25
163 386.8599853515625 16.48999977111816
164 390.7000122070312 17.45000076293945
164.2700042724609 391.9400024414062 17.34000015258789
164.4700012207031 392.5499877929688 17.26000022888184
165.2599945068359 395.6799926757812 16.52000045776367
164.1399993896484 391.2799987792969 17.31999969482422
165.3899993896484 396.260009765625 16.3700008392334
165.8999938964844 398.1799926757812 15.78999996185303
162.8800048828125 386.2900085449219 16.42000007629395
166.3500061035156 399.9599914550781 12.98999977111816
165.0700073242188 395.0899963378906 16.73999977111816
166.0800018310547 398.8099975585938 12.78999996185303
165.6900024414062 397.5199890136719 15.94999980926514
163.8600006103516 390.1499938964844 17.34000015258789
164.9400024414062 394.4400024414062 16.96999931335449
164.7299957275391 393.75 17.1299991607666
163.4600067138672 388.510009765625 16.72999954223633
162.5700073242188 384.8800048828125 11.60999965667725
166.2200012207031 399.3500061035156 12.84000015258789
162.1000061035156 384.9800109863281 11.07999992370605
161.9400024414062 384.5199890136719 16.10000038146973
162.3800048828125 386.260009765625 16.27000045776367
162.2400054931641 385.6900024414062 16.22999954223633
162.0500030517578 385.1099853515625 16.19000053405762
162.6499938964844 387.3599853515625 16.48999977111816
162.0299987792969 384.8900146484375 14.3100004196167
162.7700042724609 387.9400024414062 16.64999961853027
162.1399993896484 385.010009765625 8.279999732971191
163.2100067138672 389.6000061035156 17.19000053405762
163.9400024414062 392.510009765625 17.3799991607666
163.4700012207031 390.760009765625 17.52000045776367
163.6199951171875 391.3399963378906 17.52000045776367
164.0800018310547 393.0499877929688 17.42000007629395
164.5500030517578 395 16.81999969482422
164.8699951171875 396.25 16.27000045776367
163.0800018310547 389.0899963378906 16.96999931335449
164.2400054931641 393.7200012207031 17.23999977111816
164.6999969482422 395.6000061035156 16.55999946594238
165.6999969482422 399.4200134277344 12.82999992370605
163.3600006103516 390.2200012207031 17.36000061035156
165.3500061035156 398.1499938964844 15.75
162.8999938964844 388.5299987792969 16.79999923706055
165.2200012207031 397.5499877929688 15.97000026702881
162.5200042724609 386.8299865722656 16.29999923706055
163.7899932861328 391.9200134277344 17.46999931335449
161.2299957275391 383.9700012207031 10
161.4799957275391 385.1000061035156 15.97000026702881
161.6399993896484 385.75 15.98999977111816
161.3699951171875 384.5599975585938 12.93000030517578
162.0399932861328 387.3800048828125 16.54999923706055
162.1799926757812 387.9400024414062 16.70000076293945
162.4299926757812 389.0199890136719 16.95000076293945
161.2299957275391 384.1000061035156 12.35999965667725
161.9299926757812 386.9100036621094 16.30999946594238
163.0099945068359 391.260009765625 17.68000030517578
161.7799987792969 386.2999877929688 16.1299991607666
163.4799957275391 393.1099853515625 17.36000061035156
163.8000030517578 394.3800048828125 16.92000007629395
163.2799987792969 392.4700012207031 17.56999969482422
163.1499938964844 391.7999877929688 17.64999961853027
163.6300048828125 393.7200012207031 17.09000015258789
162.5700073242188 389.5799865722656 17.10000038146973
162.7400054931641 390.1400146484375 17.34000015258789
162.8399963378906 390.7099914550781 17.45999908447266
164.4499969482422 396.9100036621094 16.10000038146973
163.9799957275391 395.0599975585938 16.75
161.1999969482422 383.9400024414062 13.02999973297119
164.7400054931641 398.0799865722656 15.89999961853027
162.3099975585938 388.4599914550781 16.82999992370605
164.1000061035156 395.7000122070312 16.54000091552734
164.5800018310547 397.5299987792969 15.90999984741211
164.2899932861328 396.2799987792969 16.3700008392334
160.6900024414062 384.6199951171875 10.02999973297119
160.8099975585938 385.1199951171875 15.80000019073486
160.5099945068359 384.010009765625 12.89999961853027
161.3200073242188 387.3599853515625 16.45999908447266
160.6799926757812 384.3299865722656 8.560000419616699
161.4900054931641 387.8900146484375 16.56999969482422
161.7299957275391 389.0199890136719 17
161.5899963378906 388.4400024414062 16.84000015258789
160.8399963378906 385.1499938964844 12.85000038146973
160.9400024414062 385.6799926757812 15.92000007629395
162.4400024414062 391.8500061035156 17.70999908447266
163.0700073242188 394.3299865722656 16.95000076293945
162.2899932861328 391.2799987792969 17.68000030517578
162.0200042724609 390.1000061035156 17.30999946594238
161.0800018310547 386.239990234375 16.13999938964844
163.8600006103516 397.3900146484375 16.20000076293945
164.3399963378906 399.2699890136719 15.89000034332275
164.0500030517578 398.0499877929688 16.22999954223633
163.3899993896484 395.6099853515625 16.54999923706055
163.2200012207031 394.9299926757812 16.73999977111816
160.6699981689453 384.5700073242188 12.85999965667725
162.1900024414062 390.7099914550781 17.45999908447266
161.1799926757812 386.8099975585938 16.19000053405762
164.1699981689453 398.6000061035156 16.03000068664551
162.9299926757812 393.6400146484375 17.1299991607666
161.8999938964844 389.5400085449219 17.15999984741211
162.6300048828125 392.4400024414062 17.52000045776367
160.0200042724609 384.6099853515625 9.920000076293945
159.8800048828125 384 12.84000015258789
160.1300048828125 385.1700134277344 12.84000015258789
160.1399993896484 385.1600036621094 15.73999977111816
160 384.4500122070312 7.869999885559082
160.3800048828125 386.2999877929688 16.09000015258789
160.9700012207031 388.510009765625 16.8799991607666
160.6699981689453 387.4100036621094 16.51000022888184
159.9499969482422 384.2099914550781 8.939999580383301
160.8000030517578 387.9700012207031 16.68000030517578
161.5099945068359 390.6799926757812 17.42000007629395
161.75 391.7999877929688 17.75
161.2299957275391 389.5499877929688 17.28000068664551
161.6300048828125 391.2300109863281 17.6299991607666
162.2400054931641 393.7300109863281 17.11000061035156
161.9400024414062 392.4100036621094 17.51000022888184
163.1999969482422 397.4299926757812 16.39999961853027
161.3500061035156 390.1199951171875 17.39999961853027
161.0599975585938 389.0199890136719 17
160.2799987792969 385.7200012207031 15.92000007629395
162.6100006103516 395.0299987792969 16.71999931335449
163.4900054931641 398.6300048828125 16.1299991607666
163.0500030517578 396.8299865722656 16.44000053405762
160.2700042724609 385.739990234375 13.13000011444092
162.9299926757812 396.2900085449219 16.40999984741211
160.0099945068359 384.5299987792969 12.89999961853027
160.5500030517578 386.8299865722656 16.34000015258789
159.4299926757812 384.3699951171875 7.880000114440918
159.4199981689453 384.3599853515625 10.82999992370605
159.4900054931641 384.5899963378906 9.920000076293945
159.5800018310547 385.0799865722656 12.82999992370605
159.2799987792969 383.9400024414062 12.84000015258789
159.8399963378906 386.2099914550781 16.04999923706055
160.3699951171875 388.3500061035156 16.86000061035156
159.9499969482422 386.6900024414062 16.23999977111816
159.5500030517578 385.0499877929688 15.78999996185303
160.5 388.8999938964844 16.94000053405762
161.0700073242188 391.1900024414062 17.5
160.7700042724609 389.989990234375 17.31999969482422
160.2100067138672 387.7799987792969 16.6200008392334
161.5299987792969 392.989990234375 17.34000015258789
161.2400054931641 391.8299865722656 17.52000045776367
159.6799926757812 385.6300048828125 13.11999988555908
161.6600036621094 393.5799865722656 17.13999938964844
161.8399963378906 394.2000122070312 16.95999908447266
162.0099945068359 394.8599853515625 16.78000068664551
161.3699951171875 392.3500061035156 17.54999923706055
162.4799957275391 396.7200012207031 16.29000091552734
160.0800018310547 387.2699890136719 16.46999931335449
162.9400024414062 398.5400085449219 16.07999992370605
159.6799926757812 385.5899963378906 15.92000007629395
159.4199981689453 384.5299987792969 12.85000038146973
163.0800018310547 399.1700134277344 15.90999984741211
160.6600036621094 389.510009765625 17.19000053405762
163.2599945068359 399.7900085449219 15.77999973297119
162.3099975585938 396.1099853515625 16.35000038146973
162.1300048828125 395.489990234375 16.59000015258789
162.6199951171875 397.2799987792969 16.34000015258789
162.7700042724609 397.8900146484375 16.32999992370605
160.9199981689453 390.5899963378906 17.51000022888184
158.5899963378906 383.6700134277344 8.050000190734863
158.7700042724609 384.4800109863281 9.909999847412109
158.6699981689453 383.9100036621094 9.609999656677246
159.0200042724609 385.5299987792969 13.22000026702881
159.2899932861328 386.6900024414062 16.19000053405762
159.6900024414062 388.3900146484375 16.78000068664551
159.8200073242188 388.8900146484375 17.01000022888184
159.9600067138672 389.4500122070312 17.1299991607666
159.1699981689453 386.1300048828125 16
158.7899932861328 384.2799987792969 7.900000095367432
159.4499969482422 387.260009765625 16.45000076293945
158.9199981689453 385.010009765625 12.86999988555908
159.0099945068359 385.5700073242188 15.85000038146973
160.8600006103516 392.8999938964844 17.44000053405762
161.1900024414062 394.2099914550781 17.04000091552734
158.7400054931641 384.4500122070312 12.8100004196167
159.5700073242188 387.8299865722656 16.59000015258789
161.8300018310547 396.7999877929688 16.07999992370605
160.2799987792969 390.5899963378906 17.25
160.0899963378906 389.989990234375 17.18000030517578
162.25 398.4599914550781 16.20999908447266
162.4400024414062 399.1099853515625 15.90999984741211
161.4799957275391 395.489990234375 16.54000091552734
160.5700073242188 391.75 17.34000015258789
160.4299926757812 391.1600036621094 17.25
161 393.510009765625 17.15999984741211
158.8500061035156 385.0199890136719 15.82999992370605
162 397.3599853515625 16.10000038146973
161.3500061035156 394.8099975585938 16.81999969482422
158.6300048828125 383.8599853515625 12.72000026702881
162.1100006103516 397.9200134277344 16.17000007629395
160.6799926757812 392.2900085449219 17.38999938964844
162.5700073242188 399.760009765625 15.77000045776367
158.1799926757812 385.0199890136719 15.72999954223633
158.3500061035156 385.5700073242188 15.84000015258789
158.0800018310547 384.510009765625 12.82999992370605
158.8699951171875 387.7999877929688 16.6299991607666
159 388.3200073242188 16.76000022888184
158.4499969482422 386.1000061035156 16.04999923706055
158.6300048828125 386.6799926757812 16.20000076293945
159.1300048828125 388.8500061035156 16.95999908447266
158.2599945068359 385.0700073242188 12.81999969482422
159.4799957275391 390.0799865722656 16.95000076293945
158.0700073242188 384.239990234375 8
158.1399993896484 384.4800109863281 9.920000076293945
160.0700073242188 392.4299926757812 17.19000053405762
160.1699981689453 392.9800109863281 17.21999931335449
158.75 387.1799926757812 16.34000015258789
160.6699981689453 394.7999877929688 16.76000022888184
158.2599945068359 384.9100036621094 8.039999961853027
159.2799987792969 389.4400024414062 16.95999908447266
159.5800018310547 390.6300048828125 17
161.4600067138672 397.8999938964844 15.90999984741211
158.3500061035156 385.5400085449219 13.10999965667725
161.7200012207031 399.1000061035156 15.98999977111816
159.8800048828125 391.7799987792969 17.1200008392334
161.3099975585938 397.3099975585938 16
160.4900054931641 394.1199951171875 17.05999946594238
157.9400024414062 383.8800048828125 12.8100004196167
159.7700042724609 391.2300109863281 17.01000022888184
160.3200073242188 393.5400085449219 17.19000053405762
161.1199951171875 396.7000122070312 16.13999938964844
161.8899993896484 399.760009765625 15.81999969482422
161.6100006103516 398.5199890136719 16.03000068664551
157.4400024414062 384.239990234375 8.029999732971191
157.75 385.5700073242188 12.92000007629395
157.8600006103516 386.1400146484375 16.05999946594238
158.4199981689453 388.3900146484375 16.75
158.5500030517578 388.9200134277344 16.95000076293945
158.1100006103516 387.2200012207031 16.44000053405762
158.2899932861328 387.8299865722656 16.63999938964844
159.2799987792969 391.8200073242188 16.93000030517578
158.9900054931641 390.6499938964844 16.79999923706055
157.4600067138672 384.4500122070312 9.899999618530273
157.4600067138672 384.4500122070312 12.8100004196167
159.1199951171875 391.239990234375 16.89999961853027
160.0200042724609 394.8099975585938 16.85000038146973
159.5700073242188 392.9800109863281 17
159.6799926757812 393.5599975585938 17.02000045776367
160.5 396.760009765625 16.13999938964844
160.1799926757812 395.4500122070312 16.5
158.8300018310547 390.1000061035156 16.70999908447266
161.1100006103516 399.1199951171875 15.89000034332275
160.9799957275391 398.6000061035156 15.77000045776367
157.7100067138672 385.5499877929688 15.89999961853027
158.7100067138672 389.5299987792969 16.86000061035156
160.8200073242188 398.0299987792969 15.78999996185303
161.25 399.7300109863281 15.84000015258789
159.8699951171875 394.1600036621094 16.93000030517578
160.3699951171875 396.1000061035156 16.32999992370605
160.7100067138672 397.4299926757812 15.98999977111816
157.9700012207031 386.6700134277344 16.23999977111816
159.4400024414062 392.4299926757812 16.97999954223633
157.5800018310547 385.0499877929688 12.84000015258789
156.9299926757812 384.3999938964844 9.850000381469727
157.0299987792969 385.0499877929688 12.77000045776367
156.8999938964844 384.3900146484375 12.8100004196167
157.2799987792969 386.0299987792969 16.04999923706055
157.6900024414062 387.6700134277344 16.59000015258789
157.8399963378906 388.260009765625 16.71999931335449
157.1699981689453 385.5599975585938 12.9399995803833
157.9700012207031 388.8099975585938 16.81999969482422
157.1199951171875 385.5400085449219 15.84000015258789
158.4400024414062 390.6499938964844 16.72999954223633
158.5599975585938 391.2099914550781 16.61000061035156
157.4299926757812 386.6000061035156 16.19000053405762
159.1399993896484 393.6000061035156 16.81999969482422
159.4499969482422 394.7300109863281 16.76000022888184
159.9199981689453 396.6499938964844 16.06999969482422
160.25 397.8800048828125 15.75
157.5700073242188 387.1799926757812 16.35000038146973
158.6999969482422 391.8299865722656 16.71999931335449
159.6300048828125 395.3500061035156 16.59000015258789
160.5700073242188 399.1099853515625 12.81999969482422
158.1199951171875 389.3800048828125 16.81999969482422
158.8800048828125 392.4100036621094 16.72999954223633
