214.3300018310547 309.7699890136719 9.670000076293945
215.1699981689453 310.010009765625 9.369999885559082
213.6999969482422 309.6600036621094 9.409999847412109
211.9700012207031 309.2000122070312 8.659999847412109
210.8300018310547 308.9700012207031 8.189999580383301
217.7200012207031 310.6199951171875 8.329999923706055
216.9100036621094 310.4200134277344 8.649999618530273
217.7100067138672 309.9400024414062 8.289999961853027
218.6799926757812 310.1499938964844 7.869999885559082
211.5200042724609 308.3999938964844 8.449999809265137
212.0800018310547 308.5400085449219 8.680000305175781
210.3000030517578 308.1400146484375 7.96999979019165
216.1100006103516 309.5 8.989999771118164
215.1900024414062 309.3099975585938 9.359999656677246
213.7899932861328 308.9400024414062 9.390000343322754
214.4199981689453 309.1199951171875 9.640000343322754
210.9299926757812 308.260009765625 8.199999809265137
216.9100036621094 309.75 8.640000343322754
213.2100067138672 308.8099975585938 9.170000076293945
212.6300048828125 308.6900024414062 8.909999847412109
210.7400054931641 307.4599914550781 5.400000095367432
212.0500030517578 307.7000122070312 8.680000305175781
210.3099975585938 307.3099975585938 7.960000038146973
211.4600067138672 307.5499877929688 8.5
215.2799987792969 308.5 9.289999961853027
217.0599975585938 308.9200134277344 8.600000381469727
212.6100006103516 307.8699951171875 8.930000305175781
218.6999969482422 309.3599853515625 7.880000114440918
213.8699951171875 308.1499938964844 9.390000343322754
210.8899993896484 307.4200134277344 8.199999809265137
214.4100036621094 308.2900085449219 9.619999885559082
217.8999938964844 309.1300048828125 8.229999542236328
216.1699981689453 308.6900024414062 8.970000267028809
213.2200012207031 307.9800109863281 9.170000076293945
210.5800018310547 306.6799926757812 5.730000019073486
213.7200012207031 307.4299926757812 9.430000305175781
209.8999938964844 306.510009765625 7.21999979019165
210.8600006103516 306.7099914550781 8.220000267028809
212.6699981689453 307.1799926757812 8.979999542236328
211.4700012207031 306.8900146484375 8.460000038146973
218.5800018310547 308.6300048828125 7.96999979019165
213.2200012207031 307.2799987792969 9.170000076293945
216.0599975585938 307.9800109863281 8.960000038146973
212.0599975585938 307.0400085449219 8.699999809265137
214.3800048828125 307.5799865722656 9.649999618530273
217.75 308.3900146484375 8.289999961853027
215.1699981689453 307.7799987792969 9.340000152587891
210.2299957275391 306.5700073242188 7.929999828338623
216.9100036621094 308.2000122070312 8.609999656677246
209.9400024414062 305.9200134277344 7.199999809265137
212.0200042724609 306.4200134277344 8.689999580383301
211.4700012207031 306.2900085449219 8.409999847412109
216.0700073242188 307.3999938964844 8.970000267028809
214.3800048828125 306.9800109863281 9.640000343322754
216.9799957275391 307.5899963378906 8.659999847412109
213.8000030517578 306.8299865722656 9.380000114440918
215.1799926757812 307.1499938964844 9.380000114440918
210.9900054931641 306.1499938964844 7.920000076293945
217.8999938964844 307.8599853515625 8.279999732971191
210.4499969482422 306.0199890136719 7.53000020980835
218.6999969482422 308.0499877929688 7.880000114440918
212.6199951171875 306.5499877929688 8.909999847412109
213.1399993896484 306.6499938964844 9.199999809265137
210.5800018310547 306.1199951171875 5.710000038146973
209.9799957275391 305.2699890136719 7.28000020980835
211.75 305.6900024414062 8.100000381469727
213.4900054931641 306.0799865722656 8.890000343322754
210.5200042724609 305.3999938964844 7.579999923706055
213.9499969482422 306.2200012207031 9.289999961853027
217 306.9800109863281 8.609999656677246
212.9299926757812 305.9700012207031 8.590000152587891
218.7200012207031 307.3999938964844 7.860000133514404
212.3600006103516 305.8399963378906 8.329999923706055
211.1000061035156 305.510009765625 7.840000152587891
215.2599945068359 306.5299987792969 9.350000381469727
214.4900054931641 306.3099975585938 9.609999656677246
210.7100067138672 305.4500122070312 5.559999942779541
216.1799926757812 306.739990234375 8.970000267028809
217.8899993896484 307.2000122070312 8.220000267028809
210.9100036621094 304.7000122070312 5.519999980926514
211.1999969482422 304.7200012207031 7.889999866485596
212.9700012207031 305.1799926757812 8.590000152587891
210.6499938964844 304.6099853515625 7.599999904632568
211.8000030517578 304.8599853515625 8.119999885559082
214.8800048828125 305.6099853515625 8.939999580383301
217.25 306.2099914550781 8.460000038146973
212.3999938964844 305 8.359999656677246
214.1000061035156 305.4500122070312 9.069999694824219
213.5299987792969 305.2799987792969 8.829999923706055
218.0800018310547 306.3900146484375 8.199999809265137
215.75 305.8299865722656 8.609999656677246
210.1100006103516 304.4800109863281 7.320000171661377
216.5 306.0299987792969 8.399999618530273
210.6199951171875 303.8699951171875 7.670000076293945
211.8099975585938 304.1199951171875 8.100000381469727
212.4199981689453 304.2999877929688 8.369999885559082
214.1900024414062 304.7200012207031 9.100000381469727
214.8999938964844 304.8900146484375 9.060000419616699
218.3200073242188 305.739990234375 7.559999942779541
210.9100036621094 303.9800109863281 5.329999923706055
210.0500030517578 303.7000122070312 7.289999961853027
215.7599945068359 305.1099853515625 8.560000419616699
216.5899963378906 305.2999877929688 8.25
217.4700012207031 305.5 7.940000057220459
211.2200012207031 304 7.860000133514404
213.0299987792969 304.4200134277344 8.569999694824219
213.6300048828125 304.5599975585938 8.819999694824219
211.2200012207031 303.2999877929688 7.889999866485596
214.1399993896484 303.9700012207031 9.109999656677246
213.5599975585938 303.8599853515625 8.859999656677246
211.7899932861328 303.4100036621094 8.140000343322754
218.3899993896484 305.0299987792969 7.5
215.8000030517578 304.4100036621094 8.619999885559082
217.5 304.8200073242188 7.880000114440918
210.6900024414062 303.1400146484375 7.679999828338623
216.6499938964844 304.6199951171875 8.210000038146973
212.3999938964844 303.5799865722656 8.390000343322754
212.9600067138672 303.6900024414062 8.649999618530273
214.8899993896484 304.1499938964844 8.960000038146973
214.2599945068359 303.2699890136719 9.159999847412109
215.8699951171875 303.6799926757812 8.529999732971191
216.7100067138672 303.8999938964844 8.239999771118164
213.6699981689453 303.1199951171875 8.960000038146973
215.0700073242188 303.4599914550781 8.939999580383301
217.5399932861328 304.0899963378906 7.889999866485596
218.4400024414062 304.3099975585938 7.519999980926514
216.75 303.0700073242188 8.260000228881836
218.5399932861328 303.5400085449219 7.480000019073486
217.6999969482422 303.3399963378906 7.860000133514404
217.8000030517578 303.3599853515625 5.940000057220459
217.7700042724609 302.6400146484375 6.099999904632568
210.0800018310547 319.5400085449219 7.739999771118164
210.7100067138672 319.6799926757812 7.25
211.4100036621094 319.8800048828125 6.630000114440918
212.5599975585938 319.4200134277344 8.840000152587891
212 319.3099975585938 8.619999885559082
213.1300048828125 319.6000061035156 9.130000114440918
210.9100036621094 319.0299987792969 8.180000305175781
211.5200042724609 319.1499938964844 8.439999580383301
210.3800048828125 318.8599853515625 7.889999866485596
215.8000030517578 319.6099853515625 9.220000267028809
214.0099945068359 319.1400146484375 9.439999580383301
212.3099975585938 318.6900024414062 8.739999771118164
213.4600067138672 319.010009765625 9.189999580383301
214.5099945068359 319.260009765625 9.680000305175781
215.1499938964844 319.4500122070312 9.539999961853027
212.8999938964844 318.8699951171875 8.949999809265137
211.7700042724609 318.5899963378906 8.5
210.7100067138672 318.3299865722656 8.119999885559082
210.1900024414062 318.1499938964844 7.800000190734863
211.2400054931641 318.4299926757812 8.289999961853027
216.0599975585938 319.0799865722656 9.149999618530273
214.3200073242188 318.6199951171875 9.590000152587891
214.8399963378906 318.7799987792969 9.670000076293945
218.0299987792969 319.5299987792969 8.329999923706055
213.75 318.4800109863281 9.329999923706055
215.5200042724609 318.9500122070312 9.430000305175781
213.2400054931641 318.3399963378906 9.149999618530273
212.1600036621094 318.0700073242188 8.640000343322754
212.6300048828125 318.2200012207031 8.890000343322754
211.6199951171875 317.9200134277344 8.460000038146973
217.3200073242188 319.3599853515625 8.640000343322754
216.6699981689453 319.2300109863281 8.920000076293945
210.4799957275391 317.6700134277344 7.989999771118164
211.0500030517578 317.7900085449219 8.210000038146973
219.0200042724609 319.1499938964844 7.849999904632568
218.3399963378906 318.989990234375 8.189999580383301
217.7599945068359 318.8500061035156 8.449999809265137
216.5 318.5499877929688 8.939999580383301
217.0899963378906 318.7000122070312 8.699999809265137
214.0500030517578 317.9299926757812 9.449999809265137
215.8800048828125 318.3900146484375 9.170000076293945
211.8200073242188 317.3599853515625 8.520000457763672
213.5 317.8099975585938 9.210000038146973
214.5599975585938 318.0700073242188 9.640000343322754
215.2200012207031 318.2300109863281 9.640000343322754
210.7899932861328 317.1000061035156 8.100000381469727
211.2700042724609 317.25 8.319999694824219
212.3399963378906 317.489990234375 8.760000228881836
210.2299957275391 316.9599914550781 7.820000171661377
212.9499969482422 317.6700134277344 8.960000038146973
218.8399963378906 318.3999938964844 8
216.8500061035156 317.8900146484375 8.779999732971191
214.4600067138672 317.2900085449219 9.630000114440918
218.1300048828125 318.2300109863281 8.260000228881836
215.0599975585938 317.4500122070312 9.529999732971191
213.9100036621094 317.1499938964844 9.390000343322754
211.7599945068359 316.6099853515625 8.479999542236328
210.6199951171875 316.3099975585938 8.079999923706055
213.3699951171875 317.0400085449219 9.189999580383301
212.7899932861328 316.9100036621094 8.930000305175781
217.5099945068359 318.0599975585938 8.510000228881836
211.1600036621094 316.4599914550781 8.25
210.0500030517578 316.2099914550781 7.769999980926514
212.2400054931641 316.760009765625 8.699999809265137
216.2799987792969 317.7799987792969 9.050000190734863
215.6199951171875 317.5899963378906 9.310000419616699
218.0299987792969 317.510009765625 8.310000419616699
215.5299987792969 316.9100036621094 9.319999694824219
217.4100036621094 317.3599853515625 8.590000152587891
214.8699951171875 316.739990234375 9.649999618530273
214.3200073242188 316.6000061035156 9.560000419616699
213.7700042724609 316.4599914550781 9.310000419616699
212.6300048828125 316.1700134277344 8.850000381469727
211.0399932861328 315.7699890136719 8.180000305175781
210.5299987792969 315.6400146484375 7.960000038146973
212.0899963378906 316.0199890136719 8.649999618530273
216.75 317.2300109863281 8.819999694824219
211.5599975585938 315.8900146484375 8.449999809265137
213.1600036621094 316.3099975585938 9.119999885559082
219.2700042724609 317.8500061035156 7.800000190734863
218.6699981689453 317.6900024414062 8.069999694824219
216.2100067138672 317.1000061035156 9.079999923706055
217.1600036621094 316.6900024414062 8.619999885559082
216.5500030517578 316.5400085449219 8.939999580383301
218.4400024414062 316.9800109863281 8.119999885559082
217.7700042724609 316.8500061035156 8.420000076293945
215.9299926757812 316.3800048828125 9.159999847412109
213.0399932861328 315.6700134277344 9.029999732971191
211.9900054931641 315.3800048828125 8.590000152587891
210.8500061035156 315.0899963378906 8.149999618530273
215.3200073242188 316.2200012207031 9.439999580383301
210.3099975585938 314.9599914550781 7.900000095367432
214.1600036621094 315.9500122070312 9.520000457763672
213.6199951171875 315.7900085449219 9.300000190734863
219.1100006103516 317.1499938964844 7.860000133514404
212.5299987792969 315.5499877929688 8.850000381469727
214.6999969482422 316.0799865722656 9.649999618530273
211.3999938964844 315.260009765625 8.380000114440918
211.7400054931641 314.6400146484375 8.489999771118164
210.6900024414062 314.3699951171875 8.060000419616699
213.3600006103516 315.0799865722656 9.180000305175781
211.2200012207031 314.510009765625 8.300000190734863
212.2599945068359 314.7900085449219 8.699999809265137
212.7799987792969 314.8900146484375 8.930000305175781
213.9299926757812 315.2000122070312 9.409999847412109
210.1600036621094 314.260009765625 7.809999942779541
218.2599945068359 316.260009765625 8.25
217.5800018310547 316.0899963378906 8.489999771118164
215.0599975585938 315.4700012207031 9.560000419616699
218.8500061035156 316.4100036621094 7.929999828338623
217.0200042724609 315.9800109863281 8.720000267028809
216.3699951171875 315.7999877929688 9.029999732971191
218.6799926757812 315.6000061035156 8.060000419616699
215.7599945068359 315.6499938964844 9.25
216.1699981689453 314.989990234375 9.060000419616699
218.0099945068359 315.4299926757812 8.319999694824219
214.9799957275391 314.7200012207031 9.630000114440918
216.7700042724609 315.1400146484375 8.829999923706055
213.8600006103516 314.4299926757812 9.310000419616699
217.4100036621094 315.3099975585938 8.569999694824219
214.5099945068359 315.3299865722656 9.699999809265137
211.0399932861328 313.6900024414062 8.260000228881836
211.6600036621094 313.8699951171875 8.439999580383301
213.2700042724609 314.2900085449219 9.149999618530273
214.3300018310547 314.5299987792969 9.609999656677246
212.1799926757812 313.989990234375 8.689999580383301
210.5700073242188 313.5899963378906 7.96999979019165
215.5500030517578 314.8399963378906 9.289999961853027
212.7400054931641 314.1300048828125 8.909999847412109
218.4799957275391 314.8999938964844 8.090000152587891
219.1199951171875 315.0700073242188 7.820000171661377
215.3000030517578 314.1499938964844 9.399999618530273
211.3999938964844 313.1600036621094 8.340000152587891
210.8699951171875 313.0299987792969 8.140000343322754
212.4700012207031 313.3999938964844 8.840000152587891
216.6100006103516 314.4500122070312 8.859999656677246
215.9900054931641 314.3200073242188 9.180000305175781
213.0099945068359 313.5400085449219 9.010000228881836
209.2100067138672 312.6000061035156 7.710000038146973
211.9400024414062 313.2799987792969 8.579999923706055
217.2200012207031 314.5899963378906 8.680000305175781
214.7299957275391 313.9800109863281 9.640000343322754
210.3200073242188 312.8800048828125 7.840000152587891
209.8000030517578 312.7200012207031 7.71999979019165
214.1600036621094 313.8599853515625 9.470000267028809
213.5399932861328 313.7099914550781 9.25
217.8600006103516 314.7699890136719 8.340000152587891
218.8000030517578 314.3900146484375 7.949999809265137
216.3099975585938 313.7900085449219 9.010000228881836
215.0599975585938 313.489990234375 9.470000267028809
213.3600006103516 313.0599975585938 9.189999580383301
217.4799957275391 314.0599975585938 8.520000457763672
216.8999938964844 313.9100036621094 8.75
211.1900024414062 312.4800109863281 8.279999732971191
210.6100006103516 312.3599853515625 8.079999923706055
212.8099975585938 312.9200134277344 8.939999580383301
218.1600036621094 314.2300109863281 8.229999542236328
211.7299957275391 312.6199951171875 8.520000457763672
213.9100036621094 313.1799926757812 9.420000076293945
209.4299926757812 312.0700073242188 7.880000114440918
214.4799957275391 313.3399963378906 9.630000114440918
210.0899963378906 312.2000122070312 7.820000171661377
212.3000030517578 312.760009765625 8.770000457763672
215.6900024414062 313.6600036621094 9.260000228881836
216.0299987792969 313.0400085449219 9.069999694824219
217.2700042724609 313.3500061035156 8.600000381469727
213.6100006103516 312.4400024414062 9.260000228881836
214.1900024414062 312.5899963378906 9.5
215.3600006103516 312.8699951171875 9.380000114440918
217.8699951171875 313.5 8.359999656677246
212.5099945068359 312.1600036621094 8.800000190734863
213.0599975585938 312.2999877929688 9.060000419616699
211.9600067138672 312.010009765625 8.640000343322754
216.6600036621094 313.1700134277344 8.850000381469727
210.3399963378906 311.6000061035156 8.029999732971191
209.5099945068359 311.3399963378906 5.840000152587891
214.7200012207031 312.739990234375 9.640000343322754
209.1300048828125 311.2900085449219 8.180000305175781
211.4600067138672 311.8999938964844 8.409999847412109
210.9100036621094 311.760009765625 8.210000038146973
218.5399932861328 313.6400146484375 8.050000190734863
209.7899932861328 311.4700012207031 8.060000419616699
219.1199951171875 313.8099975585938 7.840000152587891
218.9600067138672 312.9700012207031 7.809999942779541
218.2599945068359 312.7699890136719 8.229999542236328
217.0200042724609 312.5 8.649999618530273
217.6300048828125 312.6199951171875 8.460000038146973
214.0399932861328 311.7300109863281 9.489999771118164
214.5500030517578 311.8900146484375 9.659999847412109
212.9499969482422 311.4800109863281 9
210.7599945068359 310.9200134277344 8.149999618530273
212.3899993896484 311.3200073242188 8.779999732971191
215.7700042724609 312.2000122070312 9.159999847412109
210.1300048828125 310.7699890136719 8.079999923706055
216.3899993896484 312.3500061035156 8.909999847412109
211.2700042724609 311.0599975585938 8.359999656677246
213.4499969482422 311.5799865722656 9.229999542236328
215.1999969482422 312.0299987792969 9.420000076293945
211.8500061035156 311.2000122070312 8.560000419616699
209.5500030517578 310.6000061035156 7.989999771118164
218.7400054931641 312.2200012207031 8
215.5500030517578 311.4500122070312 9.289999961853027
214.9299926757812 311.2999877929688 9.649999618530273
214.3300018310547 311.1700134277344 9.600000381469727
211.6300048828125 310.4800109863281 8.470000267028809
217.4799957275391 311.9200134277344 8.510000228881836
216.2200012207031 311.6199951171875 8.989999771118164
210.5099945068359 310.1799926757812 8.039999961853027
212.1399993896484 310.6099853515625 8.689999580383301
209.9700012207031 310.0299987792969 7.909999847412109
209.3999938964844 309.8999938964844 7.78000020980835
213.75 311.0299987792969 9.310000419616699
212.6600036621094 310.7200012207031 8.930000305175781
211.1000061035156 310.3500061035156 8.189999580383301
213.1900024414062 310.8599853515625 9.090000152587891
218.0399932861328 312.0899963378906 8.189999580383301
216.8399963378906 311.760009765625 8.720000267028809
209.7799987792969 309.9599914550781 5.289999961853027
217.7100067138672 311.4200134277344 8.399999618530273
215.9100036621094 310.9800109863281 9.170000076293945
216.5099945068359 311.1199951171875 8.859999656677246
218.3899993896484 311.5799865722656 8.090000152587891
214.6000061035156 310.6700134277344 9.659999847412109
213.0200042724609 310.25 9.039999961853027
215.2899932861328 310.7999877929688 9.369999885559082
210.8300018310547 309.6900024414062 8.119999885559082
214.1100006103516 310.5400085449219 9.529999732971191
213.5599975585938 310.3800048828125 9.220000267028809
212.4400024414062 310.1199951171875 8.840000152587891
217.0800018310547 311.239990234375 8.600000381469727
219.0200042724609 311.7000122070312 7.849999904632568
211.9199981689453 309.9500122070312 8.550000190734863
211.3300018310547 309.7900085449219 8.369999885559082
210.25 309.5199890136719 7.829999923706055
218.6600036621094 311 7.949999809265137
217.3899993896484 310.6799926757812 8.479999542236328
215.5299987792969 310.2200012207031 9.260000228881836
213.7200012207031 309.7699890136719 9.340000152587891
216.7899932861328 310.5599975585938 8.75
212.1199951171875 309.3800048828125 8.640000343322754
211.0500030517578 309.0899963378906 8.239999771118164
214.8699951171875 310.0700073242188 9.539999961853027
211.5399932861328 309.239990234375 8.439999580383301
209.9600067138672 308.7999877929688 7.78000020980835
214.2700042724609 309.9400024414062 9.569999694824219
212.6199951171875 309.489990234375 8.869999885559082
210.4799957275391 308.9599914550781 7.96999979019165
218.0299987792969 310.8299865722656 8.239999771118164
213.1699981689453 309.6300048828125 9.079999923706055
216.1499938964844 310.3699951171875 8.970000267028809
217.7100067138672 310.0400085449219 8.340000152587891
218.3200073242188 310.2099914550781 8.119999885559082
214.0399932861328 309.1600036621094 9.5
213.4900054931641 309.0199890136719 9.270000457763672
212.4700012207031 308.7099914550781 8.859999656677246
217.0899963378906 309.8900146484375 8.609999656677246
211.8500061035156 308.5899963378906 8.569999694824219
218.9600067138672 310.3599853515625 7.809999942779541
215.2599945068359 309.4200134277344 9.340000152587891
215.8899993896484 309.6099853515625 9.159999847412109
214.6399993896484 309.2699890136719 9.609999656677246
211.3000030517578 308.4599914550781 8.369999885559082
210.7700042724609 308.2900085449219 8.130000114440918
212.9799957275391 308.8500061035156 9.020000457763672
210.25 308.1400146484375 7.860000133514404
216.4499969482422 309.7099914550781 8.869999885559082
216.8800048828125 309.1600036621094 8.699999809265137
213.7700042724609 308.3900146484375 9.409999847412109
214.3300018310547 308.5499877929688 9.560000419616699
212.1499938964844 307.989990234375 8.659999847412109
218.75 309.6300048828125 7.869999885559082
218.0599975585938 309.489990234375 8.220000267028809
212.6799926757812 308.1199951171875 8.920000076293945
217.4900054931641 309.3099975585938 8.430000305175781
211.0800018310547 307.7200012207031 8.260000228881836
210.0099945068359 307.4400024414062 7.739999771118164
214.9900054931641 308.7099914550781 9.449999809265137
211.6100006103516 307.8800048828125 8.470000267028809
216.2599945068359 309.0400085449219 8.960000038146973
215.5899963378906 308.8699951171875 9.199999809265137
213.2100067138672 308.25 9.140000343322754
210.5599975585938 307.5899963378906 8.010000228881836
219.0399932861328 309.0799865722656 7.820000171661377
217.6999969482422 308.7999877929688 8.369999885559082
216.5 308.5 8.829999923706055
214.6699981689453 308.0400085449219 9.560000419616699
215.3000030517578 308.2099914550781 9.369999885559082
214.1199951171875 307.8800048828125 9.489999771118164
210.2400054931641 306.8900146484375 7.889999866485596
213 307.6300048828125 9.069999694824219
213.5200042724609 307.7300109863281 9.310000419616699
210.8000030517578 307.0700073242188 8.189999580383301
211.3600006103516 307.2000122070312 8.369999885559082
212.4499969482422 307.4800109863281 8.859999656677246
215.9299926757812 308.3599853515625 9.090000152587891
218.3999938964844 308.9299926757812 8.060000419616699
217.1300048828125 308.6099853515625 8.579999923706055
211.9400024414062 307.3399963378906 8.600000381469727
216.8500061035156 307.9599914550781 8.710000038146973
216.1799926757812 307.7999877929688 9
214.9499969482422 307.4599914550781 9.460000038146973
217.4499969482422 308.0700073242188 8.460000038146973
215.5800018310547 307.6199951171875 9.25
218.7200012207031 308.3900146484375 7.889999866485596
218.0700073242188 308.25 8.199999809265137
211.6100006103516 306.6000061035156 8.539999961853027
214.3000030517578 307.3399963378906 9.649999618530273
212.6600036621094 306.8800048828125 8.899999618530273
211.0800018310547 306.510009765625 8.260000228881836
213.1900024414062 307.010009765625 9.170000076293945
212.1199951171875 306.75 8.720000267028809
210.0899963378906 306.25 7.329999923706055
213.7599945068359 307.1600036621094 9.359999656677246
210.5399932861328 306.3599853515625 7.849999904632568
218.3699951171875 307.6400146484375 8.090000152587891
213.0399932861328 306.2999877929688 8.989999771118164
212.5899963378906 306.1799926757812 8.420000076293945
212 306.0299987792969 8.130000114440918
217.7299957275391 307.4500122070312 8.329999923706055
214.1000061035156 306.5599975585938 9.529999732971191
216.5 307.1499938964844 8.819999694824219
213.5700073242188 306.4500122070312 9.329999923706055
217.1399993896484 307.2900085449219 8.619999885559082
219.0099945068359 307.760009765625 7.820000171661377
214.6399993896484 306.7300109863281 9.659999847412109
215.9100036621094 307 9.100000381469727
215.2799987792969 306.8800048828125 9.329999923706055
210.8999938964844 305.7300109863281 7.690000057220459
211.4499969482422 305.8900146484375 7.909999847412109
210.3500061035156 305.5899963378906 7.46999979019165
216.8800048828125 306.6700134277344 8.640000343322754
213.8600006103516 305.9200134277344 8.920000076293945
215.0399932861328 306.1900024414062 9.239999771118164
218.7799987792969 307.1099853515625 7.860000133514404
217.5399932861328 306.7999877929688 8.390000343322754
218.1100006103516 306.9400024414062 8.180000305175781
213.2799987792969 305.7699890136719 8.689999580383301
212.7799987792969 305.6099853515625 8.489999771118164
212.2299957275391 305.4800109863281 8.260000228881836
216.2799987792969 306.5299987792969 8.979999542236328
215.6100006103516 306.3299865722656 9.180000305175781
210.6499938964844 305.0700073242188 7.559999942779541
211.75 305.3699951171875 8.039999961853027
211.1699981689453 305.239990234375 7.860000133514404
214.4100036621094 306.0599975585938 9.170000076293945
210.0899963378906 304.9200134277344 7.300000190734863
217.7400054931641 306.3200073242188 8.289999961853027
215.9799957275391 305.8999938964844 8.579999923706055
214.1999969482422 305.4200134277344 9.039999961853027
213.1300048828125 305.1700134277344 8.569999694824219
217.1799926757812 306.1700134277344 8.340000152587891
218.4100036621094 306.489990234375 8.069999694824219
216.5899963378906 306.0400085449219 8.340000152587891
210.9400024414062 304.6099853515625 7.739999771118164
214.7200012207031 305.5899963378906 9.079999923706055
210.3300018310547 304.4299926757812 7.460000038146973
212.5800018310547 305.0199890136719 8.340000152587891
213.6300048828125 305.2799987792969 8.800000190734863
211.9900054931641 304.8500061035156 8.180000305175781
211.4400024414062 304.7300109863281 7.920000076293945
215.4100036621094 305.7300109863281 8.779999732971191
219.0200042724609 306.6499938964844 7.860000133514404
218.8500061035156 305.9400024414062 7.360000133514404
217.5399932861328 305.6300048828125 7.889999866485596
215.6699981689453 305.1900024414062 8.640000343322754
212.7400054931641 304.3999938964844 8.510000228881836
215.0399932861328 305 8.890000343322754
218.1699981689453 305.7900085449219 7.650000095367432
216.9600067138672 305.4599914550781 8.180000305175781
211.1600036621094 304.0400085449219 7.840000152587891
214.3999938964844 304.8399963378906 9.149999618530273
210.0599975585938 303.760009765625 7.309999942779541
212.2299957275391 304.2699890136719 8.310000419616699
210.5700073242188 303.8500061035156 7.639999866485596
213.2599945068359 304.5899963378906 8.739999771118164
211.6799926757812 304.1499938964844 8.039999961853027
216.3300018310547 305.3299865722656 8.380000114440918
213.8200073242188 304.7200012207031 8.899999618530273
218.5500030517578 305.1199951171875 7.489999771118164
217.3200073242188 304.8200073242188 8
214.8300018310547 304.2099914550781 9.020000457763672
214.2400054931641 304.0599975585938 9.119999885559082
213.1499938964844 303.7799987792969 8.670000076293945
213.6799926757812 303.9200134277344 8.869999885559082
215.4900054931641 304.3900146484375 8.760000228881836
212.0500030517578 303.5 8.210000038146973
210.9700012207031 303.239990234375 7.78000020980835
216.0800018310547 304.5199890136719 8.479999542236328
216.6600036621094 304.6900024414062 8.260000228881836
212.6499938964844 303.6499938964844 8.439999580383301
217.8800048828125 304.9500122070312 7.789999961853027
211.4799957275391 303.3599853515625 7.989999771118164
218.3699951171875 304.4700012207031 7.550000190734863
216.5200042724609 304.0299987792969 8.310000419616699
217.7700042724609 304.3200073242188 7.809999942779541
217.1399993896484 304.1900024414062 8.069999694824219
214.0200042724609 303.4200134277344 9.020000457763672
214.5700073242188 303.5799865722656 9.140000343322754
213.3999938964844 303.2699890136719 8.789999961853027
218.9900054931641 304.6199951171875 7.449999809265137
215.8600006103516 303.8699951171875 8.600000381469727
215.25 303.7000122070312 8.869999885559082
218.0099945068359 303.8599853515625 7.699999809265137
218.6000061035156 304.010009765625 7.480000019073486
215.5500030517578 303.239990234375 8.770000457763672
216.7400054931641 303.5599975585938 8.270000457763672
217.3800048828125 303.7000122070312 7.980000019073486
216.1699981689453 303.4100036621094 8.479999542236328
218.9400024414062 303.510009765625 7.340000152587891
217.7100067138672 303.1799926757812 7.860000133514404
218.2899932861328 303.3299865722656 7.570000171661377
218 303.2099914550781 7.760000228881836
218.5700073242188 303.3699951171875 7.5
217.8500061035156 303.2099914550781 6.079999923706055
216.5200042724609 303.3900146484375 8.319999694824219
216 303.2799987792969 8.609999656677246
218.7899932861328 303.9800109863281 7.320000171661377
218.1999969482422 303.8399963378906 7.630000114440918
217.6600036621094 303.7000122070312 7.929999828338623
215.3999938964844 303.1300048828125 8.840000152587891
217.1100006103516 303.5400085449219 8.090000152587891
213.9600067138672 303.3500061035156 9.029999732971191
215.1499938964844 303.6199951171875 8.899999618530273
215.6799926757812 303.7900085449219 8.680000305175781
213.3699951171875 303.1799926757812 8.699999809265137
216.2299957275391 303.8999938964844 8.470000267028809
216.7400054931641 304.0299987792969 8.229999542236328
214.5700073242188 303.5 9.109999656677246
217.8399963378906 304.3399963378906 7.789999961853027
218.3600006103516 304.4500122070312 7.539999961853027
218.9600067138672 304.6000061035156 7.289999961853027
217.2400054931641 304.2000122070312 8.050000190734863
211.1499938964844 303.3399963378906 7.829999923706055
210.6000061035156 303.2000122070312 7.610000133514404
212.9299926757812 303.7999877929688 8.600000381469727
214.1100006103516 304.0599975585938 9.069999694824219
213.5299987792969 303.9500122070312 8.850000381469727
212.3000030517578 303.6199951171875 8.310000419616699
218.5800018310547 305.2300109863281 7.480000019073486
215.7299957275391 304.510009765625 8.659999847412109
217.4700012207031 304.9400024414062 7.980000019073486
211.7599945068359 303.489990234375 8.079999923706055
216.3399963378906 304.6199951171875 8.430000305175781
216.8800048828125 304.760009765625 8.170000076293945
217.9900054931641 305.0599975585938 7.739999771118164
217.5299987792969 305.6000061035156 7.889999866485596
216.4400024414062 305.2900085449219 8.369999885559082
218.6699981689453 305.8599853515625 7.440000057220459
216.9499969482422 305.4299926757812 8.149999618530273
215.8800048828125 305.1900024414062 8.600000381469727
215.2700042724609 304.3699951171875 8.840000152587891
215.3699951171875 305.0299987792969 8.770000457763672
218.0399932861328 305.7300109863281 7.710000038146973
214.7100067138672 304.2000122070312 9.090000152587891
209.9799957275391 303.7200012207031 7.340000152587891
213 304.4299926757812 8.579999923706055
214.8399963378906 304.8800048828125 9.069999694824219
212.4400024414062 304.3099975585938 8.319999694824219
214.2599945068359 304.7699890136719 9.109999656677246
213.6499938964844 304.6099853515625 8.850000381469727
210.5800018310547 303.8699951171875 7.599999904632568
211.1600036621094 303.9800109863281 7.880000114440918
211.8300018310547 304.1400146484375 8.100000381469727
210.8300018310547 304.5299987792969 7.670000076293945
211.3800048828125 304.6600036621094 7.869999885559082
214.9199981689453 305.5199890136719 8.979999542236328
210.1999969482422 304.3999938964844 7.449999809265137
214.3899993896484 305.3900146484375 9.149999618530273
216.6000061035156 305.9500122070312 8.340000152587891
213.1900024414062 305.1300048828125 8.630000114440918
215.4799957275391 305.6600036621094 8.770000457763672
217.75 306.2799987792969 8.310000419616699
216.0099945068359 305.8299865722656 8.529999732971191
218.3200073242188 306.3900146484375 8.109999656677246
212.5500030517578 304.9500122070312 8.369999885559082
218.8800048828125 306.5599975585938 7.789999961853027
211.9799957275391 304.8099975585938 8.140000343322754
213.7799987792969 305.239990234375 8.859999656677246
217.1600036621094 306.1199951171875 8.329999923706055
212.1900024414062 305.5599975585938 8.229999542236328
214.6600036621094 306.1499938964844 9.489999771118164
210.3000030517578 305.1199951171875 7.46999979019165
216.7799987792969 306.7300109863281 8.75
213.3600006103516 305.8699951171875 8.670000076293945
212.75 305.6900024414062 8.430000305175781
218.4700012207031 307.1300048828125 8.020000457763672
216.2700042724609 306.5599975585938 8.979999542236328
217.3300018310547 306.8699951171875 8.489999771118164
215.75 306.4400024414062 9.159999847412109
211.5299987792969 305.3999938964844 7.920000076293945
219 307.2699890136719 7.739999771118164
210.9499969482422 305.2799987792969 7.730000019073486
215.1699981689453 306.2799987792969 9.390000343322754
213.9900054931641 305.989990234375 8.989999771118164
217.8800048828125 307.010009765625 8.260000228881836
210.6000061035156 305.9299926757812 7.559999942779541
210.0099945068359 305.7900085449219 7.300000190734863
214.2700042724609 306.8399963378906 9.579999923706055
212.3800048828125 306.3500061035156 8.810000419616699
215.8800048828125 307.2300109863281 9.079999923706055
216.4900054931641 307.3800048828125 8.899999618530273
213.0200042724609 306.5400085449219 9.090000152587891
215.3099975585938 307.0799865722656 9.350000381469727
217.5599975585938 307.6600036621094 8.399999618530273
216.9900054931641 307.510009765625 8.590000152587891
211.8000030517578 306.2099914550781 8.409999847412109
213.5899963378906 306.6499938964844 9.329999923706055
211.1799926757812 306.0899963378906 7.809999942779541
218.1199951171875 307.8299865722656 8.180000305175781
214.8200073242188 306.9800109863281 9.779999732971191
218.7299957275391 307.9599914550781 7.909999847412109
210.7799987792969 306.6199951171875 8.189999580383301
210.2200012207031 306.5299987792969 7.920000076293945
211.4299926757812 306.7799987792969 8.460000038146973
213.8699951171875 307.3900146484375 9.439999580383301
216.0800018310547 307.9500122070312 8.989999771118164
213.2400054931641 307.239990234375 9.149999618530273
217.1900024414062 308.2300109863281 8.520000457763672
216.5899963378906 308.0799865722656 8.770000457763672
218.2799987792969 308.5199890136719 8.109999656677246
212.0399932861328 306.9700012207031 8.689999580383301
218.7700042724609 308.6799926757812 7.829999923706055
212.6000061035156 307.1099853515625 8.920000076293945
215.5500030517578 307.7999877929688 9.239999771118164
217.7100067138672 308.3599853515625 8.300000190734863
211.1699981689453 307.3599853515625 8.260000228881836
211.7400054931641 307.5199890136719 8.539999961853027
212.3200073242188 307.6300048828125 8.770000457763672
213.5099945068359 307.9599914550781 9.279999732971191
216.8899993896484 308.8099975585938 8.659999847412109
215.8399963378906 308.5299987792969 9.100000381469727
214.1499938964844 308.0799865722656 9.5
215.0200042724609 307.6799926757812 9.430000305175781
214.7299957275391 308.25 9.590000152587891
216.3800048828125 308.6499938964844 8.869999885559082
212.9100036621094 307.7799987792969 9.029999732971191
217.4400024414062 308.9500122070312 8.430000305175781
215.2200012207031 308.3399963378906 9.380000114440918
209.9799957275391 307.0700073242188 7.809999942779541
214.4700012207031 307.5299987792969 9.670000076293945
218.6300048828125 309.2200012207031 7.949999809265137
210.5700073242188 307.2300109863281 8.029999732971191
218.0800018310547 309.1000061035156 8.189999580383301
210.6799926757812 307.9299926757812 8.119999885559082
213.1499938964844 308.5499877929688 9.100000381469727
211.9499969482422 308.25 8.630000114440918
213.7799987792969 308.7200012207031 9.369999885559082
214.9600067138672 308.989990234375 9.470000267028809
211.3300018310547 308.1099853515625 8.319999694824219
217.1199951171875 309.5400085449219 8.590000152587891
210.1100006103516 307.7999877929688 7.809999942779541
212.5200042724609 308.4200134277344 8.840000152587891
214.4400024414062 308.8800048828125 9.609999656677246
216.0099945068359 309.25 9.060000419616699
215.4700012207031 309.1300048828125 9.279999732971191
216.5299987792969 309.4200134277344 8.819999694824219
217.6300048828125 309.6799926757812 8.390000343322754
218.7599945068359 309.9500122070312 7.929999828338623
218.2400054931641 309.8299865722656 8.159999847412109
210.8999938964844 308.7699890136719 8.189999580383301
212.0700073242188 309.0599975585938 8.649999618530273
215.0200042724609 309.7799987792969 9.470000267028809
213.25 309.3399963378906 9.140000343322754
210.3399963378906 308.6400146484375 7.869999885559082
216.6900024414062 310.2099914550781 8.75
217.8399963378906 310.5299987792969 8.279999732971191
218.4400024414062 310.6799926757812 8.060000419616699
213.9100036621094 309.510009765625 9.399999618530273
215.5599975585938 309.9200134277344 9.210000038146973
217.2799987792969 310.3599853515625 8.539999961853027
211.5099945068359 308.9100036621094 8.409999847412109
216.1600036621094 310.0700073242188 8.970000267028809
218.9400024414062 310.8099975585938 7.789999961853027
214.4600067138672 309.6700134277344 9.649999618530273
212.7200012207031 309.2200012207031 8.909999847412109
212.1600036621094 309.7999877929688 8.699999809265137
211.6399993896484 309.6700134277344 8.479999542236328
214.6300048828125 310.3599853515625 9.659999847412109
215.6900024414062 310.6300048828125 9.210000038146973
214.1100006103516 310.2699890136719 9.489999771118164
215.1799926757812 310.5 9.439999580383301
218.9400024414062 311.4599914550781 7.820000171661377
218.4700012207031 311.3699951171875 8.090000152587891
217.3300018310547 311.0599975585938 8.479999542236328
210.9600067138672 309.5 8.189999580383301
217.9100036621094 311.2000122070312 8.270000457763672
216.7799987792969 310.9100036621094 8.739999771118164
210.3500061035156 309.3299865722656 7.880000114440918
212.8500061035156 309.9500122070312 8.939999580383301
217.6699981689453 311.75 8.399999618530273
217.0599975585938 311.5799865722656 8.609999656677246
215.4100036621094 311.1600036621094 9.319999694824219
216.2200012207031 310.7999877929688 8.960000038146973
218.25 311.9100036621094 8.180000305175781
215.9799957275391 311.3099975585938 9.109999656677246
216.4900054931641 311.4299926757812 8.880000114440918
213.4299926757812 310.1099853515625 9.25
218.7700042724609 312.0299987792969 7.929999828338623
210.1300048828125 309.8800048828125 7.820000171661377
211.3000030517578 310.1499938964844 8.289999961853027
210.6799926757812 310.0299987792969 8.109999656677246
213.0500030517578 310.6099853515625 9.069999694824219
212.5 310.4400024414062 8.829999923706055
211.8800048828125 310.3099975585938 8.550000190734863
213.6900024414062 310.7699890136719 9.319999694824219
214.3000030517578 310.9100036621094 9.609999656677246
209.2100067138672 310.2699890136719 7.920000076293945
212.7799987792969 311.1799926757812 8.930000305175781
209.75 310.4599914550781 8
210.9700012207031 310.7200012207031 8.210000038146973
210.3399963378906 310.5899963378906 8.069999694824219
212.1499938964844 311.010009765625 8.689999580383301
214.0099945068359 311.5 9.489999771118164
209.5399932861328 309.7099914550781 7.730000019073486
216.7599945068359 312.1900024414062 8.810000419616699
215.6999969482422 311.9200134277344 9.239999771118164
217.8999938964844 312.4700012207031 8.300000190734863
218.3800048828125 312.6099853515625 8.149999618530273
215.1100006103516 311.760009765625 9.479999542236328
214.8399963378906 311.010009765625 9.590000152587891
211.5800018310547 310.8599853515625 8.470000267028809
214.6300048828125 311.6099853515625 9.680000305175781
217.2700042724609 312.2799987792969 8.579999923706055
213.4400024414062 311.3399963378906 9.189999580383301
218.9499969482422 312.75 7.849999904632568
216.1799926757812 312.0199890136719 9.010000228881836
209.5 311.1000061035156 8.180000305175781
213.5299987792969 312.0899963378906 9.279999732971191
214.1300048828125 312.25 9.520000457763672
210.6000061035156 311.3399963378906 8.119999885559082
214.6799926757812 312.3699951171875 9.640000343322754
216.9299926757812 312.9500122070312 8.729999542236328
212.3600006103516 311.7999877929688 8.810000419616699
210 311.2200012207031 8.149999618530273
215.2700042724609 312.5299987792969 9.420000076293945
211.75 311.6199951171875 8.550000190734863
216.4199981689453 312.7999877929688 8.960000038146973
212.9400024414062 311.9100036621094 9.020000457763672
215.8500061035156 312.6400146484375 9.149999618530273
211.1399993896484 311.4800109863281 8.260000228881836
218.6199951171875 313.3800048828125 8.029999732971191
219.1300048828125 313.510009765625 7.78000020980835
217.5500030517578 313.0700073242188 8.479999542236328
218.0800018310547 313.2099914550781 8.260000228881836
209.4499969482422 311.7000122070312 7.960000038146973
211.8000030517578 312.2799987792969 8.510000228881836
213.6799926757812 312.7300109863281 9.319999694824219
214.2599945068359 312.8800048828125 9.539999961853027
211.2299957275391 312.1300048828125 8.300000190734863
209.9499969482422 311.8500061035156 7.940000057220459
216.4700012207031 313.4299926757812 8.930000305175781
214.8099975585938 313.010009765625 9.590000152587891
212.4400024414062 312.4200134277344 8.850000381469727
217.5299987792969 313.739990234375 8.479999542236328
216.9600067138672 313.5899963378906 8.729999542236328
215.3399963378906 313.1499938964844 9.380000114440918
219.1900024414062 314.1199951171875 7.809999942779541
218.0899963378906 313.8500061035156 8.239999771118164
218.6199951171875 313.9800109863281 8.050000190734863
213.0399932861328 312.6000061035156 9.039999961853027
213.1799926757812 313.239990234375 9.100000381469727
210.6100006103516 312 8.029999732971191
211.9700012207031 312.9100036621094 8.590000152587891
214.9100036621094 313.6400146484375 9.539999961853027
217.1799926757812 314.2099914550781 8.619999885559082
217.75 314.3999938964844 8.409999847412109
215.5099945068359 313.8099975585938 9.310000419616699
213.7799987792969 313.3699951171875 9.319999694824219
214.3600006103516 313.489990234375 9.619999885559082
215.8699951171875 313.2699890136719 9.170000076293945
218.8099975585938 314.6400146484375 7.920000076293945
216.6399993896484 314.1000061035156 8.890000343322754
218.2700042724609 314.489990234375 8.189999580383301
212.5500030517578 313.0599975585938 8.789999961853027
216.0599975585938 313.9500122070312 9.090000152587891
210.1699981689453 312.4800109863281 7.760000228881836
210.7799987792969 312.6300048828125 8.100000381469727
211.3399963378906 312.760009765625 8.350000381469727
209.6199951171875 312.3399963378906 7.739999771118164
210.3000030517578 313.1799926757812 7.929999828338623
213.4100036621094 313.9599914550781 9.199999809265137
214.5800018310547 314.2200012207031 9.689999580383301
215.0800018310547 314.3500061035156 9.489999771118164
212.1600036621094 313.6300048828125 8.699999809265137
218.9600067138672 315.3599853515625 7.849999904632568
211.5099945068359 313.5 8.399999618530273
217.8800048828125 315.0799865722656 8.390000343322754
212.7899932861328 313.7699890136719 8.979999542236328
215.6399993896484 314.4800109863281 9.279999732971191
210.9600067138672 313.3299865722656 8.199999809265137
216.7400054931641 314.7699890136719 8.810000419616699
216.2200012207031 314.6400146484375 9
213.9700012207031 314.1000061035156 9.399999618530273
217.2899932861328 314.9100036621094 8.600000381469727
218.3899993896484 315.2099914550781 8.140000343322754
210.5200042724609 313.989990234375 8.010000228881836
212.3200073242188 314.3800048828125 8.779999732971191
214.1300048828125 314.8200073242188 9.5
211.7299957275391 314.2900085449219 8.529999732971191
211.1199951171875 314.1199951171875 8.239999771118164
218.6300048828125 315.9700012207031 8.069999694824219
212.9499969482422 314.5499877929688 9.010000228881836
218.0700073242188 315.8299865722656 8.270000457763672
213.5 314.7099914550781 9.229999542236328
216.9400024414062 315.5700073242188 8.770000457763672
214.7400054931641 315 9.659999847412109
215.3000030517578 315.1300048828125 9.420000076293945
215.8200073242188 315.25 9.220000267028809
216.4299926757812 315.4400024414062 9.020000457763672
217.5299987792969 315.7300109863281 8.520000457763672
219.1000061035156 316.1199951171875 7.769999980926514
211.8999938964844 314.9200134277344 8.560000419616699
210.0899963378906 314.5 7.889999866485596
214.2899932861328 315.5 9.600000381469727
210.6699981689453 314.6300048828125 8.079999923706055
213.7200012207031 315.4100036621094 9.350000381469727
212.5399932861328 315.0799865722656 8.829999923706055
216.4799957275391 316.0700073242188 8.930000305175781
218.7100067138672 316.6499938964844 8.020000457763672
213.1600036621094 315.25 9.090000152587891
218.1300048828125 316.489990234375 8.239999771118164
217.6000061035156 316.3500061035156 8.5
215.9600067138672 315.9599914550781 9.140000343322754
211.2599945068359 314.7999877929688 8.340000152587891
214.8699951171875 315.6400146484375 9.640000343322754
217.0599975585938 316.25 8.739999771118164
213.8399963378906 315.9700012207031 9.380000114440918
215.5899963378906 316.4500122070312 9.319999694824219
214.4900054931641 316.1400146484375 9.579999923706055
216.7299957275391 316.7099914550781 8.819999694824219
213.3000030517578 315.8500061035156 9.130000114440918
215.0599975585938 316.2699890136719 9.569999694824219
216.1600036621094 316.5599975585938 9.100000381469727
219.3000030517578 316.7999877929688 7.800000190734863
218.9100036621094 317.260009765625 7.909999847412109
215.3800048828125 315.7799987792969 9.359999656677246
217.8699951171875 317 8.380000114440918
218.3600006103516 317.1300048828125 8.170000076293945
217.2700042724609 316.8800048828125 8.609999656677246
212.25 316.2699890136719 8.689999580383301
214.6100006103516 316.8800048828125 9.689999580383301
210.4299926757812 315.8399963378906 7.949999809265137
216.8300018310547 317.3999938964844 8.819999694824219
217.3300018310547 317.5299987792969 8.590000152587891
214.0500030517578 316.7099914550781 9.439999580383301
213.4700012207031 316.5599975585938 9.239999771118164
211.0399932861328 316 8.229999542236328
212.8500061035156 316.4400024414062 8.930000305175781
215.7299957275391 317.1600036621094 9.310000419616699
216.2700042724609 317.2799987792969 9
215.1300048828125 316.9800109863281 9.479999542236328
217.8899993896484 317.6700134277344 8.380000114440918
211.6399993896484 316.1099853515625 8.449999809265137
218.4700012207031 317.8200073242188 8.140000343322754
212.6699981689453 315.6900024414062 8.920000076293945
212.0599975585938 315.5499877929688 8.609999656677246
211.4900054931641 315.3999938964844 8.420000076293945
210.8899993896484 315.2900085449219 8.159999847412109
219.0099945068359 318 7.860000133514404
210.2299957275391 315.1300048828125 7.860000133514404
211.0899963378906 316.7799987792969 8.210000038146973
214.6699981689453 317.6700134277344 9.670000076293945
216.3800048828125 318.0799865722656 8.970000267028809
212.8699951171875 317.2099914550781 8.960000038146973
212.3000030517578 317.0799865722656 8.699999809265137
210.4499969482422 316.6099853515625 7.960000038146973
219.0399932861328 318.75 7.860000133514404
214.1000061035156 317.5 9.460000038146973
211.6999969482422 316.9400024414062 8.489999771118164
213.4199981689453 317.3699951171875 9.220000267028809
216.9499969482422 318.2200012207031 8.760000228881836
218.5700073242188 318.6499938964844 8.109999656677246
218.0099945068359 318.510009765625 8.319999694824219
217.4799957275391 318.3599853515625 8.539999961853027
215.2200012207031 317.8099975585938 9.449999809265137
215.7700042724609 317.9500122070312 9.239999771118164
218.6300048828125 319.3699951171875 8.109999656677246
219.1300048828125 319.5 7.769999980926514
210.8099975585938 318.0299987792969 8.159999847412109
211.3399963378906 318.1199951171875 8.350000381469727
212.0099945068359 318.3200073242188 8.640000343322754
215.5299987792969 319.1499938964844 9.420000076293945
214.3899993896484 318.8699951171875 9.609999656677246
217.1799926757812 319.5700073242188 8.760000228881836
210.1300048828125 317.8200073242188 7.840000152587891
