320.3099975585938 416.0700073242188 9.630000114440918
322.6600036621094 406.6499938964844 8.449999809265137
318.510009765625 420.7000122070312 10.13000011444092
319.3500061035156 417.3500061035156 9.949999809265137
318.3599853515625 421.3099975585938 10.18000030517578
319 418.739990234375 10.01000022888184
319.8299865722656 415.4400024414062 9.810000419616699
320.4299926757812 412.9800109863281 9.829999923706055
319.1700134277344 418.0700073242188 9.930000305175781
318.8800048828125 419.3699951171875 10
320.7699890136719 411.6400146484375 9.680000305175781
318.0400085449219 422.6300048828125 10.28999996185303
320.2900085449219 413.5599975585938 9.920000076293945
321.4400024414062 408.9800109863281 9.460000038146973
321.3099975585938 409.6000061035156 9.529999732971191
319.6700134277344 416.0499877929688 9.859999656677246
321.1000061035156 410.3299865722656 9.569999694824219
318.2200012207031 422 10.25
320.1099853515625 414.260009765625 9.859999656677246
320.9800109863281 410.9800109863281 9.609999656677246
321.9800109863281 406.8699951171875 9.229999542236328
321.6199951171875 408.2699890136719 9.439999580383301
318.7000122070312 420.010009765625 10.11999988555908
322.0899963378906 406.5700073242188 8.239999771118164
319.989990234375 414.7999877929688 9.760000228881836
321.7900085449219 407.6199951171875 9.369999885559082
320.6199951171875 412.260009765625 9.75
319.5299987792969 416.7000122070312 9.859999656677246
320.1199951171875 411.6799926757812 9.930000305175781
320.8999938964844 408.4200134277344 9.649999618530273
320.260009765625 411 9.850000381469727
320.6000061035156 409.760009765625 9.779999732971191
321.0499877929688 407.8200073242188 9.659999847412109
320.75 409.1499938964844 9.710000038146973
321.2300109863281 407.1099853515625 9.529999732971191
320.4100036621094 410.3800048828125 9.840000152587891
317.510009765625 422.0299987792969 10.44999980926514
317.9700012207031 420.1199951171875 10.31999969482422
317.3399963378906 422.6600036621094 10.39999961853027
317.6799926757812 421.3599853515625 10.42000007629395
317.8399963378906 420.739990234375 10.3100004196167
318.9400024414062 416.2300109863281 10.10000038146973
318.1300048828125 419.489990234375 10.26000022888184
318.4599914550781 418.1799926757812 10.15999984741211
319.260009765625 414.9500122070312 10.01000022888184
319.4500122070312 414.3500061035156 10.10999965667725
318.7699890136719 416.9100036621094 10.10999965667725
319.9200134277344 412.3200073242188 9.970000267028809
319.1199951171875 415.6300048828125 9.989999771118164
319.5899963378906 413.7000122070312 10.10999965667725
318.6499938964844 417.5599975585938 10.14000034332275
319.739990234375 413.0299987792969 10.07999992370605
318.3200073242188 418.8399963378906 10.26000022888184
317.3900146484375 419.6000061035156 10.48999977111816
316.9299926757812 421.4299926757812 10.32999992370605
318.0499877929688 416.9299926757812 10.31999969482422
316.760009765625 422.0599975585938 10.28999996185303
316.6400146484375 422.6900024414062 10.27999973297119
318.2200012207031 416.260009765625 10.30000019073486
317.0799865722656 420.8099975585938 10.35000038146973
317.2300109863281 420.2000122070312 10.4399995803833
317.8599853515625 417.5799865722656 10.39000034332275
318.9599914550781 413.1600036621094 10.31999969482422
317.5299987792969 418.9100036621094 10.43000030517578
318.3599853515625 415.6199951171875 10.23999977111816
319.1499938964844 412.489990234375 10.25
318.6600036621094 414.3699951171875 10.25
318.7900085449219 413.8500061035156 10.38000011444092
319.6199951171875 410.5499877929688 10.14000034332275
320.489990234375 407.1499938964844 9.760000228881836
319.4800109863281 411.1799926757812 10.17000007629395
318.5499877929688 415 10.19999980926514
319.9700012207031 409.1700134277344 9.949999809265137
319.7900085449219 409.8699951171875 10.02000045776367
319.3200073242188 411.8200073242188 10.19999980926514
320.1099853515625 408.5799865722656 9.939999580383301
320.2900085449219 407.8699951171875 9.890000343322754
317.7200012207031 418.2999877929688 10.39999961853027
316.3299865722656 421.4700012207031 10.09000015258789
316.9200134277344 419.0400085449219 10.32999992370605
317.489990234375 416.5499877929688 10.51000022888184
316.1499938964844 422.1099853515625 10.11999988555908
318 414.6000061035156 10.40999984741211
318.1499938964844 413.9800109863281 10.60000038146973
317.1900024414062 417.7900085449219 10.42000007629395
316.4700012207031 420.8399963378906 10.17000007629395
318.4500122070312 412.6799926757812 10.4399995803833
317.8200073242188 415.260009765625 10.40999984741211
319.1199951171875 410.0299987792969 10.23999977111816
318.6300048828125 411.989990234375 10.39000034332275
317.3699951171875 417.2099914550781 10.43000030517578
319.2799987792969 409.4200134277344 10.18000030517578
319.6099853515625 408.1000061035156 10.07999992370605
319.4200134277344 408.8200073242188 10.1899995803833
316.739990234375 419.6300048828125 10.27000045776367
317.6400146484375 415.9500122070312 10.47999954223633
316.6000061035156 420.1900024414062 10.22999954223633
318.3099975585938 413.3599853515625 10.48999977111816
317.0599975585938 418.4800109863281 10.40999984741211
318.9400024414062 410.7200012207031 10.28999996185303
319.8099975585938 407.4599914550781 9.989999771118164
318.8200073242188 411.2999877929688 10.32999992370605
316.0299987792969 420.2799987792969 10.02000045776367
316.7900085449219 417.1499938964844 10.30000019073486
315.8999938964844 420.8699951171875 10.0600004196167
317.5499877929688 414.1300048828125 10.73999977111816
315.5799865722656 422.1099853515625 9.960000038146973
316.6400146484375 417.7900085449219 10.22999954223633
318.0199890136719 412.1600036621094 10.57999992370605
316.2000122070312 419.6700134277344 10.10999965667725
316.5199890136719 418.4100036621094 10.22999954223633
318.5400085449219 410.2699890136719 10.44999980926514
317.4100036621094 414.6300048828125 10.52999973297119
316.3299865722656 419.0599975585938 10.1899995803833
317.1099853515625 415.8500061035156 10.38000011444092
318.3699951171875 410.8599853515625 10.51000022888184
318.8500061035156 408.8599853515625 10.35000038146973
319.0400085449219 408.2300109863281 10.26000022888184
319.3399963378906 406.8999938964844 10.26000022888184
317.7000122070312 413.5 10.75
317.8500061035156 412.8299865722656 10.72000026702881
317.2699890136719 415.2699890136719 10.5
316.9400024414062 416.5400085449219 10.39000034332275
315.7099914550781 421.5599975585938 9.970000267028809
319.1799926757812 407.5499877929688 10.1899995803833
318.1799926757812 411.5199890136719 10.59000015258789
318.7099914550781 409.5700073242188 10.43000030517578
317.5400085449219 411.5899963378906 10.72999954223633
317.1900024414062 412.8699951171875 10.69999980926514
318.1600036621094 408.9700012207031 10.55000019073486
317.8599853515625 410.260009765625 10.72000026702881
317.7000122070312 410.8900146484375 10.75
318.0299987792969 409.6300048828125 10.63000011444092
318.3200073242188 408.3299865722656 10.52999973297119
318.510009765625 407.6700134277344 10.48999977111816
318.6499938964844 407.0400085449219 10.39999961853027
317.3699951171875 412.2099914550781 10.75
314.9599914550781 422.0799865722656 9.770000457763672
315.739990234375 418.989990234375 9.939999580383301
316.0199890136719 417.7799987792969 10.03999996185303
315.8800048828125 418.3500061035156 10.02999973297119
314.7999877929688 422.7000122070312 9.579999923706055
315.5899963378906 419.5499877929688 9.909999847412109
315.2699890136719 420.7799987792969 9.760000228881836
316.2000122070312 417.1300048828125 10.09000015258789
316.489990234375 415.8599853515625 10.25
316.6000061035156 415.3099975585938 10.22999954223633
315.4500122070312 420.2000122070312 9.890000343322754
316.760009765625 414.6900024414062 10.30000019073486
316.8900146484375 414.1000061035156 10.5600004196167
316.3200073242188 416.5400085449219 10.14999961853027
317.0700073242188 413.4599914550781 10.64000034332275
315.1300048828125 421.4800109863281 9.739999771118164
314.0700073242188 422.5799865722656 9.470000267028809
314.8500061035156 419.5299987792969 9.710000038146973
314.510009765625 420.7699890136719 9.590000152587891
314.7099914550781 420.1400146484375 9.689999580383301
315.4200134277344 417.0400085449219 9.909999847412109
315.1199951171875 418.3099975585938 9.819999694824219
315.3200073242188 417.6499938964844 9.850000381469727
315.7799987792969 415.760009765625 10.01000022888184
314.3699951171875 421.3500061035156 9.600000381469727
316.6600036621094 412.1400146484375 10.55000019073486
316.489990234375 412.75 10.40999984741211
315.8999938964844 415.1099853515625 10.05000019073486
316.2099914550781 413.9599914550781 10.31999969482422
317.3800048828125 409.0199890136719 10.71000003814697
317.25 409.6600036621094 10.71000003814697
316.3200073242188 413.3800048828125 10.4399995803833
316.9700012207031 410.8900146484375 10.60000038146973
315.6099853515625 416.3800048828125 9.960000038146973
316.7799987792969 411.5 10.5600004196167
316.0400085449219 414.5199890136719 10.15999984741211
314.9700012207031 418.9100036621094 9.800000190734863
317.6900024414062 407.7699890136719 10.77999973297119
317.5799865722656 408.3699951171875 10.72999954223633
314.239990234375 421.9800109863281 9.550000190734863
317.0700073242188 410.2900085449219 10.65999984741211
317.8699951171875 407.0599975585938 10.75
313.7200012207031 421.3800048828125 9.340000152587891
314.0299987792969 420.1099853515625 9.449999809265137
313.3800048828125 422.6099853515625 9.260000228881836
313.5400085449219 421.9700012207031 9.340000152587891
314.4800109863281 418.2200012207031 9.600000381469727
315.4800109863281 414.0199890136719 10.10999965667725
315.6700134277344 413.3399963378906 10.15999984741211
314.9400024414062 416.3699951171875 9.699999809265137
315.9500122070312 412.1099853515625 10.27000045776367
315.0599975585938 415.760009765625 9.800000190734863
314.2000122070312 419.4400024414062 9.539999961853027
316.2900085449219 410.8099975585938 10.38000011444092
316.8900146484375 408.3699951171875 10.59000015258789
314.6000061035156 417.6400146484375 9.640000343322754
315.8200073242188 412.7000122070312 10.22000026702881
316.4100036621094 410.2099914550781 10.4399995803833
315.2099914550781 415.1600036621094 9.850000381469727
317.1700134277344 407.1099853515625 10.69999980926514
316.5799865722656 409.5199890136719 10.4399995803833
314.3399963378906 418.8599853515625 9.560000419616699
316.1300048828125 411.4599914550781 10.3100004196167
317.0299987792969 407.7799987792969 10.57999992370605
314.760009765625 417.010009765625 9.720000267028809
315.3900146484375 414.5499877929688 9.909999847412109
313.8399963378906 420.739990234375 9.439999580383301
316.75 408.989990234375 10.52999973297119
312.989990234375 421.9700012207031 9.189999580383301
313.6000061035156 419.4800109863281 9.350000381469727
313.4100036621094 420.1099853515625 9.329999923706055
313.2900085449219 420.6900024414062 9.239999771118164
314.0599975585938 417.6199951171875 9.529999732971191
313.760009765625 418.8500061035156 9.390000343322754
314.2000122070312 416.9599914550781 9.539999961853027
313.1099853515625 421.3299865722656 9.239999771118164
314.3699951171875 416.3500061035156 9.590000152587891
314.4800109863281 415.7200012207031 9.619999885559082
315.3699951171875 412.1000061035156 10.09000015258789
315.5599975585938 411.3900146484375 10.11999988555908
315.989990234375 409.5700073242188 10.26000022888184
315.2699890136719 412.6700134277344 10.03999996185303
316.2799987792969 408.3599853515625 10.39999961853027
315.0799865722656 413.260009765625 10.02000045776367
314.8200073242188 414.4299926757812 9.760000228881836
315.6700134277344 410.8399963378906 10.15999984741211
314.6799926757812 415.0599975585938 9.670000076293945
314.9400024414062 413.8399963378906 9.930000305175781
316.6000061035156 407.0799865722656 10.47999954223633
313.8599853515625 418.2699890136719 9.420000076293945
315.8500061035156 410.1300048828125 10.22999954223633
316.4800109863281 407.6499938964844 10.40999984741211
316.1600036621094 408.9299926757812 10.32999992370605
315.3999938964844 409.4400024414062 10.07999992370605
315.6900024414062 408.260009765625 10.23999977111816
315.5700073242188 408.8299865722656 10.11999988555908
315.0700073242188 410.7699890136719 9.979999542236328
315.9700012207031 407.1000061035156 10.3100004196167
315.2699890136719 410.0700073242188 9.979999542236328
315.8699951171875 407.6600036621094 10.22999954223633
314.9299926757812 411.3599853515625 9.880000114440918
313.4500122070312 417.5199890136719 9.279999732971191
313.1300048828125 418.739990234375 9.229999542236328
313.2799987792969 418.1400146484375 9.25
313.8599853515625 415.7300109863281 9.510000228881836
314.0199890136719 415.0799865722656 9.520000457763672
314.489990234375 413.2699890136719 9.710000038146973
314.760009765625 412.0299987792969 9.899999618530273
312.9599914550781 419.4200134277344 9.170000076293945
314.3500061035156 413.8800048828125 9.699999809265137
314.1799926757812 414.4599914550781 9.560000419616699
313.5899963378906 416.9400024414062 9.319999694824219
314.6099853515625 412.6499938964844 9.829999923706055
313.7200012207031 416.3099975585938 9.439999580383301
313.1799926757812 415.6600036621094 9.220000267028809
313.4800109863281 414.4100036621094 9.399999618530273
313.9299926757812 412.5700073242188 9.560000419616699
313.7900085449219 413.1600036621094 9.579999923706055
313.6400146484375 413.75 9.5
313.3299865722656 415.0400085449219 9.270000457763672
313.0700073242188 416.2799987792969 9.220000267028809
315.1700134277344 407.6499938964844 10.02999973297119
314.6900024414062 409.4700012207031 9.850000381469727
314.4100036621094 410.7099914550781 9.729999542236328
314.9700012207031 408.2900085449219 9.960000038146973
314.0700073242188 411.9800109863281 9.640000343322754
314.5499877929688 410.1300048828125 9.859999656677246
314.8399963378906 408.8599853515625 9.890000343322754
314.2300109863281 411.3299865722656 9.689999580383301
315.3200073242188 406.9800109863281 10.07999992370605
313 413.8200073242188 9.109999656677246
313.4100036621094 412.1000061035156 9.449999809265137
313.1300048828125 413.2699890136719 9.229999542236328
314.2099914550781 408.8299865722656 9.710000038146973
312.8200073242188 414.5299987792969 9.069999694824219
314.3800048828125 408.2900085449219 9.760000228881836
314.0499877929688 409.5199890136719 9.630000114440918
314.6400146484375 407.0799865722656 9.789999961853027
313.7300109863281 410.8099975585938 9.529999732971191
313.8900146484375 410.1300048828125 9.600000381469727
313.2900085449219 412.6700134277344 9.390000343322754
313.5799865722656 411.4100036621094 9.489999771118164
314.510009765625 407.6300048828125 9.779999732971191
313.4400024414062 409.5799865722656 9.449999809265137
313.75 408.3200073242188 9.539999961853027
314.0700073242188 407.0599975585938 9.649999618530273
313.8900146484375 407.760009765625 9.619999885559082
313.6300048828125 408.9200134277344 9.439999580383301
313.1799926757812 410.7799987792969 9.260000228881836
312.4500122070312 413.8599853515625 8.970000267028809
312.260009765625 414.4599914550781 8.930000305175781
313.3099975585938 410.1600036621094 9.409999847412109
312.5700073242188 413.1799926757812 9.020000457763672
313.010009765625 411.4500122070312 9.319999694824219
312.75 412.5599975585938 9.050000190734863
313.1700134277344 408.1799926757812 9.310000419616699
313.3099975585938 407.6000061035156 9.310000419616699
313.4200134277344 406.9700012207031 9.369999885559082
313.2999877929688 407.6700134277344 9.279999732971191
313.1300048828125 408.2099914550781 9.289999961853027
313.4500122070312 407.0799865722656 9.399999618530273
313.8500061035156 407.8999938964844 9.579999923706055
314.010009765625 407.3900146484375 9.630000114440918
313.3099975585938 410.1600036621094 9.369999885559082
313.4100036621094 409.6600036621094 9.420000076293945
313.0299987792969 411.3699951171875 9.439999580383301
314.1400146484375 406.7300109863281 9.659999847412109
312.7000122070312 412.489990234375 9
313.5700073242188 409.0199890136719 9.430000305175781
312.6000061035156 413.0599975585938 9.020000457763672
313.739990234375 408.4500122070312 9.5
312.1600036621094 414.7099914550781 8.960000038146973
312.2999877929688 414.1300048828125 8.960000038146973
312.4400024414062 413.5400085449219 8.970000267028809
313.1300048828125 410.7900085449219 9.310000419616699
314.489990234375 407.7900085449219 9.779999732971191
314.6099853515625 407.1400146484375 9.829999923706055
314.0499877929688 409.4100036621094 9.670000076293945
313.489990234375 411.6700134277344 9.460000038146973
313.7699890136719 410.5499877929688 9.579999923706055
312.7799987792969 414.510009765625 9.039999961853027
314.2200012207031 408.8699951171875 9.659999847412109
313.0700073242188 413.3299865722656 9.130000114440918
313.9200134277344 409.9299926757812 9.560000419616699
314.3500061035156 408.2900085449219 9.689999580383301
313.6600036621094 411.0700073242188 9.5
314.7900085449219 406.5899963378906 9.869999885559082
313.2200012207031 412.739990234375 9.260000228881836
312.9200134277344 413.9299926757812 9.060000419616699
313.3599853515625 412.2099914550781 9.390000343322754
313.0799865722656 416.0199890136719 9.229999542236328
315.1499938964844 407.5899963378906 10
314.6199951171875 409.8500061035156 9.770000457763672
314.3399963378906 410.9599914550781 9.739999771118164
314.0499877929688 412.1700134277344 9.609999656677246
313.4800109863281 414.3099975585938 9.399999618530273
314.8800048828125 408.6700134277344 9.920000076293945
313.6199951171875 413.760009765625 9.489999771118164
313.3399963378906 414.8800048828125 9.300000190734863
313.7799987792969 413.260009765625 9.579999923706055
313.2300109863281 415.4700012207031 9.220000267028809
313.9100036621094 412.6700134277344 9.590000152587891
314.2000122070312 411.5499877929688 9.630000114440918
314.4800109863281 410.3399963378906 9.729999542236328
315.0199890136719 408.1099853515625 9.960000038146973
315.3099975585938 406.9500122070312 10.02999973297119
314.75 409.2099914550781 9.859999656677246
315.9700012207031 407.4599914550781 10.27000045776367
315.5599975585938 409.1000061035156 10.14999961853027
316.1199951171875 406.8599853515625 10.32999992370605
315.2900085449219 410.1900024414062 10.05000019073486
314.5899963378906 413.0199890136719 9.850000381469727
315.7200012207031 408.5599975585938 10.17000007629395
315.4100036621094 409.6900024414062 10.07999992370605
315.8599853515625 408.0499877929688 10.25
314.0400085449219 415.3699951171875 9.520000457763672
314.8599853515625 411.9299926757812 9.890000343322754
314.760009765625 412.5 9.880000114440918
315.1799926757812 410.8200073242188 9.979999542236328
313.75 416.5400085449219 9.420000076293945
314.3200073242188 414.2099914550781 9.619999885559082
315.010009765625 411.3599853515625 10.01000022888184
313.8900146484375 415.9100036621094 9.430000305175781
313.3200073242188 418.1499938964844 9.260000228881836
312.9200134277344 419.8399963378906 9.119999885559082
313.0700073242188 419.2999877929688 9.149999618530273
313.1700134277344 418.7200012207031 9.149999618530273
313.4700012207031 417.6099853515625 9.319999694824219
314.1499938964844 414.760009765625 9.520000457763672
314.4500122070312 413.5899963378906 9.770000457763672
313.5899963378906 417.0499877929688 9.399999618530273
316.6199951171875 407.760009765625 10.48999977111816
316.9100036621094 406.5700073242188 10.5600004196167
316.2000122070312 409.4400024414062 10.34000015258789
315.9299926757812 410.5299987792969 10.21000003814697
316.7900085449219 407.1499938964844 10.48999977111816
315.25 413.4100036621094 9.989999771118164
315.7900085449219 411.1099853515625 10.1899995803833
315.489990234375 412.2999877929688 10.09000015258789
315.6199951171875 411.75 10.14999961853027
316.4800109863281 408.2999877929688 10.39999961853027
314.0899963378906 417.8999938964844 9.5
316.0499877929688 410.0199890136719 10.27999973297119
316.3800048828125 408.7900085449219 10.36999988555908
313.9400024414062 418.5199890136719 9.460000038146973
314.3800048828125 416.75 9.569999694824219
315.3699951171875 412.8599853515625 10.02000045776367
313.5499877929688 420.1900024414062 9.329999923706055
314.7000122070312 415.6300048828125 9.649999618530273
313.6600036621094 419.6600036621094 9.399999618530273
313.25 421.3399963378906 9.25
314.2300109863281 417.3299865722656 9.529999732971191
315.1099853515625 413.989990234375 9.979999542236328
313.010009765625 422.4500122070312 9.109999656677246
313.3699951171875 420.8399963378906 9.289999961853027
314.7900085449219 415.0700073242188 9.710000038146973
313.1300048828125 421.9100036621094 9.180000305175781
313.8399963378906 419.0299987792969 9.430000305175781
314.510009765625 416.2300109863281 9.600000381469727
314.9700012207031 414.510009765625 9.770000457763672
317.0599975585938 408.6199951171875 10.64000034332275
316.8200073242188 409.760009765625 10.60999965667725
317.3299865722656 407.5199890136719 10.72999954223633
316.2200012207031 412 10.35000038146973
315.7999877929688 413.6700134277344 10.18000030517578
315.510009765625 414.8099975585938 9.939999580383301
316.9200134277344 409.1499938964844 10.59000015258789
317.1900024414062 408.0700073242188 10.68000030517578
315.1099853515625 416.5899963378906 9.760000228881836
316.0799865722656 412.5599975585938 10.3100004196167
315.6499938964844 414.260009765625 10.05000019073486
315.2300109863281 415.9500122070312 9.840000152587891
314.5400085449219 418.760009765625 9.630000114440918
314.8399963378906 417.6799926757812 9.680000305175781
314.6700134277344 418.2200012207031 9.649999618530273
315.3599853515625 415.4100036621094 9.869999885559082
313.7000122070312 422.1600036621094 9.420000076293945
314.260009765625 419.8900146484375 9.529999732971191
313.9599914550781 421.0599975585938 9.479999542236328
315.9800109863281 413.1099853515625 10.27999973297119
313.8299865722656 421.5899963378906 9.470000267028809
316.6700134277344 410.25 10.44999980926514
316.5199890136719 410.8500061035156 10.5
314.1400146484375 420.489990234375 9.5
314.3900146484375 419.3200073242188 9.590000152587891
316.3999938964844 411.4100036621094 10.39000034332275
314.9500122070312 417.1000061035156 9.760000228881836
317.489990234375 406.8800048828125 10.8100004196167
317.260009765625 410.6300048828125 10.68000030517578
317.8399963378906 408.3399963378906 10.76000022888184
317.3900146484375 410.1000061035156 10.73999977111816
316.8399963378906 412.3900146484375 10.61999988555908
316.5400085449219 413.5199890136719 10.46000003814697
318.0899963378906 407.2099914550781 10.60000038146973
316.9599914550781 411.8299865722656 10.59000015258789
317.5700073242188 409.5199890136719 10.80000019073486
316.1400146484375 415.1600036621094 10.14000034332275
316.2900085449219 414.5899963378906 10.17000007629395
315.4400024414062 417.989990234375 9.909999847412109
316.6700134277344 412.9800109863281 10.5
316.4100036621094 414.0499877929688 10.4399995803833
314.989990234375 419.739990234375 9.720000267028809
315.7000122070312 416.8599853515625 9.970000267028809
315.9800109863281 415.739990234375 10.02999973297119
315.8399963378906 416.3099975585938 9.989999771118164
318.25 406.7000122070312 10.60000038146973
314.5799865722656 421.4299926757812 9.640000343322754
315.6000061035156 417.4100036621094 9.899999618530273
314.8599853515625 420.2799987792969 9.720000267028809
315.2999877929688 418.5899963378906 9.840000152587891
317.9700012207031 407.8399963378906 10.64999961853027
315.1600036621094 419.1300048828125 9.840000152587891
317.6700134277344 408.9500122070312 10.73999977111816
314.6900024414062 420.9200134277344 9.659999847412109
314.4299926757812 422.010009765625 9.640000343322754
317.1300048828125 411.2300109863281 10.63000011444092
317.510009765625 412.7099914550781 10.77999973297119
316.9400024414062 414.9700012207031 10.34000015258789
317.260009765625 413.8299865722656 10.75
316.8299865722656 415.5299987792969 10.32999992370605
317.3900146484375 413.2200012207031 10.73999977111816
315.8500061035156 419.510009765625 9.939999580383301
316.1199951171875 418.3500061035156 10.10000038146973
315.1600036621094 422.3200073242188 9.770000457763672
316.3699951171875 417.260009765625 10.11999988555908
316.6799926757812 416.1600036621094 10.22000026702881
315.7099914550781 420.0199890136719 9.930000305175781
315.5700073242188 420.6700134277344 9.909999847412109
315.260009765625 421.75 9.850000381469727
316.2300109863281 417.8099975585938 10.14999961853027
317.0799865722656 414.4200134277344 10.44999980926514
316.5299987792969 416.7099914550781 10.18000030517578
315.9700012207031 418.8800048828125 10.0600004196167
315.4100036621094 421.1600036621094 9.869999885559082
318.7699890136719 407.6199951171875 10.39000034332275
318.2000122070312 409.8399963378906 10.60000038146973
318.6000061035156 408.1900024414062 10.40999984741211
318.3599853515625 409.3299865722656 10.5
318.1000061035156 410.4299926757812 10.64000034332275
317.7900085449219 411.5599975585938 10.71000003814697
318.8999938964844 407.0199890136719 10.32999992370605
317.6499938964844 412.1300048828125 10.72000026702881
318.489990234375 408.7300109863281 10.47000026702881
317.9299926757812 410.9700012207031 10.68000030517578
319.2099914550781 408.4200134277344 10.22999954223633
319.6099853515625 406.760009765625 10.07999992370605
318.9500122070312 409.5799865722656 10.27999973297119
319.4800109863281 407.2999877929688 10.1899995803833
318.8099975585938 410.2200012207031 10.40999984741211
317.8599853515625 414.1900024414062 10.6899995803833
318.3999938964844 411.9400024414062 10.51000022888184
318.5299987792969 411.3399963378906 10.46000003814697
317.5799865722656 415.3099975585938 10.51000022888184
317.2900085449219 416.4299926757812 10.4399995803833
317.989990234375 413.6499938964844 10.64999961853027
317.7200012207031 414.739990234375 10.48999977111816
316.7300109863281 418.7300109863281 10.27999973297119
318.6600036621094 410.7200012207031 10.42000007629395
318.1000061035156 413.0599975585938 10.64000034332275
319.3299865722656 407.9299926757812 10.22999954223633
316.4200134277344 419.8299865722656 10.15999984741211
317.3999938964844 415.8800048828125 10.47000026702881
315.9800109863281 421.6099853515625 10.05000019073486
319.0700073242188 409 10.31999969482422
316.8699951171875 418.1499938964844 10.25
316.1300048828125 421.010009765625 10.06999969482422
318.239990234375 412.5199890136719 10.55000019073486
317.0199890136719 417.510009765625 10.3100004196167
316.2699890136719 420.4500122070312 10.10999965667725
315.8599853515625 422.1000061035156 9.979999542236328
317.1600036621094 417.010009765625 10.39000034332275
316.5899963378906 419.2900085449219 10.23999977111816
317.4400024414062 418.5400085449219 10.47000026702881
317.7000122070312 417.4100036621094 10.46000003814697
316.8500061035156 420.7799987792969 10.3100004196167
317.0199890136719 420.1700134277344 10.30000019073486
316.739990234375 421.3299865722656 10.22000026702881
316.4400024414062 422.4500122070312 10.22000026702881
317.1600036621094 419.6700134277344 10.39999961853027
316.6000061035156 421.8800048828125 10.21000003814697
317.5499877929688 417.9500122070312 10.48999977111816
317.7999877929688 416.8699951171875 10.39999961853027
317.2799987792969 419.0299987792969 10.4399995803833
320.1600036621094 407.1099853515625 9.960000038146973
319.8800048828125 408.2999877929688 10.06999969482422
319.1900024414062 411.1099853515625 10.1899995803833
319.4800109863281 409.9400024414062 10.18000030517578
319.6099853515625 409.4100036621094 10.10000038146973
319.0899963378906 411.6700134277344 10.30000019073486
318.1300048828125 415.6799926757812 10.30000019073486
318.6700134277344 413.3299865722656 10.4399995803833
318.510009765625 413.9700012207031 10.43000030517578
318.260009765625 415.0799865722656 10.3100004196167
317.9800109863281 416.2900085449219 10.35999965667725
318.9200134277344 412.260009765625 10.34000015258789
318.8299865722656 412.8299865722656 10.39999961853027
320.0499877929688 407.7200012207031 9.970000267028809
318.3699951171875 414.510009765625 10.28999996185303
319.739990234375 408.8699951171875 10.05000019073486
319.3599853515625 410.510009765625 10.14999961853027
320.8999938964844 406.9100036621094 9.720000267028809
320.75 407.4800109863281 9.729999542236328
320.2000122070312 409.7799987792969 9.909999847412109
320.3299865722656 409.1900024414062 9.829999923706055
320.0599975585938 410.3599853515625 9.960000038146973
319.9100036621094 410.9500122070312 10.02000045776367
319.5199890136719 412.6900024414062 10.14000034332275
320.4700012207031 408.6199951171875 9.819999694824219
319.7900085449219 411.5 10.07999992370605
319.0899963378906 414.3399963378906 10.03999996185303
319.25 413.7900085449219 10.22999954223633
319.3900146484375 413.2900085449219 10.22000026702881
318.9599914550781 414.8800048828125 10.09000015258789
318.4299926757812 417.1700134277344 10.23999977111816
319.6199951171875 412.1499938964844 10.10000038146973
318.6900024414062 416.0199890136719 10.17000007629395
318.5599975585938 416.6400146484375 10.22000026702881
318.7999877929688 415.510009765625 10.10000038146973
320.6300048828125 408.0599975585938 9.829999923706055
317.7300109863281 420.0700073242188 10.35999965667725
317.5700073242188 420.6700134277344 10.44999980926514
317.4299926757812 421.25 10.47000026702881
318.1700134277344 418.3299865722656 10.3100004196167
318.0199890136719 418.9599914550781 10.35000038146973
317.1499938964844 422.3699951171875 10.43000030517578
318.2699890136719 417.739990234375 10.22999954223633
317.8599853515625 419.4599914550781 10.36999988555908
317.3200073242188 421.7799987792969 10.4399995803833
321.5400085449219 407.260009765625 9.510000228881836
321.3900146484375 407.8500061035156 9.479999542236328
321.1499938964844 409.0400085449219 9.640000343322754
321.010009765625 409.5499877929688 9.630000114440918
321.760009765625 406.0299987792969 7.869999885559082
320.2900085449219 412.4299926757812 9.909999847412109
320.8800048828125 410.1199951171875 9.640000343322754
320.0299987792969 413.5400085449219 10.01000022888184
320.7300109863281 410.6300048828125 9.779999732971191
319.4599914550781 415.8500061035156 9.930000305175781
319.0799865722656 417.5299987792969 10.05000019073486
319.7799987792969 414.7000122070312 9.840000152587891
320.4700012207031 411.7900085449219 9.800000190734863
319.1799926757812 417 10.02000045776367
319.6199951171875 415.2099914550781 9.859999656677246
319.8999938964844 414.0799865722656 10.02999973297119
318.6900024414062 419.2300109863281 10.11999988555908
319.3200073242188 416.4400024414062 9.979999542236328
318.5400085449219 419.7799987792969 10.14000034332275
321.260009765625 408.4400024414062 9.600000381469727
320.6099853515625 411.2900085449219 9.789999961853027
320.1600036621094 412.9500122070312 9.880000114440918
318.1000061035156 421.489990234375 10.30000019073486
321.7000122070312 406.6700134277344 9.399999618530273
318.8099975585938 418.6400146484375 10.11999988555908
318.9100036621094 418.1400146484375 10.0600004196167
318.010009765625 422.0499877929688 10.32999992370605
318.3800048828125 420.3500061035156 10.1899995803833
318.239990234375 420.9299926757812 10.19999980926514
320.8800048828125 412.6799926757812 9.729999542236328
320.3500061035156 414.8800048828125 9.649999618530273
321.2900085449219 410.9400024414062 9.590000152587891
320.989990234375 412.1300048828125 9.600000381469727
320.0799865722656 416.0700073242188 9.770000457763672
320.4500122070312 414.3800048828125 9.699999809265137
319.6600036621094 417.75 9.819999694824219
320.2099914550781 415.5199890136719 9.659999847412109
320.6000061035156 413.7900085449219 9.800000190734863
319.5 418.3200073242188 9.859999656677246
320.7200012207031 413.2699890136719 9.710000038146973
319.2200012207031 419.4800109863281 9.949999809265137
319.8900146484375 416.6600036621094 9.779999732971191
318.9700012207031 420.6799926757812 9.989999771118164
318.7799987792969 421.2799987792969 10.01000022888184
319.3699951171875 418.9299926757812 9.939999580383301
319.0599975585938 420.1099853515625 9.930000305175781
319.7900085449219 417.1600036621094 9.800000190734863
321.1400146484375 411.5 9.579999923706055
322.3500061035156 406.3200073242188 8.319999694824219
321.5499877929688 409.7900085449219 9.409999847412109
322.0799865722656 407.3900146484375 7.650000095367432
322.1000061035156 407.5199890136719 9.359999656677246
321.9599914550781 408.0799865722656 9.340000152587891
321.4400024414062 410.3399963378906 9.430000305175781
321.739990234375 409.1900024414062 9.420000076293945
321.8299865722656 408.6300048828125 9.369999885559082
322.8099975585938 406.510009765625 7.119999885559082
322.4400024414062 408.4599914550781 9.310000419616699
322.9700012207031 406.0899963378906 8.340000152587891
322.1700134277344 409.5700073242188 9.340000152587891
322.8500061035156 406.5899963378906 8.470000267028809
322.0400085449219 410.1199951171875 9.359999656677246
322.3399963378906 408.9800109863281 9.359999656677246
321.9100036621094 410.6400146484375 9.350000381469727
321.5299987792969 412.3999938964844 9.470000267028809
322.5899963378906 407.8399963378906 9.300000190734863
320.9400024414062 414.6600036621094 9.470000267028809
320.5499877929688 416.4299926757812 9.640000343322754
321.760009765625 411.239990234375 9.380000114440918
320.1000061035156 418.1099853515625 9.689999580383301
322.7000122070312 407.1700134277344 7.380000114440918
320.2699890136719 417.5700073242188 9.640000343322754
320.3800048828125 417 9.649999618530273
319.8399963378906 419.2099914550781 9.729999542236328
321.3599853515625 412.9200134277344 9.510000228881836
320.8399963378906 415.239990234375 9.520000457763672
321.6199951171875 411.8099975585938 9.399999618530273
320.6600036621094 415.7900085449219 9.539999961853027
321.1000061035156 414.0799865722656 9.640000343322754
321.2200012207031 413.489990234375 9.529999732971191
319.7300109863281 419.8099975585938 9.729999542236328
319.5599975585938 420.3399963378906 9.720000267028809
319.9800109863281 418.6600036621094 9.720000267028809
322.7300109863281 407.2300109863281 8.659999847412109
322.8800048828125 409.3299865722656 9.229999542236328
323.4100036621094 407.0499877929688 8.560000419616699
323.3099975585938 407.6400146484375 9.170000076293945
323.1300048828125 408.2200012207031 9.239999771118164
322.3200073242188 411.6600036621094 9.319999694824219
323.6600036621094 405.8800048828125 8.350000381469727
322.7300109863281 409.9100036621094 9.289999961853027
323.0199890136719 408.75 9.289999961853027
321.9100036621094 413.3999938964844 9.359999656677246
323.5199890136719 406.4500122070312 8.420000076293945
321.4800109863281 415.0400085449219 9.340000152587891
321.6099853515625 414.4599914550781 9.340000152587891
321.3599853515625 415.6000061035156 9.409999847412109
322.1900024414062 412.260009765625 9.350000381469727
322.4700012207031 411.0499877929688 9.289999961853027
320.510009765625 419.0400085449219 9.569999694824219
322.010009765625 412.8299865722656 9.369999885559082
320.7900085449219 417.8699951171875 9.460000038146973
320.6499938964844 418.4700012207031 9.5
320.3900146484375 419.6000061035156 9.590000152587891
321.760009765625 413.9500122070312 9.369999885559082
320.25 420.1900024414062 9.569999694824219
322.5700073242188 410.5400085449219 9.329999923706055
321.2300109863281 416.2000122070312 9.390000343322754
320.9100036621094 417.3500061035156 9.430000305175781
321.0599975585938 416.760009765625 9.380000114440918
320.8900146484375 420.5700073242188 9.380000114440918
324.2200012207031 406.8500061035156 8.550000190734863
323.3800048828125 410.3299865722656 9.229999542236328
323.5199890136719 409.7699890136719 9.199999809265137
323.239990234375 410.8999938964844 9.239999771118164
323.1099853515625 411.4500122070312 9.25
322.8200073242188 412.6199951171875 9.270000457763672
322.6900024414062 413.1600036621094 9.300000190734863
323.6799926757812 409.239990234375 9.149999618530273
322.1900024414062 414.7300109863281 6.789999961853027
322.1600036621094 415.4700012207031 9.149999618530273
322.9700012207031 412.0199890136719 9.229999542236328
321.4400024414062 418.3099975585938 9.260000228881836
322.4500122070312 414.3399963378906 9.350000381469727
321.2099914550781 419.4299926757812 9.329999923706055
322.0499877929688 415.3099975585938 6.809999942779541
321.8699951171875 416.6499938964844 9.149999618530273
323.9599914550781 408.0799865722656 9.130000114440918
322.5499877929688 413.7200012207031 9.319999694824219
324.0499877929688 407.5 8.920000076293945
321.2999877929688 418.8699951171875 9.279999732971191
321.7000122070312 417.2300109863281 9.229999542236328
322.3299865722656 414.1600036621094 6.789999961853027
321.5899963378906 417.7799987792969 9.220000267028809
321.989990234375 416.0199890136719 9.130000114440918
323.7999877929688 408.6799926757812 9.149999618530273
324.3399963378906 406.2999877929688 8.430000305175781
321.0599975585938 420.0499877929688 9.380000114440918
322.1600036621094 418.0499877929688 9.170000076293945
322.3399963378906 417.5 9.149999618530273
321.8900146484375 419.2000122070312 9.140000343322754
321.75 419.760009765625 9.159999847412109
322.0199890136719 418.6300048828125 9.119999885559082
321.6400146484375 420.3800048828125 9.189999580383301
324.7300109863281 407.1499938964844 7.269999980926514
324.9200134277344 406.6099853515625 8.479999542236328
323.9700012207031 410.6600036621094 9.180000305175781
324.6600036621094 407.8099975585938 9.079999923706055
324.3900146484375 408.9299926757812 9.090000152587891
325.0700073242188 406.0499877929688 8.329999923706055
324.1300048828125 410.0599975585938 9.180000305175781
323.8599853515625 411.260009765625 9.220000267028809
322.9500122070312 414.5400085449219 6.800000190734863
324.25 409.510009765625 9.119999885559082
322.4299926757812 416.9400024414062 9.109999656677246
323.1600036621094 414.0899963378906 9.279999732971191
322.7999877929688 415.0599975585938 6.760000228881836
323.3999938964844 413 9.229999542236328
322.6199951171875 416.3599853515625 9.130000114440918
323.6900024414062 411.8099975585938 9.220000267028809
323.5400085449219 412.4299926757812 9.229999542236328
323.2900085449219 413.5499877929688 9.220000267028809
324.5199890136719 408.3800048828125 9.090000152587891
322.7099914550781 415.8099975585938 9.090000152587891
324.8099975585938 407.239990234375 8.619999885559082
325.3299865722656 407.5499877929688 8.909999847412109
324.3699951171875 411.5499877929688 9.130000114440918
324.0599975585938 412.7099914550781 9.159999847412109
324.6199951171875 410.3900146484375 9.109999656677246
324.9200134277344 409.3299865722656 9.050000190734863
324.239990234375 412.0799865722656 9.109999656677246
324.760009765625 409.8399963378906 9.100000381469727
323.9299926757812 413.239990234375 9.159999847412109
323.2900085449219 415.3999938964844 6.769999980926514
323.6900024414062 414.3900146484375 9.170000076293945
325.0299987792969 408.7200012207031 9.039999961853027
325.1600036621094 408.1799926757812 9
323.1199951171875 416.7200012207031 9.130000114440918
323.2200012207031 416.1400146484375 9.090000152587891
322.8500061035156 417.8500061035156 9.100000381469727
322.7000122070312 418.3900146484375 9.119999885559082
323.6000061035156 414.239990234375 6.769999980926514
322.2999877929688 420.0899963378906 9.159999847412109
323.7999877929688 413.7799987792969 9.189999580383301
323.3800048828125 415.5 9.109999656677246
323.4599914550781 414.8599853515625 6.75
322.4100036621094 419.489990234375 9.069999694824219
322.5499877929688 418.9200134277344 9.140000343322754
322.9599914550781 417.2900085449219 9.130000114440918
324.489990234375 410.9700012207031 9.149999618530273
325.8800048828125 407.9299926757812 8.850000381469727
325.739990234375 408.510009765625 8.970000267028809
325.1600036621094 410.8200073242188 9.020000457763672
325.6099853515625 409.0799865722656 9
325.0299987792969 411.3699951171875 9.039999961853027
324.5 413.7300109863281 9.140000343322754
325.3399963378906 410.25 9.029999732971191
324.260009765625 414.1099853515625 6.820000171661377
324.739990234375 412.5799865722656 9.100000381469727
323.2300109863281 418.7799987792969 9.109999656677246
323.3800048828125 418.1799926757812 9.119999885559082
323.989990234375 415.1900024414062 6.800000190734863
324.6099853515625 413.1199951171875 9.130000114440918
325.4800109863281 409.6199951171875 8.970000267028809
323.5499877929688 417.6199951171875 9.090000152587891
323.6700134277344 417.1099853515625 9.140000343322754
323.9400024414062 415.9299926757812 9.060000419616699
323.0799865722656 419.3900146484375 9.119999885559082
323.7900085449219 416.4599914550781 9.050000190734863
324.3599853515625 414.2300109863281 9.130000114440918
324.8900146484375 411.9599914550781 9.090000152587891
325.2799987792969 413.4599914550781 9.029999732971191
325.6700134277344 411.7699890136719 8.989999771118164
325.1600036621094 414.0499877929688 9.090000152587891
324.9100036621094 414.4599914550781 6.789999961853027
324.6900024414062 415.7000122070312 7.650000095367432
325 414.5899963378906 8.949999809265137
325.9299926757812 410.6600036621094 8.909999847412109
324.0899963378906 417.989990234375 7.739999771118164
324.3900146484375 416.8500061035156 7.639999866485596
324.7699890136719 415.0799865722656 6.78000020980835
324.1700134277344 418.0899963378906 9.069999694824219
325.5599975585938 412.3099975585938 8.989999771118164
325.3900146484375 412.9299926757812 9.020000457763672
325.8399963378906 411.1900024414062 8.909999847412109
324 418.6199951171875 9.029999732971191
324.2099914550781 417.489990234375 7.679999828338623
323.9700012207031 418.5599975585938 7.659999847412109
324.510009765625 416.260009765625 7.639999866485596
325.9800109863281 413.3399963378906 8.909999847412109
325.8299865722656 413.8900146484375 9
324.7099914550781 418.2900085449219 7.610000133514404
324.5400085449219 418.8800048828125 7.630000114440918
325.3699951171875 415.489990234375 7.659999847412109
324.8399963378906 417.75 7.590000152587891
325.7200012207031 414.4400024414062 8.960000038146973
324.1799926757812 420 6.880000114440918
324.6300048828125 418.0400085449219 7.619999885559082
325.0700073242188 416.3999938964844 7.059999942779541
325.25 415.5799865722656 7.71999979019165
324.8099975585938 417.4800109863281 7.619999885559082
325.3900146484375 415.0199890136719 7.659999847412109
325.5899963378906 414.0400085449219 9.010000228881836
325.8999938964844 412.9400024414062 8.949999809265137
325.7300109863281 413.489990234375 8.989999771118164
324.9400024414062 416.8299865722656 7.429999828338623
324.5 418.6099853515625 7.639999866485596
323.1400146484375 421.6300048828125 9.140000343322754
322.9800109863281 422.2900085449219 9.140000343322754
323.2999877929688 421.0299987792969 9.109999656677246
323.9100036621094 418.6300048828125 9.039999961853027
324.0400085449219 418.3399963378906 7.690000057220459
323.75 419.239990234375 9.100000381469727
324.760009765625 415.5899963378906 7
324.5 416.6799926757812 7.670000076293945
324.0499877929688 418.0499877929688 9.050000190734863
323.9100036621094 418.9200134277344 7.630000114440918
325.5799865722656 412.1400146484375 8.989999771118164
324.9500122070312 414.5400085449219 9.010000228881836
324.1799926757812 417.7799987792969 7.670000076293945
325.7200012207031 411.5799865722656 8.960000038146973
323.6199951171875 419.8200073242188 9.140000343322754
325.3900146484375 412.7699890136719 9.020000457763672
325.8599853515625 410.9599914550781 8.949999809265137
324.9400024414062 415.0400085449219 6.730000019073486
323.4800109863281 420.4599914550781 9.119999885559082
324.3599853515625 417.2300109863281 7.650000095367432
325.2799987792969 413.3900146484375 9.060000419616699
325.1000061035156 413.9299926757812 9.090000152587891
322.6600036621094 421.2999877929688 9.109999656677246
323.5599975585938 417.7699890136719 9.090000152587891
322.3699951171875 422.4200134277344 9.159999847412109
322.7900085449219 420.7000122070312 9.090000152587891
322.9700012207031 420.1300048828125 9.140000343322754
323.3999938964844 418.2999877929688 9.189999580383301
323.8200073242188 416.8599853515625 7.670000076293945
323.25 418.9100036621094 9.140000343322754
324 416.3299865722656 7.579999923706055
323.8699951171875 416.5299987792969 9.130000114440918
323.7200012207031 417.1400146484375 9.090000152587891
322.489990234375 421.8599853515625 9.189999580383301
324.6199951171875 413.510009765625 9.109999656677246
324.1300048828125 415.6700134277344 7.630000114440918
325.0599975585938 411.8299865722656 9.069999694824219
324.2699890136719 415.239990234375 6.769999980926514
323.1099853515625 419.510009765625 9.119999885559082
325.2300109863281 411.1900024414062 9.050000190734863
324.0299987792969 415.989990234375 8.970000267028809
324.4700012207031 414.1000061035156 9.130000114440918
325.3399963378906 410.6600036621094 9.020000457763672
324.9299926757812 412.4100036621094 9.109999656677246
325.6499938964844 409.4700012207031 8.979999542236328
324.75 412.9800109863281 9.090000152587891
325.7999877929688 408.8900146484375 8.920000076293945
325.510009765625 410.0299987792969 8.979999542236328
322.3299865722656 419.7999877929688 9.100000381469727
322.1499938964844 420.4200134277344 9.149999618530273
322.5 419.1499938964844 9.090000152587891
322.8099975585938 417.989990234375 9.159999847412109
323.0899963378906 416.8200073242188 9.060000419616699
322.8999938964844 417.4500122070312 9.050000190734863
321.8599853515625 421.5700073242188 9.170000076293945
323.5 415.6099853515625 6.860000133514404
324.1400146484375 412.7099914550781 9.140000343322754
323.6700134277344 414.3800048828125 9.300000190734863
322.6199951171875 418.5700073242188 9.199999809265137
323.7999877929688 413.8800048828125 9.189999580383301
323.6199951171875 414.989990234375 6.75
324.8800048828125 409.6600036621094 9.050000190734863
324.2999877929688 412.0400085449219 9.159999847412109
325.1700134277344 408.5400085449219 9.010000228881836
323.9599914550781 413.2799987792969 9.170000076293945
325.0199890136719 409.1199951171875 9.029999732971191
324.5700073242188 410.8699951171875 9.100000381469727
324.7099914550781 410.3099975585938 9.100000381469727
322.0299987792969 420.9800109863281 9.119999885559082
323.3900146484375 415.6300048828125 9.109999656677246
325.4800109863281 407.4400024414062 8.689999580383301
323.239990234375 416.2799987792969 9.199999809265137
324.4400024414062 411.5299987792969 9.090000152587891
325.3099975585938 407.9599914550781 9.020000457763672
321.3099975585938 421.2799987792969 9.270000457763672
321.4599914550781 420.7200012207031 9.25
322.2000122070312 417.7699890136719 9.189999580383301
322.6799926757812 415.9800109863281 9.119999885559082
322.9299926757812 415.2799987792969 6.800000190734863
323.1700134277344 414.1199951171875 9.289999961853027
322.0499877929688 418.3900146484375 9.140000343322754
321.9299926757812 418.9299926757812 9.109999656677246
321.6000061035156 420.1400146484375 9.220000267028809
323.6000061035156 412.4299926757812 9.25
323.4200134277344 412.9800109863281 9.210000038146973
322.3900146484375 417.2099914550781 9.090000152587891
321.75 419.5700073242188 9.170000076293945
322.5199890136719 416.5400085449219 9.159999847412109
323.75 411.8399963378906 9.159999847412109
324.4500122070312 408.9299926757812 9.069999694824219
322.7900085449219 415.6700134277344 7.809999942779541
324.6199951171875 408.2900085449219 9.069999694824219
323.2999877929688 413.5199890136719 9.279999732971191
324.3500061035156 409.5 9.109999656677246
324.9100036621094 407.1700134277344 8.699999809265137
324.7999877929688 407.7099914550781 9.020000457763672
324.1600036621094 410.0799865722656 9.100000381469727
324.7300109863281 408.1799926757812 6.820000171661377
324.0400085449219 410.6499938964844 9.130000114440918
323.8599853515625 411.239990234375 9.170000076293945
322.8399963378906 415.3800048828125 9.100000381469727
325.0499877929688 406.6400146484375 8.470000267028809
324.9299926757812 407.4400024414062 7.619999885559082
