436.6700134277344 393.489990234375 10.03999996185303
437.3900146484375 393.2999877929688 9.680000305175781
434.3299865722656 394.0199890136719 11.21000003814697
435.8399963378906 393.6900024414062 10.43000030517578
430.4100036621094 394.989990234375 11.76000022888184
426.3099975585938 396.0599975585938 10.77000045776367
432.2200012207031 394.5599975585938 12.07999992370605
435.1199951171875 393.8399963378906 10.82999992370605
432.8800048828125 394.3900146484375 11.9399995803833
431.6199951171875 394.7300109863281 12.1899995803833
426.9299926757812 396.5199890136719 10.60000038146973
427.5599975585938 396.3599853515625 10.69999980926514
428.1499938964844 396.2200012207031 10.73999977111816
429.239990234375 395.9500122070312 11.13000011444092
430.2900085449219 395.6700134277344 11.71000003814697
429.7799987792969 395.8099975585938 11.39999961853027
432.7000122070312 395.1099853515625 12.05000019073486
431.3900146484375 395.3900146484375 12.22999954223633
430.8399963378906 395.5499877929688 11.9399995803833
434.260009765625 394.6900024414062 11.27000045776367
433.510009765625 394.9100036621094 11.65999984741211
435.7799987792969 394.3299865722656 10.46000003814697
428.7099914550781 396.0700073242188 10.89999961853027
431.989990234375 395.25 12.35000038146973
437.9400024414062 393.8299865722656 9.779999732971191
437.2900085449219 393.9700012207031 9.819999694824219
426.2999877929688 396.6900024414062 10.52999973297119
436.5899963378906 394.1300048828125 10.03999996185303
435.0199890136719 394.5299987792969 10.85000038146973
425.7200012207031 396.8800048828125 6.420000076293945
425.1799926757812 396.9700012207031 10.1899995803833
425.6499938964844 396.8500061035156 8.689999580383301
425.6799926757812 396.8200073242188 10.40999984741211
425.8699951171875 396.8200073242188 7.989999771118164
426.4400024414062 396.7200012207031 6.210000038146973
425.2099914550781 397.6600036621094 8.130000114440918
425.5700073242188 397.6099853515625 7.050000190734863
428.6400146484375 396.7699890136719 10.85999965667725
426.3900146484375 397.3299865722656 10.22000026702881
429.760009765625 396.489990234375 11.40999984741211
427.6000061035156 397.0599975585938 10.36999988555908
427.010009765625 397.2200012207031 10.27999973297119
430.8500061035156 396.2099914550781 11.94999980926514
424.9400024414062 397.739990234375 6.96999979019165
434.9299926757812 395.2099914550781 10.89000034332275
425.760009765625 397.5199890136719 8.220000267028809
425.7799987792969 397.5 10.10999965667725
432.0599975585938 395.9400024414062 12.35999965667725
433.489990234375 395.5599975585938 11.63000011444092
428.1400146484375 396.8900146484375 10.60999965667725
432.8099975585938 395.75 11.97000026702881
438.3800048828125 394.3599853515625 10.09000015258789
429.2099914550781 396.6400146484375 11.11999988555908
434.2200012207031 395.3999938964844 11.26000022888184
437.1499938964844 394.6700134277344 10.14999961853027
431.4500122070312 396.0799865722656 12.25
430.3299865722656 396.3399963378906 11.71000003814697
436.4400024414062 394.8500061035156 10.23999977111816
437.760009765625 394.5499877929688 10.13000011444092
435.75 395.010009765625 10.51000022888184
425.8699951171875 398.1199951171875 9.829999923706055
427.0499877929688 397.8200073242188 10.02000045776367
426.0400085449219 398.1300048828125 7.130000114440918
429.25 397.2900085449219 11.11999988555908
425.0799865722656 398.3399963378906 8.220000267028809
430.260009765625 397.0299987792969 11.65999984741211
428.2200012207031 397.5599975585938 10.57999992370605
429.7099914550781 397.1499938964844 11.39999961853027
424.8800048828125 398.4400024414062 7.03000020980835
428.6900024414062 397.3999938964844 10.88000011444092
431.3599853515625 396.7300109863281 12.18000030517578
426.4299926757812 397.9800109863281 9.909999847412109
427.6099853515625 397.6900024414062 10.3100004196167
432.6900024414062 396.4299926757812 12.0600004196167
433.3800048828125 396.2300109863281 11.68000030517578
436.3299865722656 395.510009765625 10.56999969482422
430.8500061035156 396.8900146484375 11.93000030517578
434.2000122070312 396.0700073242188 11.32999992370605
435.6700134277344 395.6799926757812 10.68000030517578
437.7000122070312 395.1799926757812 10.39000034332275
431.8999938964844 396.6099853515625 12.39000034332275
425.4200134277344 398.2799987792969 7.099999904632568
437.0400085449219 395.3299865722656 10.52999973297119
434.9299926757812 395.8500061035156 10.93000030517578
438.3599853515625 395.0400085449219 10.35999965667725
429.1000061035156 397.8800048828125 11.03999996185303
429.6900024414062 397.7300109863281 11.31999969482422
430.2300109863281 397.5899963378906 11.63000011444092
431.3200073242188 397.3500061035156 12.21000003814697
432.6799926757812 397.010009765625 12.0600004196167
434.1000061035156 396.6300048828125 11.31999969482422
438.1099853515625 395.6400146484375 10.52999973297119
436.1300048828125 396.1499938964844 10.89999961853027
431.9100036621094 397.1600036621094 12.39000034332275
437.4400024414062 395.7999877929688 10.77000045776367
434.8200073242188 396.4400024414062 11.06999969482422
436.7699890136719 396.010009765625 10.86999988555908
435.4500122070312 396.3200073242188 10.98999977111816
433.3800048828125 396.8299865722656 11.72000026702881
430.7799987792969 397.4500122070312 11.85999965667725
425.8299865722656 398.7200012207031 9.529999732971191
427.4800109863281 398.2999877929688 10.25
426.4100036621094 398.5499877929688 9.739999771118164
428.0199890136719 398.1700134277344 10.56999969482422
425.4100036621094 398.8699951171875 7.119999885559082
428.5799865722656 398.010009765625 10.8100004196167
424.8800048828125 399 7.019999980926514
426.9500122070312 398.4400024414062 9.989999771118164
426.0700073242188 398.7099914550781 7.139999866485596
425.0899963378906 398.9299926757812 8.199999809265137
426.4400024414062 398.5799865722656 7.739999771118164
424.7000122070312 399.6700134277344 6.989999771118164
424.8999938964844 399.6300048828125 8.159999847412109
426.8299865722656 399.1300048828125 9.960000038146973
426.3599853515625 399.239990234375 9.699999809265137
425.2900085449219 399.5599975585938 7.050000190734863
430.1400146484375 398.2999877929688 11.53999996185303
425.8699951171875 399.3699951171875 7.119999885559082
430.6900024414062 398.1600036621094 11.80000019073486
431.760009765625 397.8800048828125 12.35999965667725
429.5899963378906 398.4299926757812 11.3100004196167
426.4299926757812 399.239990234375 7.429999828338623
428.5700073242188 398.6700134277344 10.78999996185303
427.4200134277344 398.9800109863281 10.22000026702881
435.4100036621094 396.9700012207031 10.81999969482422
436.6199951171875 396.6700134277344 10.98999977111816
433.2200012207031 397.510009765625 11.76000022888184
432.4800109863281 397.7099914550781 12.14000034332275
429.0899963378906 398.5700073242188 11.09000015258789
431.4500122070312 397.9500122070312 13.3100004196167
434.7300109863281 397.1300048828125 11.05000019073486
428.010009765625 398.8200073242188 10.47000026702881
433.8900146484375 397.3599853515625 11.39999961853027
436.0199890136719 396.8399963378906 10.88000011444092
431.1900024414062 397.989990234375 12.13000011444092
437.3099975585938 396.5199890136719 10.9399995803833
438.1000061035156 396.2999877929688 10.5
424.739990234375 400.3800048828125 6.96999979019165
424.9800109863281 400.3200073242188 8.180000305175781
426.5899963378906 399.9599914550781 7.130000114440918
425.9400024414062 400.0899963378906 7.099999904632568
427.9500122070312 399.5400085449219 10.47999954223633
426.2999877929688 399.9800109863281 9.670000076293945
430.6499938964844 398.8399963378906 11.85999965667725
425.3699951171875 400.2200012207031 7.110000133514404
431.1900024414062 398.7000122070312 12.10000038146973
427.4100036621094 399.7000122070312 10.21000003814697
431.4500122070312 398.6300048828125 13.3100004196167
431.7200012207031 398.5700073242188 12.42000007629395
429.510009765625 399.1600036621094 11.27000045776367
428.5 399.3999938964844 10.75
433.989990234375 398.0199890136719 11.4399995803833
430.1000061035156 399.0199890136719 11.57999992370605
435.489990234375 397.6700134277344 10.63000011444092
433.2799987792969 398.1900024414062 11.77000045776367
426.8699951171875 399.8500061035156 9.979999542236328
434.6900024414062 397.8800048828125 11.02000045776367
432.5 398.4100036621094 12.1899995803833
437.2999877929688 397.2200012207031 10.71000003814697
436.7200012207031 397.3900146484375 10.67000007629395
436.0899963378906 397.510009765625 10.57999992370605
429.0400085449219 399.2699890136719 10.98999977111816
438.0400085449219 397.0599975585938 10.59000015258789
433.9500122070312 398.7099914550781 11.44999980926514
434.6799926757812 398.5599975585938 11.03999996185303
435.5 398.3399963378906 10.64999961853027
436.2699890136719 398.1799926757812 10.31999969482422
438.1099853515625 397.6799926757812 10.52999973297119
436.8599853515625 398.0299987792969 10.35000038146973
432.4200134277344 399.1000061035156 12.22000026702881
433.2000122070312 398.9100036621094 11.77999973297119
437.4700012207031 397.8500061035156 10.39000034332275
424.9500122070312 401 8.159999847412109
425.3299865722656 400.9100036621094 7.059999942779541
429.6099853515625 399.7900085449219 11.3100004196167
426.3299865722656 400.6099853515625 9.680000305175781
428.5599975585938 400.0599975585938 10.76000022888184
427.4200134277344 400.3500061035156 10.19999980926514
426.8900146484375 400.5 9.960000038146973
429.1400146484375 399.9400024414062 11.07999992370605
430.1700134277344 399.6499938964844 11.56999969482422
424.7200012207031 401.0799865722656 6.920000076293945
430.6499938964844 399.5499877929688 11.85999965667725
426.510009765625 400.6099853515625 7.119999885559082
425.8800048828125 400.7799987792969 7.079999923706055
431.1799926757812 399.3800048828125 12.14999961853027
427.989990234375 400.1900024414062 10.52000045776367
431.760009765625 399.239990234375 12.34000015258789
424.8900146484375 401.5599975585938 8.170000076293945
426.3299865722656 401.2099914550781 9.640000343322754
427.3599853515625 400.9299926757812 10.15999984741211
426.7999877929688 401.0599975585938 9.909999847412109
424.6700134277344 401.6700134277344 7.010000228881836
430.0599975585938 400.2699890136719 11.53999996185303
425.9200134277344 401.3200073242188 7.110000133514404
431.1300048828125 399.9800109863281 12.09000015258789
428.4500122070312 400.6499938964844 10.71000003814697
430.6000061035156 400.1000061035156 11.8100004196167
433.2000122070312 399.4599914550781 11.78999996185303
429.5400085449219 400.3900146484375 11.25
425.2300109863281 401.5199890136719 7.110000133514404
433.9299926757812 399.2900085449219 11.39999961853027
428.9700012207031 400.510009765625 10.98999977111816
438.0199890136719 398.2999877929688 10.25
435.3999938964844 398.9100036621094 10.67000007629395
437.5 398.4299926757812 10.10999965667725
432.4100036621094 399.6799926757812 12.1899995803833
431.6700134277344 399.8399963378906 12.34000015258789
436.8500061035156 398.5700073242188 10.02000045776367
427.9100036621094 400.8099975585938 10.43000030517578
434.7000122070312 399.0899963378906 11.05000019073486
436.1400146484375 398.739990234375 10.31999969482422
426.5 401.1600036621094 7.119999885559082
425.7099914550781 402.0700073242188 7.099999904632568
426.3399963378906 401.8900146484375 7.130000114440918
427.7900085449219 401.489990234375 10.43000030517578
427.2999877929688 401.6600036621094 10.17000007629395
426.8999938964844 401.7699890136719 7.159999847412109
428.9299926757812 401.239990234375 10.98999977111816
431.0799865722656 400.7000122070312 12.06999969482422
431.5899963378906 400.5700073242188 12.3100004196167
429.510009765625 401.0599975585938 11.22999954223633
426.1600036621094 401.9400024414062 9.569999694824219
425.0700073242188 402.2099914550781 7.150000095367432
424.5199890136719 402.3500061035156 6.949999809265137
432.9700012207031 400.2000122070312 11.88000011444092
426.7300109863281 401.7699890136719 9.859999656677246
432.260009765625 400.3999938964844 12.28999996185303
436.7799987792969 399.2699890136719 10.01000022888184
435.2099914550781 399.6499938964844 10.77000045776367
435.989990234375 399.4599914550781 10.39000034332275
430.5199890136719 400.8200073242188 11.76000022888184
438.1000061035156 398.9800109863281 9.890000343322754
428.3599853515625 401.3399963378906 10.69999980926514
429.9800109863281 400.9700012207031 11.52000045776367
434.5 399.8500061035156 11.14999961853027
433.7799987792969 400.0199890136719 11.47999954223633
437.4800109863281 399.1000061035156 9.770000457763672
436.010009765625 400.239990234375 10.39000034332275
436.7099914550781 400.0400085449219 10.02000045776367
437.4599914550781 399.8900146484375 9.699999809265137
438.1400146484375 399.7099914550781 9.510000228881836
439.0799865722656 399.5299987792969 6.840000152587891
435.25 400.4100036621094 10.76000022888184
426.2099914550781 402.6900024414062 9.640000343322754
426.3800048828125 402.6300048828125 7.139999866485596
428.3200073242188 402.1099853515625 10.6899995803833
427.260009765625 402.4299926757812 10.17000007629395
426.7200012207031 402.5299987792969 9.859999656677246
431.5799865722656 401.2900085449219 12.26000022888184
429.4200134277344 401.8699951171875 11.21000003814697
432.1799926757812 401.1400146484375 12.28999996185303
433.7799987792969 400.7799987792969 11.47999954223633
434.5299987792969 400.5799865722656 11.09000015258789
430.9700012207031 401.4599914550781 12.03999996185303
425.0499877929688 402.9599914550781 7.170000076293945
432.9800109863281 400.9700012207031 11.89000034332275
427.7300109863281 402.2699890136719 10.36999988555908
430.4700012207031 401.6099853515625 11.77000045776367
429.9200134277344 401.7200012207031 11.4399995803833
428.8299865722656 401.9800109863281 10.93000030517578
425.7099914550781 402.8299865722656 7.110000133514404
424.3500061035156 403.8200073242188 9.229999542236328
425.0400085449219 403.7099914550781 7.159999847412109
426.1600036621094 403.3999938964844 9.539999961853027
427.1700134277344 403.0799865722656 12.15999984741211
429.9599914550781 402.4200134277344 11.47999954223633
430.5 402.2900085449219 11.73999977111816
431.5700073242188 402 12.26000022888184
432.1400146484375 401.8599853515625 12.28999996185303
433.6700134277344 401.510009765625 11.52999973297119
429.4500122070312 402.5799865722656 11.23999977111816
427.0799865722656 403.1600036621094 10.5600004196167
427.7799987792969 402.9400024414062 12.34000015258789
424.9100036621094 403.7200012207031 9.380000114440918
435.1700134277344 401.1499938964844 10.80000019073486
428.8500061035156 402.6799926757812 10.93000030517578
434.4200134277344 401.2999877929688 11.21000003814697
437.4800109863281 400.5599975585938 9.720000267028809
425.5400085449219 403.5199890136719 9.420000076293945
431.010009765625 402.1600036621094 12
436.7000122070312 400.7799987792969 10.05000019073486
426.6499938964844 403.260009765625 9.819999694824219
435.9299926757812 400.9800109863281 10.47999954223633
439 400.25 6.840000152587891
432.9500122070312 401.6600036621094 11.92000007629395
424.260009765625 404.4599914550781 9.199999809265137
424.9599914550781 404.2900085449219 7.110000133514404
424.6400146484375 404.3800048828125 8.119999885559082
425.5 404.1499938964844 9.420000076293945
428.739990234375 403.3200073242188 10.93000030517578
427.6099853515625 403.5899963378906 10.55000019073486
424.8800048828125 404.3099975585938 9.350000381469727
426.1000061035156 403.9700012207031 9.529999732971191
430.9200134277344 402.7699890136719 11.94999980926514
431.4299926757812 402.6099853515625 12.22999954223633
426.6400146484375 403.8399963378906 9.840000152587891
429.2900085449219 403.2000122070312 11.1899995803833
429.8299865722656 403.0400085449219 11.44999980926514
427.1000061035156 403.7200012207031 10.23999977111816
436.6099853515625 401.3399963378906 10.10999965667725
432.1099853515625 402.4700012207031 12.31999969482422
433.6000061035156 402.0899963378906 11.59000015258789
434.3800048828125 401.9299926757812 11.25
432.7799987792969 402.2799987792969 11.97999954223633
437.3099975585938 401.1700134277344 9.770000457763672
430.3500061035156 402.8900146484375 11.69999980926514
435.1499938964844 401.7300109863281 10.80000019073486
427.7000122070312 403.5700073242188 12.06999969482422
438.9599914550781 400.8399963378906 6.760000228881836
435.8800048828125 401.5400085449219 10.4399995803833
427.1700134277344 403.7099914550781 11.97999954223633
426.4599914550781 404.5700073242188 9.75
424.8699951171875 405.0199890136719 7.039999961853027
425.9500122070312 404.6900024414062 9.449999809265137
427.5400085449219 404.2999877929688 10.28999996185303
424.5199890136719 405.0899963378906 8.069999694824219
430.3399963378906 403.5700073242188 11.64999961853027
431.9400024414062 403.1900024414062 12.39000034332275
432.6300048828125 403 12.0600004196167
430.8500061035156 403.4599914550781 11.9399995803833
429.1900024414062 403.8599853515625 11.11999988555908
424.7000122070312 405.0199890136719 9.390000343322754
426.989990234375 404.4100036621094 9.979999542236328
437.1600036621094 401.8900146484375 9.819999694824219
428.6799926757812 404.0299987792969 10.85000038146973
425.3299865722656 404.8299865722656 9.399999618530273
428.0899963378906 404.1600036621094 10.5600004196167
429.7799987792969 403.7099914550781 11.36999988555908
437.9599914550781 401.7300109863281 9.5
434.9200134277344 402.4599914550781 10.92000007629395
433.4599914550781 402.8200073242188 11.64000034332275
435.6400146484375 402.2699890136719 10.56999969482422
436.3900146484375 402.1099853515625 10.1899995803833
434.1499938964844 402.6300048828125 11.27999973297119
438.8399963378906 401.5 6.800000190734863
425.1000061035156 404.9100036621094 8.25
431.3699951171875 403.3099975585938 12.19999980926514
424.3999938964844 405.7900085449219 8.100000381469727
424.6099853515625 405.7300109863281 9.329999923706055
424.9800109863281 405.6499938964844 8.199999809265137
425.8900146484375 405.3999938964844 9.460000038146973
425.2300109863281 405.5599975585938 9.390000343322754
428.0499877929688 404.8999938964844 10.55000019073486
427.4700012207031 405 10.26000022888184
429.1300048828125 404.6199951171875 11.09000015258789
429.6000061035156 404.4500122070312 11.34000015258789
428.5299987792969 404.7300109863281 10.77999973297119
430.2200012207031 404.3399963378906 11.63000011444092
432.5400085449219 403.7099914550781 12.14999961853027
431.2200012207031 404.0499877929688 12.14000034332275
437.1199951171875 402.6400146484375 9.850000381469727
434.0400085449219 403.3900146484375 11.39999961853027
426.4599914550781 405.260009765625 9.760000228881836
433.25 403.5400085449219 11.77999973297119
426.9700012207031 405.1300048828125 9.979999542236328
424.7799987792969 405.739990234375 6.96999979019165
437.7999877929688 402.4800109863281 9.529999732971191
430.7099914550781 404.1900024414062 11.86999988555908
435.6199951171875 402.9700012207031 10.64000034332275
434.8399963378906 403.2000122070312 11.01000022888184
436.3399963378906 402.7999877929688 10.25
438.6700134277344 402.2900085449219 6.829999923706055
431.75 403.9299926757812 12.40999984741211
424.5 406.4500122070312 9.310000419616699
424.8900146484375 406.3699951171875 8.100000381469727
425.6799926757812 406.1600036621094 9.579999923706055
424.6600036621094 406.4599914550781 7.010000228881836
425.1400146484375 406.2799987792969 9.369999885559082
425.2099914550781 406.2799987792969 7.170000076293945
429.5599975585938 405.1700134277344 11.26000022888184
428.5199890136719 405.4200134277344 10.77999973297119
431.2300109863281 404.7200012207031 12.10999965667725
429.0199890136719 405.2799987792969 11.01000022888184
430.1499938964844 405.010009765625 11.56999969482422
434.6400146484375 403.8999938964844 11.09000015258789
433.9100036621094 404.0599975585938 11.5
435.4400024414062 403.7000122070312 10.71000003814697
432.4400024414062 404.4200134277344 12.22999954223633
436.8999938964844 403.3500061035156 9.960000038146973
433.1199951171875 404.25 11.90999984741211
438.6900024414062 402.9700012207031 6.610000133514404
431.7200012207031 404.6199951171875 12.35000038146973
437.6799926757812 403.1499938964844 9.659999847412109
427.3800048828125 405.739990234375 10.18000030517578
426.8200073242188 405.8699951171875 9.939999580383301
430.7000122070312 404.8699951171875 11.84000015258789
426.3500061035156 405.9800109863281 9.649999618530273
427.9200134277344 405.6000061035156 10.47000026702881
436.1700134277344 403.5199890136719 10.35999965667725
425.1400146484375 406.8999938964844 7.010000228881836
425.5400085449219 406.7799987792969 9.550000190734863
424.9299926757812 406.9299926757812 9.359999656677246
426.1300048828125 406.6400146484375 9.840000152587891
429.9400024414062 405.6400146484375 11.47000026702881
430.510009765625 405.510009765625 11.72999954223633
428.3500061035156 406.0799865722656 10.63000011444092
425.6799926757812 406.760009765625 7.139999866485596
432.2099914550781 405.1000061035156 12.3100004196167
433.7300109863281 404.7300109863281 11.52999973297119
431.0199890136719 405.3599853515625 12.02999973297119
431.5400085449219 405.239990234375 12.26000022888184
437.5299987792969 403.8200073242188 9.699999809265137
432.9800109863281 404.8900146484375 11.89000034332275
439.1000061035156 403.4599914550781 6.809999942779541
429.4400024414062 405.7999877929688 11.1899995803833
426.739990234375 406.4800109863281 9.899999618530273
428.8500061035156 405.9200134277344 10.93000030517578
436.0400085449219 404.1300048828125 10.39000034332275
427.2699890136719 406.3399963378906 10.11999988555908
427.7900085449219 406.2200012207031 10.40999984741211
434.4700012207031 404.5199890136719 11.17000007629395
435.2900085449219 404.3500061035156 10.77999973297119
436.8099975585938 403.9599914550781 9.979999542236328
425.7099914550781 407.3999938964844 10.26000022888184
425.8500061035156 407.4500122070312 4.25
425.8099975585938 407.3999938964844 6.079999923706055
427.6199951171875 406.9299926757812 10.28999996185303
427.0299987792969 407.0799865722656 10.07999992370605
430.3800048828125 406.2200012207031 11.68000030517578
426.4200134277344 407.1900024414062 10.18000030517578
432.0400085449219 405.7999877929688 12.38000011444092
429.260009765625 406.5199890136719 11.11999988555908
428.1300048828125 406.7900085449219 10.5600004196167
435.7799987792969 404.9100036621094 10.53999996185303
430.9500122070312 406.0499877929688 12.01000022888184
434.2200012207031 405.260009765625 11.26000022888184
435 405.0799865722656 10.92000007629395
429.7999877929688 406.3399963378906 11.40999984741211
437.239990234375 404.5499877929688 9.810000419616699
436.4800109863281 404.7200012207031 10.15999984741211
428.75 406.6199951171875 10.8100004196167
431.4299926757812 405.9599914550781 12.23999977111816
432.7099914550781 405.6000061035156 12.0600004196167
425.9100036621094 407.3500061035156 7.840000152587891
433.4599914550781 405.4200134277344 11.6899995803833
437.8500061035156 405.0599975585938 9.569999694824219
437.1799926757812 405.25 9.819999694824219
425.8500061035156 408.0700073242188 7.53000020980835
425.5799865722656 408.1000061035156 10.47999954223633
426.9100036621094 407.760009765625 10.4399995803833
425.9700012207031 408.1000061035156 5.440000057220459
429.6799926757812 407.0799865722656 11.28999996185303
429.1400146484375 407.25 11.07999992370605
426.1799926757812 407.9800109863281 10.53999996185303
428.6000061035156 407.3399963378906 10.8100004196167
430.2000122070312 406.9400024414062 11.60000038146973
431.3099975585938 406.6900024414062 12.1899995803833
430.7799987792969 406.7999877929688 11.81999969482422
431.7999877929688 406.5199890136719 12.35999965667725
436.3999938964844 405.4299926757812 10.19999980926514
435.6700134277344 405.6000061035156 10.5600004196167
427.510009765625 407.6300048828125 10.35000038146973
428.0700073242188 407.4700012207031 10.55000019073486
434.8599853515625 405.8299865722656 10.97999954223633
433.3399963378906 406.1499938964844 11.77999973297119
432.5499877929688 406.3800048828125 12.14999961853027
434.0599975585938 405.9800109863281 11.38000011444092
425.8399963378906 408.7099914550781 7.150000095367432
425.9500122070312 408.6600036621094 10.82999992370605
425.9700012207031 408.7000122070312 5
427.260009765625 408.3399963378906 10.64999961853027
425.3900146484375 408.7999877929688 10.61999988555908
429.0499877929688 407.8599853515625 11.02000045776367
429.5799865722656 407.760009765625 11.26000022888184
431.7900085449219 407.2000122070312 12.34000015258789
433.9200134277344 406.6799926757812 11.47000026702881
427.8800048828125 408.1900024414062 10.61999988555908
436.2300109863281 406.1199951171875 10.3100004196167
432.4700012207031 407.0400085449219 12.26000022888184
436.9700012207031 405.9400024414062 9.939999580383301
426.6300048828125 408.4800109863281 10.73999977111816
434.6799926757812 406.4700012207031 11.07999992370605
430.1300048828125 407.6099853515625 11.53999996185303
425.9400024414062 408.6600036621094 8.939999580383301
431.25 407.3200073242188 12.10000038146973
437.6700134277344 405.7799987792969 9.649999618530273
428.5 408 10.76000022888184
433.1499938964844 406.8599853515625 11.85999965667725
435.4500122070312 406.3099975585938 10.72000026702881
430.6799926757812 407.4400024414062 11.85000038146973
433.6700134277344 407.2300109863281 11.56999969482422
436.7799987792969 406.510009765625 10.03999996185303
435.9599914550781 406.6799926757812 10.43000030517578
435.1700134277344 406.8900146484375 10.8100004196167
434.3900146484375 407.0499877929688 11.22000026702881
437.510009765625 406.3299865722656 9.659999847412109
425.1700134277344 409.3699951171875 10.57999992370605
425.7300109863281 409.260009765625 6.920000076293945
428.2200012207031 408.6199951171875 10.84000015258789
427.6400146484375 408.75 10.88000011444092
428.8200073242188 408.4700012207031 10.92000007629395
425.7999877929688 409.2300109863281 8.640000343322754
430.4400024414062 408.0400085449219 11.69999980926514
425.7000122070312 409.2300109863281 10.89999961853027
429.3599853515625 408.3200073242188 11.14000034332275
432.8900146484375 407.4500122070312 11.97000026702881
429.9100036621094 408.1900024414062 11.4399995803833
426.3399963378906 409.1000061035156 11.07999992370605
425.7999877929688 409.2699890136719 4.71999979019165
425.9599914550781 409.1400146484375 12.13000011444092
432.1199951171875 407.6199951171875 12.35000038146973
426.9800109863281 408.9100036621094 11
431.010009765625 407.8999938964844 11.98999977111816
431.5199890136719 407.760009765625 12.23999977111816
425.7200012207031 409.9599914550781 8.189999580383301
425.5299987792969 409.9700012207031 10.75
425.6700134277344 409.9700012207031 6.260000228881836
427.8500061035156 409.3900146484375 11.22000026702881
428.5199890136719 409.2099914550781 11.09000015258789
427.2000122070312 409.510009765625 11.27999973297119
426.3399963378906 409.7099914550781 12.10000038146973
430.2699890136719 408.75 11.60999965667725
431.9400024414062 408.3200073242188 12.36999988555908
425.739990234375 409.8699951171875 11.89999961853027
437.7799987792969 406.8900146484375 9.75
434.1099853515625 407.8200073242188 11.35000038146973
429.1499938964844 409.0499877929688 11.10000038146973
438.4500122070312 406.7300109863281 9.649999618530273
439.1900024414062 406.5799865722656 9.560000419616699
439.7699890136719 406.3999938964844 9.520000457763672
433.3900146484375 407.9700012207031 11.72999954223633
431.3500061035156 408.489990234375 12.25
440.4599914550781 406.239990234375 9.5
434.8699951171875 407.6400146484375 11.01000022888184
441.3599853515625 406.0700073242188 6.75
435.6099853515625 407.4400024414062 10.60000038146973
429.739990234375 408.9200134277344 11.35999965667725
437.1199951171875 407.0700073242188 9.840000152587891
436.4100036621094 407.239990234375 10.22000026702881
430.8599853515625 408.6199951171875 11.89000034332275
440.7300109863281 406.2300109863281 6.699999809265137
432.6499938964844 408.1400146484375 12.10000038146973
425.7099914550781 410.6900024414062 7.71999979019165
425.7699890136719 410.6499938964844 9.390000343322754
426.1600036621094 410.489990234375 12.26000022888184
425.739990234375 410.6400146484375 11.55000019073486
427.6400146484375 410.1499938964844 11.53999996185303
425.7099914550781 410.7099914550781 5.650000095367432
430.1499938964844 409.5199890136719 11.53999996185303
432.3699951171875 408.9500122070312 12.26000022888184
431.7300109863281 409.1199951171875 12.31999969482422
433.9800109863281 408.5700073242188 11.39000034332275
428.260009765625 409.9700012207031 11.5
428.9299926757812 409.8500061035156 11.40999984741211
431.239990234375 409.239990234375 12.05000019073486
430.6199951171875 409.4100036621094 11.8100004196167
436.25 408.0400085449219 10.31999969482422
438.239990234375 407.5599975585938 10.09000015258789
434.6799926757812 408.3999938964844 11.02999973297119
438.8599853515625 407.3900146484375 9.970000267028809
436.9700012207031 407.8399963378906 10.14999961853027
440.1600036621094 407.0499877929688 9.810000419616699
435.4800109863281 408.1900024414062 10.65999984741211
442.75 406.4100036621094 9.460000038146973
443.4400024414062 406.239990234375 9.479999542236328
425.3699951171875 410.7000122070312 10.68000030517578
437.5400085449219 407.7099914550781 10.10999965667725
433.1499938964844 408.760009765625 11.82999992370605
442.1400146484375 406.5599975585938 9.590000152587891
445.010009765625 405.8699951171875 6.739999771118164
443.6900024414062 406.2099914550781 6.71999979019165
427.0299987792969 410.3200073242188 11.48999977111816
429.489990234375 409.7000122070312 11.35999965667725
446.239990234375 405.5700073242188 6.800000190734863
439.510009765625 407.239990234375 9.949999809265137
441.5 406.739990234375 9.659999847412109
444.3599853515625 406.0400085449219 6.75
440.8399963378906 406.9100036621094 9.720000267028809
425.8299865722656 411.3200073242188 6.909999847412109
425.8200073242188 411.2999877929688 10.86999988555908
428.8200073242188 410.5299987792969 11.34000015258789
427.5899963378906 410.8299865722656 11.23999977111816
431.7200012207031 409.7900085449219 12.27999973297119
428.1600036621094 410.6900024414062 11.27000045776367
425.9100036621094 411.2699890136719 8.640000343322754
426.9800109863281 410.9700012207031 11.14000034332275
431.1400146484375 409.9299926757812 12.0600004196167
433.0700073242188 409.4599914550781 11.88000011444092
425.2999877929688 411.4400024414062 10.63000011444092
437.2900085449219 408.4599914550781 10.51000022888184
430.010009765625 410.25 11.53999996185303
426.3599853515625 411.1499938964844 11.0600004196167
437.9599914550781 408.2999877929688 10.4399995803833
429.4400024414062 410.3900146484375 11.43000030517578
430.6000061035156 410.0799865722656 11.75
435.9500122070312 408.760009765625 10.65999984741211
438.5799865722656 408.1300048828125 10.35000038146973
433.8099975585938 409.2699890136719 11.52999973297119
443.260009765625 406.9800109863281 9.789999961853027
439.9400024414062 407.8099975585938 10.1899995803833
440.6499938964844 407.6199951171875 10.09000015258789
445.239990234375 406.5 9.560000419616699
442.6000061035156 407.1099853515625 9.850000381469727
432.3800048828125 409.6300048828125 12.21000003814697
441.2999877929688 407.4400024414062 10.02000045776367
444.5299987792969 406.6700134277344 9.630000114440918
434.510009765625 409.1000061035156 11.15999984741211
448.5599975585938 405.6600036621094 7.03000020980835
446.6900024414062 406.1300048828125 7.039999961853027
439.2900085449219 407.9500122070312 10.22999954223633
449.2900085449219 405.489990234375 6.920000076293945
442 407.260009765625 9.960000038146973
443.8900146484375 406.7900085449219 9.710000038146973
446.1700134277344 406.2900085449219 6.78000020980835
436.6400146484375 408.6000061035156 10.55000019073486
445.8800048828125 406.3399963378906 9.560000419616699
435.3200073242188 408.9100036621094 10.77999973297119
449.9700012207031 405.3200073242188 6.829999923706055
447.6199951171875 406.4599914550781 9.539999961853027
447.8800048828125 405.8399963378906 7.340000152587891
448.25 406.2699890136719 9.489999771118164
448.2699890136719 406.2900085449219 7.639999866485596
450.6300048828125 405.6799926757812 9.829999923706055
448.8900146484375 406.1700134277344 7.590000152587891
449.6099853515625 405.9700012207031 7.380000114440918
451.0299987792969 405.6099853515625 6.900000095367432
447.260009765625 405.989990234375 7.329999923706055
450.3500061035156 405.8099975585938 7.019999980926514
450.1099853515625 405.8299865722656 9.539999961853027
428.7699890136719 411.1300048828125 11.09000015258789
425.6900024414062 411.8599853515625 10.72999954223633
429.8500061035156 410.8200073242188 11.40999984741211
428.2000122070312 411.2699890136719 10.98999977111816
430.9400024414062 410.5400085449219 11.94999980926514
426.9500122070312 411.5400085449219 10.85000038146973
425.9100036621094 411.8599853515625 8.100000381469727
426.2999877929688 411.7300109863281 10.78999996185303
432.0899963378906 410.2900085449219 12.35999965667725
436.4200134277344 409.2300109863281 10.86999988555908
431.5199890136719 410.4299926757812 12.22999954223633
430.4299926757812 410.6700134277344 11.71000003814697
435.7000122070312 409.3800048828125 10.96000003814697
434.3299865722656 409.7300109863281 11.25
425.75 411.9299926757812 6.579999923706055
438.3699951171875 408.7099914550781 10.6899995803833
432.7699890136719 410.0799865722656 12.05000019073486
429.3599853515625 410.989990234375 11.15999984741211
433.5499877929688 409.8900146484375 11.6899995803833
440.9100036621094 408.1199951171875 10.36999988555908
442.9299926757812 407.6300048828125 10.14000034332275
444.260009765625 407.2900085449219 9.979999542236328
427.6000061035156 411.3999938964844 10.89999961853027
441.6300048828125 407.9100036621094 10.31999969482422
442.2699890136719 407.739990234375 10.18000030517578
446.3200073242188 406.760009765625 9.689999580383301
445.5899963378906 406.9599914550781 9.810000419616699
440.2799987792969 408.260009765625 10.43000030517578
438.9700012207031 408.5700073242188 10.60000038146973
435.0199890136719 409.5599975585938 11.03999996185303
439.6099853515625 408.4100036621094 10.5
437.1099853515625 409.0599975585938 10.80000019073486
446.989990234375 406.5899963378906 9.609999656677246
443.5799865722656 407.4200134277344 10.03999996185303
437.739990234375 408.8999938964844 10.72000026702881
444.9500122070312 407.1300048828125 9.890000343322754
440.0299987792969 408.9800109863281 10.78999996185303
439.3599853515625 409.1400146484375 10.85999965667725
442.6900024414062 408.3099975585938 10.52000045776367
447.2699890136719 407.1900024414062 9.909999847412109
444.6000061035156 407.8399963378906 10.22999954223633
441.4200134277344 408.6600036621094 10.59000015258789
437.9800109863281 409.4800109863281 11.02999973297119
443.3500061035156 408.1900024414062 10.42000007629395
445.9299926757812 407.510009765625 10.06999969482422
440.6900024414062 408.8099975585938 10.6899995803833
445.2999877929688 407.6900024414062 10.14000034332275
447.9299926757812 407.0299987792969 9.840000152587891
451.6900024414062 406.0799865722656 10.38000011444092
438.7200012207031 409.3200073242188 10.9399995803833
442.0499877929688 408.5 10.53999996185303
446.6300048828125 407.3599853515625 9.979999542236328
449.8999938964844 406.5299987792969 9.640000343322754
452.2300109863281 405.9500122070312 10.47999954223633
454.1300048828125 405.4800109863281 10.36999988555908
451.0799865722656 406.2300109863281 10.06999969482422
452.8599853515625 405.8099975585938 10.40999984741211
448.5799865722656 406.8599853515625 9.770000457763672
453.4800109863281 405.6300048828125 10.4399995803833
449.3299865722656 406.7000122070312 9.659999847412109
443.9800109863281 407.989990234375 10.31999969482422
450.5799865722656 406.3999938964844 9.779999732971191
428.6099853515625 411.8299865722656 10.80000019073486
426.8500061035156 412.2799987792969 10.5
428.0400085449219 411.9500122070312 10.65999984741211
429.7300109863281 411.5400085449219 11.38000011444092
429.1700134277344 411.6700134277344 11.05000019073486
430.8299865722656 411.2799987792969 11.89000034332275
432.6499938964844 410.7900085449219 12.13000011444092
431.3800048828125 411.1000061035156 12.19999980926514
425.9100036621094 412.5199890136719 7.71999979019165
426.260009765625 412.3900146484375 10.46000003814697
437.3900146484375 409.6300048828125 11.10000038146973
435.4200134277344 410.1099853515625 11.35000038146973
425.6400146484375 412.5599975585938 10.30000019073486
436.7099914550781 409.7799987792969 11.22999954223633
431.9700012207031 410.9800109863281 12.39000034332275
426.0499877929688 412.5499877929688 5.380000114440918
433.4100036621094 410.6300048828125 11.72000026702881
430.2900085449219 411.4100036621094 11.5600004196167
436.0799865722656 409.9800109863281 11.23999977111816
427.4800109863281 412.1000061035156 10.57999992370605
434.0700073242188 410.4500122070312 11.51000022888184
434.7300109863281 410.2699890136719 11.43000030517578
426.8800048828125 412.9800109863281 10.13000011444092
427.4700012207031 412.8200073242188 10.22000026702881
429.6000061035156 412.2799987792969 11.26000022888184
425.6900024414062 413.2999877929688 9.970000267028809
430.1499938964844 412.1400146484375 11.5600004196167
431.7699890136719 411.7300109863281 12.34000015258789
429.1300048828125 412.4100036621094 10.98999977111816
428.0599975585938 412.6600036621094 10.52999973297119
432.4599914550781 411.5599975585938 12.1899995803833
430.6799926757812 411.989990234375 11.88000011444092
434.4700012207031 411.0899963378906 11.81999969482422
433.8399963378906 411.2200012207031 11.88000011444092
426.239990234375 413.1400146484375 10.05000019073486
437.1700134277344 410.4299926757812 11.46000003814697
428.6000061035156 412.5599975585938 10.73999977111816
433.1099853515625 411.4200134277344 11.97000026702881
435.8099975585938 410.7300109863281 11.65999984741211
442.3500061035156 409.1199951171875 10.86999988555908
441.739990234375 409.2900085449219 10.92000007629395
438.4599914550781 410.0700073242188 11.38000011444092
439.1000061035156 409.9200134277344 11.28999996185303
444.4100036621094 408.6000061035156 10.64000034332275
441.0700073242188 409.4599914550781 11.02000045776367
431.260009765625 411.8900146484375 12.07999992370605
435.1499938964844 410.8900146484375 11.73999977111816
436.5 410.5499877929688 11.60999965667725
445.0299987792969 408.4599914550781 10.5
443.6700134277344 408.8099975585938 10.69999980926514
443.0199890136719 408.9500122070312 10.78999996185303
448.3599853515625 407.6499938964844 10.15999984741211
449 407.4599914550781 10.06999969482422
439.7099914550781 409.7699890136719 11.17000007629395
452.5299987792969 406.5899963378906 10.76000022888184
445.7300109863281 408.2799987792969 10.51000022888184
450.9400024414062 406.989990234375 9.960000038146973
450.2999877929688 407.1700134277344 9.899999618530273
440.3999938964844 409.6300048828125 11.14999961853027
451.4800109863281 406.8699951171875 10.23999977111816
453.9200134277344 406.239990234375 10.6899995803833
453.2300109863281 406.4200134277344 10.73999977111816
425.9200134277344 413.2900085449219 7.179999828338623
447.1199951171875 407.9599914550781 10.30000019073486
446.4100036621094 408.1400146484375 10.39000034332275
455.3999938964844 405.8999938964844 9.949999809265137
437.8599853515625 410.2300109863281 11.39000034332275
452.0199890136719 406.7099914550781 10.52000045776367
454.6199951171875 406.0799865722656 10.39999961853027
447.7099914550781 407.7799987792969 10.19999980926514
449.6700134277344 407.3099975585938 9.970000267028809
425.6799926757812 413.9500122070312 9.670000076293945
426.8500061035156 413.6600036621094 9.899999618530273
428.4299926757812 413.260009765625 10.68000030517578
427.9299926757812 413.3900146484375 10.43000030517578
428.9599914550781 413.1099853515625 10.96000003814697
430.6000061035156 412.7099914550781 11.77000045776367
427.3500061035156 413.5400085449219 10.11999988555908
431.7099914550781 412.4200134277344 12.32999992370605
431.1499938964844 412.5799865722656 12.07999992370605
434.9299926757812 411.6300048828125 12.10000038146973
425.9299926757812 413.9599914550781 6.820000171661377
432.3800048828125 412.25 12.43000030517578
435.5799865722656 411.4700012207031 11.98999977111816
433 412.1000061035156 12.28999996185303
429.5299987792969 413.010009765625 11.22000026702881
434.2799987792969 411.8200073242188 12.18000030517578
426.5 413.8099975585938 7.119999885559082
436.8999938964844 411.1400146484375 11.84000015258789
430.1099853515625 412.8299865722656 11.55000019073486
440.8900146484375 410.1900024414062 11.39999961853027
426.2000122070312 413.8399963378906 9.760000228881836
441.5799865722656 410.010009765625 11.27999973297119
442.239990234375 409.8200073242188 11.1899995803833
443.5400085449219 409.5400085449219 11.06999969482422
438.8599853515625 410.6600036621094 11.61999988555908
444.1499938964844 409.3699951171875 10.94999980926514
437.5400085449219 411.010009765625 11.78999996185303
444.7999877929688 409.2099914550781 10.88000011444092
445.510009765625 409.0199890136719 10.80000019073486
448.0899963378906 408.3999938964844 10.51000022888184
442.9100036621094 409.6499938964844 11.14999961853027
440.2300109863281 410.3399963378906 11.43000030517578
450.7999877929688 407.7300109863281 10.1899995803833
436.2200012207031 411.3299865722656 11.89999961853027
446.1400146484375 408.8900146484375 10.77000045776367
450.1000061035156 407.8800048828125 10.25
438.1600036621094 410.8200073242188 11.72999954223633
447.4299926757812 408.5599975585938 10.55000019073486
455.2699890136719 406.5899963378906 10.05000019073486
452.0400085449219 407.4200134277344 10.48999977111816
433.6300048828125 411.9400024414062 12.28999996185303
451.4599914550781 407.5400085449219 10.25
453.0700073242188 407.1499938964844 10.98999977111816
446.7999877929688 408.6900024414062 10.67000007629395
456.0299987792969 406.4299926757812 9.680000305175781
439.5199890136719 410.489990234375 11.53999996185303
449.489990234375 408.0599975585938 10.31999969482422
456.739990234375 406.2300109863281 9.539999961853027
448.7799987792969 408.2099914550781 10.40999984741211
453.7699890136719 407 10.84000015258789
454.5199890136719 406.7799987792969 10.39999961853027
428.3200073242188 413.8399963378906 10.63000011444092
428.8200073242188 413.7099914550781 10.88000011444092
430.9299926757812 413.1900024414062 11.97000026702881
429.3599853515625 413.5700073242188 11.15999984741211
432.1099853515625 412.8900146484375 12.21000003814697
430.4299926757812 413.2999877929688 11.69999980926514
432.760009765625 412.739990234375 12.27000045776367
437.3099975585938 411.6099853515625 12.03999996185303
452.510009765625 407.2999877929688 10.77999973297119
435.9200134277344 411.9200134277344 12.27999973297119
433.9800109863281 412.4500122070312 12.44999980926514
435.2200012207031 412.1199951171875 12.35999965667725
429.8599853515625 413.4599914550781 11.39999961853027
431.5499877929688 413.0400085449219 12.10999965667725
438.5400085449219 411.3099975585938 11.94999980926514
442.489990234375 410.3299865722656 11.4399995803833
441.1199951171875 410.6600036621094 11.63000011444092
443.1000061035156 410.1799926757812 11.40999984741211
446.4800109863281 409.3500061035156 11.01000022888184
439.2000122070312 411.1199951171875 11.85000038146973
447.1900024414062 409.1700134277344 10.90999984741211
434.6099853515625 412.260009765625 12.39999961853027
441.8200073242188 410.489990234375 11.57999992370605
449.739990234375 408.5299987792969 10.57999992370605
444.489990234375 409.8299865722656 11.19999980926514
437.9500122070312 411.4500122070312 12.03999996185303
445.8200073242188 409.4700012207031 11.07999992370605
449.1199951171875 408.6700134277344 10.64000034332275
447.8099975585938 408.989990234375 10.8100004196167
453.4700012207031 407.5799865722656 10.92000007629395
452.8099975585938 407.75 10.88000011444092
436.6300048828125 411.760009765625 12.15999984741211
443.8200073242188 410 11.27000045776367
451.0799865722656 408.2000122070312 10.39000034332275
439.8299865722656 410.9599914550781 11.81999969482422
452.2900085449219 407.8699951171875 10.64999961853027
440.5499877929688 410.8200073242188 11.72000026702881
451.7699890136719 408.0400085449219 10.35000038146973
454.239990234375 407.3999938964844 10.55000019073486
456.510009765625 406.8699951171875 9.739999771118164
433.2999877929688 412.5799865722656 12.35999965667725
457.8200073242188 406.510009765625 9.649999618530273
457.1300048828125 406.7000122070312 9.689999580383301
445.1000061035156 409.6499938964844 11.15999984741211
450.4200134277344 408.3599853515625 10.47999954223633
455.7699890136719 407.0299987792969 9.850000381469727
455.0199890136719 407.2099914550781 10.14999961853027
448.4599914550781 408.8599853515625 10.77000045776367
426.239990234375 414.4200134277344 7.019999980926514
426.6099853515625 414.260009765625 9.779999732971191
425.6799926757812 414.5700073242188 6.760000228881836
427.739990234375 413.989990234375 10.34000015258789
426.1300048828125 414.3900146484375 9.539999961853027
458.1799926757812 407.0799865722656 9.569999694824219
427.2000122070312 414.1099853515625 10.06999969482422
426.5899963378906 414.3200073242188 8
425.5799865722656 415.1900024414062 6.739999771118164
426.4800109863281 414.9299926757812 9.710000038146973
426.5899963378906 414.9599914550781 7.320000171661377
429.1199951171875 414.2900085449219 11.0600004196167
427.0299987792969 414.7999877929688 9.960000038146973
429.7099914550781 414.1300048828125 11.3100004196167
432.7300109863281 413.3500061035156 11.98999977111816
425.8599853515625 415.0799865722656 9.619999885559082
428.0700073242188 414.5499877929688 10.51000022888184
435.0499877929688 412.7699890136719 12.22999954223633
433.8900146484375 413.0599975585938 12.10000038146973
430.25 414 11.60000038146973
435.6900024414062 412.6300048828125 12.34000015258789
436.9299926757812 412.2999877929688 12.44999980926514
432.1300048828125 413.5299987792969 11.86999988555908
438.1799926757812 412.010009765625 12.31999969482422
436.2799987792969 412.4700012207031 12.36999988555908
427.5599975585938 414.6600036621094 10.27000045776367
439.6000061035156 411.6700134277344 12.11999988555908
442.260009765625 411.0199890136719 11.80000019073486
441.6000061035156 411.1499938964844 11.89999961853027
438.8800048828125 411.8099975585938 12.1899995803833
444.1499938964844 410.510009765625 11.59000015258789
440.8999938964844 411.3299865722656 11.96000003814697
433.3299865722656 413.2000122070312 12.02000045776367
430.8699951171875 413.8299865722656 11.71000003814697
428.6300048828125 414.3900146484375 10.78999996185303
442.9299926757812 410.8500061035156 11.72999954223633
437.5299987792969 412.1799926757812 12.38000011444092
448.7799987792969 409.3999938964844 11.0600004196167
447.4700012207031 409.7000122070312 11.17000007629395
448.1099853515625 409.5700073242188 11.09000015258789
445.4700012207031 410.2000122070312 11.42000007629395
440.1700134277344 411.5199890136719 12.05000019073486
426.1400146484375 415.0599975585938 6.980000019073486
449.4599914550781 409.239990234375 10.96000003814697
450.8399963378906 408.8999938964844 10.77000045776367
453.2999877929688 408.260009765625 11
434.5199890136719 412.9500122070312 12.21000003814697
431.4500122070312 413.6900024414062 11.77999973297119
450.1300048828125 409.0400085449219 10.82999992370605
456.1000061035156 407.6099853515625 10.18000030517578
456.7900085449219 407.4100036621094 10.01000022888184
451.5199890136719 408.7300109863281 10.65999984741211
443.5599975585938 410.6600036621094 11.68000030517578
452.6900024414062 408.4200134277344 10.85000038146973
454.0199890136719 408.1099853515625 10.65999984741211
446.1300048828125 410.0199890136719 11.36999988555908
454.760009765625 407.9299926757812 10.3100004196167
446.8299865722656 409.8699951171875 11.23999977111816
435.6900024414062 413.3399963378906 11.96000003814697
455.4800109863281 407.7300109863281 10.1899995803833
436.9299926757812 413 12.10000038146973
