91.34999847412109 352.9400024414062 11.90999984741211
90.16999816894531 353.2200012207031 12.53999996185303
90.73000335693359 353.1000061035156 12.18000030517578
88.58999633789062 353.6499938964844 12.21000003814697
91.47000122070312 353.6099853515625 11.89999961853027
94.01000213623047 352.9599914550781 12.61999988555908
95.16000366210938 352.7000122070312 10.55000019073486
90.93000030517578 353.7799987792969 12.10999965667725
94.55000305175781 352.8200073242188 12.40999984741211
95.97000122070312 352.489990234375 10.65999984741211
89.83999633789062 354.0299987792969 12.85999965667725
92.30999755859375 353.4200134277344 12.10000038146973
90.33000183105469 353.9100036621094 12.39999961853027
93.13999938964844 353.2000122070312 12.42000007629395
96.44000244140625 352.3599853515625 10.35999965667725
95.19999694824219 352.6600036621094 12.17000007629395
92.66999816894531 353.9599914550781 12.31999969482422
94.15000152587891 353.5899963378906 12.5600004196167
91.05000305175781 354.3500061035156 11.77000045776367
95.97000122070312 353.1099853515625 11.84000015258789
95.19999694824219 353.3200073242188 10.22999954223633
91.86000061035156 354.1700134277344 11.97999954223633
94.76999664306641 353.3999938964844 12.32999992370605
97.15000152587891 352.8500061035156 9.960000038146973
95.36000061035156 353.2900085449219 12.13000011444092
96.55999755859375 352.989990234375 11.57999992370605
93.5 353.760009765625 12.55000019073486
95.02999877929688 354.1000061035156 12.22999954223633
92.91999816894531 354.6000061035156 12.34000015258789
92.09999847412109 354.8599853515625 12.10000038146973
96.30000305175781 353.760009765625 11.80000019073486
93.79000091552734 354.3900146484375 12.60999965667725
91.25 355.0499877929688 11.77000045776367
96.87000274658203 353.6799926757812 10.09000015258789
94.43000030517578 354.260009765625 12.4399995803833
97.43000030517578 353.4800109863281 11.3100004196167
95.66000366210938 353.9400024414062 12.02000045776367
96.87000274658203 353.6300048828125 11.57999992370605
90.94000244140625 355.9500122070312 11.67000007629395
92.55999755859375 355.5400085449219 12.21000003814697
95.30999755859375 354.8500061035156 12.15999984741211
97.12999725341797 354.3999938964844 11.52000045776367
96.47000122070312 354.5599975585938 11.72999954223633
95.93000030517578 354.6700134277344 11.86999988555908
94.09999847412109 355.1199951171875 12.56999969482422
94.70999908447266 354.9800109863281 12.32999992370605
91.77999877929688 355.739990234375 11.92000007629395
93.37000274658203 355.2999877929688 12.48999977111816
92.91000366210938 356.1099853515625 12.35999965667725
93.75 355.8999938964844 12.60000038146973
95.62999725341797 355.4299926757812 12.01000022888184
96.87000274658203 355.1499938964844 11.57999992370605
97.41000366210938 354.989990234375 11.34000015258789
91.16999816894531 356.5499877929688 11.76000022888184
92.01000213623047 356.3699951171875 12.0600004196167
96.26999664306641 355.2799987792969 11.76000022888184
94.40000152587891 355.7300109863281 12.51000022888184
95.01999664306641 355.5700073242188 12.27000045776367
92.37000274658203 356.8500061035156 12.17000007629395
93.16999816894531 356.6499938964844 12.44999980926514
94.55999755859375 356.2900085449219 12.38000011444092
95.79000091552734 355.9599914550781 11.97999954223633
91.58000183105469 357.0499877929688 11.89000034332275
90.76000213623047 357.2300109863281 11.64000034332275
96.38999938964844 355.8200073242188 11.76000022888184
93.94999694824219 356.4500122070312 12.61999988555908
97.61000061035156 355.5400085449219 11.28999996185303
95.18000030517578 356.1300048828125 12.21000003814697
96.94999694824219 355.6700134277344 11.5600004196167
92.59999847412109 357.4700012207031 12.22999954223633
90.93000030517578 357.8599853515625 11.71000003814697
91.73999786376953 357.6799926757812 11.93000030517578
93.48999786376953 357.25 12.55000019073486
94.22000122070312 357.0599975585938 12.55000019073486
94.81999969482422 356.8800048828125 12.3100004196167
96.63999938964844 356.4500122070312 11.65999984741211
95.44999694824219 356.7200012207031 12.10999965667725
97.23000335693359 356.3200073242188 11.46000003814697
96.05999755859375 356.5899963378906 11.88000011444092
90.69000244140625 358.7099914550781 11.63000011444092
93.91999816894531 357.8800048828125 12.64999961853027
96.91999816894531 357.1400146484375 11.60999965667725
95.11000061035156 357.6099853515625 12.25
96.34999847412109 357.2900085449219 11.8100004196167
93.08999633789062 358.1199951171875 12.42000007629395
97.52999877929688 356.989990234375 11.35000038146973
91.44999694824219 358.5199890136719 11.80000019073486
92.27999877929688 358.2900085449219 12.14000034332275
94.55999755859375 357.75 12.42000007629395
95.75 357.4400024414062 11.97999954223633
94.30000305175781 358.5199890136719 12.53999996185303
91.84999847412109 359.1499938964844 11.93000030517578
95.55999755859375 358.1799926757812 12.14000034332275
97.31999969482422 357.7699890136719 11.40999984741211
91.01999664306641 359.3399963378906 11.6899995803833
93.62000274658203 358.6700134277344 12.55000019073486
94.91000366210938 358.3699951171875 12.28999996185303
92.72000122070312 358.8999938964844 12.25
96.72000122070312 357.9100036621094 11.63000011444092
96.12000274658203 358.0599975585938 11.85999965667725
91.45999908447266 359.8099975585938 11.8100004196167
93.88999938964844 359.1900024414062 12.65999984741211
95.13999938964844 358.8999938964844 12.23999977111816
96.31999969482422 358.5899963378906 11.8100004196167
95.76000213623047 358.7300109863281 12.01000022888184
96.94999694824219 358.4599914550781 11.57999992370605
92.25 359.6199951171875 12.10000038146973
97.5 358.2900085449219 11.34000015258789
93.11000061035156 359.3800048828125 12.42000007629395
94.58000183105469 359.0199890136719 12.4399995803833
93.40000152587891 359.9800109863281 12.47000026702881
94.72000122070312 359.6400146484375 12.36999988555908
94.08999633789062 359.7999877929688 12.63000011444092
96.02999877929688 359.3299865722656 11.9399995803833
97.16000366210938 359.010009765625 11.55000019073486
96.55000305175781 359.1900024414062 11.71000003814697
95.36000061035156 359.4599914550781 12.13000011444092
96.22000122070312 360.010009765625 11.89999961853027
97.37999725341797 359.7200012207031 11.46000003814697
95.63999938964844 360.1400146484375 12.22000026702881
96.76000213623047 359.8399963378906 11.72000026702881
88.30999755859375 340.0199890136719 12.09000015258789
87.72000122070312 339.8500061035156 11.89999961853027
88.80999755859375 340.1400146484375 12.35000038146973
86.30999755859375 339.5299987792969 12.07999992370605
89.43000030517578 339.7099914550781 12.52000045776367
87.68000030517578 338.6400146484375 12.46000003814697
90.30000305175781 339.9500122070312 12.11999988555908
91.65000152587891 339.6199951171875 12.15999984741211
88.30000305175781 339.4500122070312 12.17000007629395
91.02999877929688 340.1099853515625 11.89999961853027
89.62000274658203 339.1499938964844 12.46000003814697
88.94999694824219 338.9400024414062 12.5
88.87000274658203 339.6000061035156 12.36999988555908
88.29000091552734 338.7900085449219 12.46000003814697
90.34999847412109 339.3200073242188 12.19999980926514
90.98999786376953 339.4700012207031 12.1899995803833
89.08999633789062 338.2300109863281 12.32999992370605
91.02999877929688 338.7000122070312 12.55000019073486
89.73000335693359 338.3900146484375 12.43000030517578
88.5 338.0799865722656 12.25
90.37000274658203 338.5400085449219 12.51000022888184
89.75 337.7699890136719 12.11999988555908
89.18000030517578 337.6000061035156 12.02000045776367
91.55999755859375 338.1799926757812 12.39000034332275
90.41999816894531 337.9200134277344 12.18000030517578
88.51999664306641 337.4299926757812 11.92000007629395
91 338.0700073242188 12.23999977111816
89.80000305175781 337.1900024414062 12.13000011444092
91.69999694824219 337.6799926757812 12.11999988555908
89.23999786376953 337.0499877929688 11.82999992370605
91.15000152587891 337.510009765625 12.01000022888184
90.51999664306641 337.3999938964844 11.97000026702881
89.23000335693359 336.4599914550781 11.88000011444092
91.22000122070312 336.9599914550781 11.73999977111816
88.65000152587891 336.3200073242188 11.61999988555908
89.80999755859375 336.5700073242188 12.11999988555908
91.81999969482422 337.1000061035156 11.85999965667725
90.48000335693359 336.739990234375 11.9399995803833
91.38999938964844 336.2099914550781 11.5600004196167
89.37000274658203 335.7300109863281 11.89999961853027
89.94000244140625 335.8500061035156 12.11999988555908
90.62999725341797 336.0199890136719 11.93000030517578
89.26999664306641 335.010009765625 11.94999980926514
90.52999877929688 335.3500061035156 11.93000030517578
91.30999755859375 335.5499877929688 11.56999969482422
89.81999969482422 335.1499938964844 12.10000038146973
88.77999877929688 334.260009765625 11.71000003814697
90.58999633789062 334.75 11.89000034332275
89.91000366210938 334.5400085449219 12.19999980926514
91.33999633789062 334.9500122070312 11.60999965667725
89.33999633789062 334.4200134277344 11.93000030517578
92.01000213623047 335.1099853515625 11.39000034332275
89.27999877929688 333.760009765625 11.89999961853027
90.59999847412109 334.1000061035156 11.89999961853027
91.41000366210938 334.2900085449219 11.52999973297119
89.81999969482422 333.8900146484375 12.1899995803833
91.73999786376953 340.2799987792969 11.82999992370605
87.04000091552734 340.3200073242188 11.8100004196167
88.75 340.739990234375 12.32999992370605
89.38999938964844 340.8599853515625 12.56999969482422
88.23999786376953 340.5899963378906 12
91.80000305175781 341.4700012207031 11.35999965667725
90.11000061035156 341.0799865722656 12.1899995803833
90.94000244140625 341.2900085449219 11.78999996185303
87.69000244140625 340.4800109863281 11.84000015258789
89.34999847412109 340.2699890136719 12.52000045776367
90.19000244140625 340.489990234375 12.17000007629395
91.70999908447266 340.8399963378906 11.51000022888184
84.98999786376953 340.510009765625 11.81999969482422
88.70999908447266 341.4500122070312 12.27000045776367
89.25 341.5700073242188 12.53999996185303
88.20999908447266 341.2900085449219 12.02000045776367
91.59999847412109 342.1400146484375 11.47000026702881
85.65000152587891 340.6700134277344 11.72999954223633
87.65000152587891 341.1700134277344 11.78999996185303
89.98000335693359 341.760009765625 12.25
86.37000274658203 340.8699951171875 11.65999984741211
92.43000030517578 342.3500061035156 10.96000003814697
90.91999816894531 340.6799926757812 11.76000022888184
90.83000183105469 341.9700012207031 11.81999969482422
87.01000213623047 341.010009765625 11.64999961853027
84.23999786376953 341.0299987792969 11.69999980926514
88.05999755859375 341.9400024414062 11.93000030517578
88.59999847412109 342.0899963378906 12.1899995803833
84.93000030517578 341.1799926757812 11.63000011444092
89.90000152587891 342.3900146484375 12.34000015258789
87.51000213623047 341.8099975585938 11.72000026702881
89.12999725341797 342.2000122070312 12.48999977111816
86.26000213623047 341.5 11.5600004196167
86.81999969482422 341.6700134277344 11.60999965667725
85.54000091552734 341.3299865722656 11.60999965667725
85.56999969482422 342 11.48999977111816
84.86000061035156 341.7900085449219 11.52999973297119
89.12999725341797 342.8599853515625 12.40999984741211
88.51999664306641 342.7200012207031 12.18000030517578
89.75 343.0199890136719 12.36999988555908
92 343.6000061035156 11.43000030517578
92.66999816894531 343.75 11.48999977111816
87.41999816894531 342.4400024414062 11.68000030517578
91.31999969482422 343.3999938964844 11.5600004196167
84.16000366210938 341.6300048828125 11.59000015258789
86.12999725341797 342.1099853515625 11.5
86.81999969482422 342.2699890136719 11.61999988555908
90.51999664306641 343.2200012207031 11.90999984741211
88.01000213623047 342.6099853515625 11.93000030517578
91.48999786376953 342.7999877929688 11.5
90.63999938964844 342.5899963378906 11.89000034332275
92.87999725341797 343.1900024414062 11.32999992370605
92.26999664306641 343.0299987792969 11.19999980926514
92.5 344.4400024414062 11.76000022888184
84.27999877929688 342.3999938964844 11.32999992370605
86.05000305175781 342.8200073242188 11.44999980926514
86.73999786376953 342.9700012207031 11.59000015258789
87.93000030517578 343.2699890136719 11.89000034332275
87.27999877929688 343.1099853515625 11.72999954223633
90.45999908447266 343.8999938964844 12.02999973297119
88.97000122070312 343.5499877929688 12.36999988555908
91.86000061035156 344.25 11.77000045776367
91.16999816894531 344.0899963378906 11.67000007629395
88.43000030517578 343.3900146484375 12.14999961853027
89.62999725341797 343.7200012207031 12.5
87.22000122070312 343.8800048828125 11.68000030517578
85.98999786376953 343.6099853515625 11.44999980926514
89.48000335693359 344.4500122070312 12.60000038146973
88.93000030517578 344.2900085449219 12.38000011444092
92.41999816894531 345.2200012207031 9.710000038146973
90.25 344.6400146484375 12.25
88.41000366210938 344.1700134277344 12.13000011444092
93.80999755859375 345.5199890136719 11.34000015258789
94.56999969482422 345.7699890136719 9.149999618530273
90.98999786376953 344.8099975585938 11.90999984741211
94.36000061035156 345.6799926757812 11.40999984741211
95.04000091552734 345.8299865722656 11.48999977111816
87.83999633789062 344.0199890136719 11.86999988555908
86.58999633789062 343.75 11.57999992370605
94.01999664306641 345.6199951171875 9
91.77999877929688 345.0199890136719 11.5
89.33999633789062 345.0400085449219 12.68000030517578
88.23999786376953 344.7699890136719 12.15999984741211
90.06999969482422 345.239990234375 12.36999988555908
91.69999694824219 345.6400146484375 11.55000019073486
86.48000335693359 344.3299865722656 11.53999996185303
93.69999694824219 346.1499938964844 11.59000015258789
90.91999816894531 345.4400024414062 11.9399995803833
88.76999664306641 344.8900146484375 12.42000007629395
87.15000152587891 344.489990234375 11.69999980926514
87.65000152587891 344.6600036621094 11.89000034332275
93.06999969482422 345.989990234375 11.52000045776367
94.30000305175781 346.2699890136719 11.64999961853027
92.40000152587891 345.8099975585938 11.47999954223633
94.93000030517578 346.4500122070312 11.65999984741211
87.66000366210938 345.2099914550781 11.88000011444092
90.13999938964844 345.8099975585938 12.32999992370605
91.65000152587891 346.2000122070312 11.64000034332275
86.59999847412109 344.9599914550781 11.36999988555908
92.91999816894531 346.5199890136719 11.72999954223633
90.84999847412109 345.9700012207031 11.96000003814697
88.80999755859375 345.489990234375 12.47000026702881
92.30999755859375 346.3599853515625 11.60000038146973
94.73999786376953 346.9700012207031 11.85000038146973
85.93000030517578 344.2000122070312 11.39999961853027
87.09999847412109 345.0599975585938 11.56999969482422
93.55000305175781 346.6799926757812 11.77999973297119
88.23000335693359 345.3299865722656 12.14000034332275
94.16999816894531 346.7999877929688 11.81999969482422
89.34999847412109 345.5899963378906 12.71000003814697
92.86000061035156 347.1600036621094 11.92000007629395
93.52999877929688 347.3299865722656 11.96000003814697
87.69000244140625 345.8699951171875 11.85999965667725
87.09999847412109 345.7200012207031 11.61999988555908
90.06999969482422 346.4700012207031 12.38000011444092
94.22000122070312 347.510009765625 12
92.20999908447266 347 11.85000038146973
91.59999847412109 346.8800048828125 11.84000015258789
95.40000152587891 347.7999877929688 12.1899995803833
88.20999908447266 346 12.13000011444092
89.30999755859375 346.2900085449219 12.67000007629395
86.59999847412109 345.6000061035156 11.35000038146973
94.76999664306641 347.6499938964844 12.0600004196167
88.77999877929688 346.1300048828125 12.46000003814697
90.88999938964844 346.6799926757812 11.96000003814697
88.70999908447266 346.9100036621094 12.39999961853027
90.05000305175781 347.2200012207031 12.35000038146973
91.41999816894531 347.5599975585938 12.01000022888184
89.36000061035156 347.0700073242188 12.69999980926514
88.16000366210938 346.7699890136719 12.14000034332275
92.06999969482422 347.7099914550781 12.09000015258789
93.31999969482422 348.0199890136719 12.17000007629395
92.68000030517578 347.8699951171875 12.14000034332275
94.56999969482422 348.3599853515625 12.27999973297119
93.98000335693359 348.2200012207031 12.23999977111816
95.16000366210938 348.489990234375 12.31999969482422
90.80999755859375 347.4400024414062 11.98999977111816
86.51000213623047 346.3699951171875 11.23999977111816
87.06999969482422 346.5199890136719 11.56999969482422
87.58999633789062 346.6099853515625 11.84000015258789
87.02999877929688 347.1300048828125 11.53999996185303
86.48999786376953 347 11.27999973297119
88.12999725341797 347.3900146484375 12.10999965667725
87.55000305175781 347.2799987792969 11.80000019073486
93.91000366210938 348.8500061035156 12.43000030517578
95.16999816894531 349.1600036621094 12.52999973297119
94.55999755859375 348.9800109863281 12.47999954223633
88.65000152587891 347.5199890136719 12.36999988555908
89.91999816894531 347.8299865722656 12.48999977111816
91.98999786376953 348.3500061035156 12.26000022888184
92.55999755859375 348.489990234375 12.34000015258789
89.26000213623047 347.7000122070312 12.6899995803833
90.66999816894531 348.0299987792969 12.15999984741211
91.31999969482422 348.2000122070312 12.19999980926514
88.73000335693359 348.1199951171875 12.42000007629395
93.25 348.6600036621094 12.36999988555908
91.94999694824219 348.8800048828125 12.42000007629395
90.09999847412109 348.4299926757812 12.35000038146973
87.04000091552734 347.7000122070312 11.55000019073486
87.63999938964844 347.8200073242188 11.85000038146973
92.58000183105469 349.0299987792969 12.5
89.33000183105469 348.239990234375 12.65999984741211
91.36000061035156 348.7699890136719 12.35999965667725
88.16000366210938 347.9500122070312 12.09000015258789
94.5 349.5299987792969 12.63000011444092
95.08999633789062 349.6499938964844 12.71000003814697
86.48000335693359 347.5700073242188 11.27999973297119
93.22000122070312 349.1900024414062 12.53999996185303
95.63999938964844 349.8099975585938 11.19999980926514
90.69999694824219 348.6000061035156 12.32999992370605
93.83999633789062 349.3500061035156 12.5600004196167
87.23000335693359 348.3500061035156 11.61999988555908
88.26999664306641 348.5899963378906 12.14000034332275
86.66999816894531 348.1799926757812 11.36999988555908
88.86000061035156 348.7300109863281 12.44999980926514
91.98999786376953 349.4800109863281 12.64000034332275
93.94000244140625 349.9599914550781 12.72999954223633
93.27999877929688 349.8200073242188 12.6899995803833
90.73999786376953 349.1799926757812 12.47000026702881
90.09999847412109 349.010009765625 12.51000022888184
94.62000274658203 350.1300048828125 12.64999961853027
95.33999633789062 350.3299865722656 12.63000011444092
89.36000061035156 348.8399963378906 12.69999980926514
87.75 348.4700012207031 11.90999984741211
92.66999816894531 349.6700134277344 12.65999984741211
91.34999847412109 349.3299865722656 12.52000045776367
86.62000274658203 348.8900146484375 11.3100004196167
87.18000030517578 349.0199890136719 11.60000038146973
87.75 349.1799926757812 11.90999984741211
88.27999877929688 349.3200073242188 12.22000026702881
89.41999816894531 349.5599975585938 12.71000003814697
88.83000183105469 349.4200134277344 12.43000030517578
92.08000183105469 350.25 12.64000034332275
94.01000213623047 350.7300109863281 12.5600004196167
90.09999847412109 349.7200012207031 12.72000026702881
95.33000183105469 351.0599975585938 12.39999961853027
93.30999755859375 350.5199890136719 12.59000015258789
90.77999877929688 349.8999938964844 12.6899995803833
94.65000152587891 350.8900146484375 12.44999980926514
92.66999816894531 350.3699951171875 12.57999992370605
91.37999725341797 350.0400085449219 12.65999984741211
86.75 349.6000061035156 11.34000015258789
88.33999633789062 349.9700012207031 12.22000026702881
87.29000091552734 349.7300109863281 11.63000011444092
92.79000091552734 351.1099853515625 12.42000007629395
89.47000122070312 350.239990234375 12.72999954223633
87.81999969482422 349.8699951171875 11.89999961853027
93.41000366210938 351.260009765625 12.63000011444092
94.83000183105469 351.5799865722656 12.27999973297119
94.01000213623047 351.3800048828125 12.53999996185303
90.12000274658203 350.4200134277344 12.56999969482422
88.80999755859375 350.1199951171875 12.47000026702881
91.41999816894531 350.7699890136719 12.44999980926514
95.55000305175781 351.7900085449219 12.10000038146973
92.09999847412109 350.9500122070312 12.38000011444092
90.80000305175781 350.5899963378906 12.52999973297119
87.23999786376953 350.3500061035156 11.65999984741211
90.95999908447266 351.25 12.30000019073486
88.93000030517578 350.75 12.52000045776367
89.5 350.9100036621094 12.68000030517578
92.86000061035156 351.7200012207031 12.4399995803833
94.87000274658203 352.25 12.22000026702881
90.26999664306641 351.0899963378906 12.39000034332275
92.30000305175781 351.5799865722656 12.27000045776367
94.12000274658203 352.0400085449219 12.46000003814697
93.40000152587891 351.8599853515625 12.60999965667725
95.52999877929688 352.3900146484375 12.11999988555908
91.68000030517578 351.4700012207031 12.21000003814697
88.36000061035156 350.6300048828125 12.1899995803833
87.79000091552734 350.4800109863281 11.89000034332275
97.80000305175781 353 9.489999771118164
86.73000335693359 350.2300109863281 11.39999961853027
96.94000244140625 352.7999877929688 9.979999542236328
89.54000091552734 351.6600036621094 12.67000007629395
91.05000305175781 352.0400085449219 12.09000015258789
91.75 352.2099914550781 12.07999992370605
92.90000152587891 352.4599914550781 12.39000034332275
90.37999725341797 351.8399963378906 12.26000022888184
95.70999908447266 353.1700134277344 11.90999984741211
96.44999694824219 353.3800048828125 11.64999961853027
93.44999694824219 352.6300048828125 12.60999965667725
94.93000030517578 352.9599914550781 12.1899995803833
92.30000305175781 352.3099975585938 12.22999954223633
97.29000091552734 353.5899963378906 11.43000030517578
94.22000122070312 352.7799987792969 12.47999954223633
87.91000366210938 352.010009765625 11.96000003814697
87.37000274658203 351.8500061035156 11.72000026702881
88.41000366210938 352.1000061035156 12.25
89.63999938964844 352.4299926757812 12.68000030517578
86.73999786376953 351.739990234375 11.42000007629395
88.97000122070312 352.239990234375 12.52000045776367
88.98999786376953 351.510009765625 12.5
87.37999725341797 351.1300048828125 11.71000003814697
88.43000030517578 351.3500061035156 12.25
86.83999633789062 350.9700012207031 11.40999984741211
87.95999908447266 351.25 11.96000003814697
91.80000305175781 352.9700012207031 12.0600004196167
93.52999877929688 353.3699951171875 12.63000011444092
95.72000122070312 353.9100036621094 11.92000007629395
92.40000152587891 353.1000061035156 12.26000022888184
94.93000030517578 353.75 12.17000007629395
92.98000335693359 353.25 12.40999984741211
91.19999694824219 352.7999877929688 11.89000034332275
97.19999694824219 354.2999877929688 11.38000011444092
96.45999908447266 354.1300048828125 11.65999984741211
90.34999847412109 352.6199951171875 12.27000045776367
94.18000030517578 353.5299987792969 12.47000026702881
92.36000061035156 353.7799987792969 12.22999954223633
91.19999694824219 353.4599914550781 11.89000034332275
93.48999786376953 354.0599975585938 12.60999965667725
91.76000213623047 353.6000061035156 12.02999973297119
95.72000122070312 354.5899963378906 11.90999984741211
90.37000274658203 353.25 12.28999996185303
96.51000213623047 354.7900085449219 11.64000034332275
94.98999786376953 354.4400024414062 12.1899995803833
97.23999786376953 354.9700012207031 11.40999984741211
94.19999694824219 354.2000122070312 12.47999954223633
92.91999816894531 353.9100036621094 12.39000034332275
87.44000244140625 352.5599975585938 11.72000026702881
87.98000335693359 352.6700134277344 11.98999977111816
86.81999969482422 352.3900146484375 11.39999961853027
88.5 352.8200073242188 12.25
89.63999938964844 353.1000061035156 12.71000003814697
89.02999877929688 352.9100036621094 12.5600004196167
87.34999847412109 353.1400146484375 11.78999996185303
88.97000122070312 353.5799865722656 12.57999992370605
90.56999969482422 353.9599914550781 11.96000003814697
91.84999847412109 354.2799987792969 12.02000045776367
92.44000244140625 354.4200134277344 12.19999980926514
93.05000305175781 354.5799865722656 12.40999984741211
89.62000274658203 353.6900024414062 12.68000030517578
96.48999786376953 355.4100036621094 11.65999984741211
95.01000213623047 355.0599975585938 12.17000007629395
93.56999969482422 354.6900024414062 12.59000015258789
97.22000122070312 355.6099853515625 11.39000034332275
91.18000030517578 354.1000061035156 11.85999965667725
95.73999786376953 355.2300109863281 11.88000011444092
94.30999755859375 354.8800048828125 12.4399995803833
92.43000030517578 355.1700134277344 12.26000022888184
91.90000152587891 354.989990234375 12.10999965667725
93.06999969482422 355.2799987792969 12.44999980926514
94.33000183105469 355.5899963378906 12.48999977111816
93.63999938964844 355.4599914550781 12.64000034332275
91.30999755859375 354.8800048828125 11.82999992370605
96.61000061035156 356.2000122070312 11.57999992370605
97.37999725341797 356.3900146484375 11.36999988555908
95.09999847412109 355.7900085449219 12.19999980926514
95.88999938964844 356.0299987792969 11.86999988555908
93.68000030517578 356.2799987792969 12.64999961853027
95.12000274658203 356.6300048828125 12.14000034332275
96.51000213623047 356.9700012207031 11.64999961853027
93.01999664306641 356.1199951171875 12.46000003814697
94.37000274658203 356.4500122070312 12.40999984741211
95.81999969482422 356.8099975585938 11.86999988555908
97.27999877929688 357.1600036621094 11.39000034332275
93.54000091552734 356.9299926757812 12.60999965667725
94.95999908447266 357.2900085449219 12.21000003814697
95.72000122070312 357.489990234375 11.93000030517578
96.48000335693359 357.6799926757812 11.6899995803833
92.94999694824219 356.760009765625 12.4399995803833
94.23999786376953 357.0899963378906 12.47000026702881
97.22000122070312 357.8699951171875 11.40999984741211
95.76999664306641 358.1000061035156 11.9399995803833
97.22000122070312 358.4599914550781 11.42000007629395
95.08000183105469 357.8800048828125 12.14999961853027
94.36000061035156 357.7099914550781 12.42000007629395
93.58999633789062 357.510009765625 12.59000015258789
96.51000213623047 358.239990234375 11.67000007629395
94.38999938964844 358.3500061035156 12.4399995803833
95.15000152587891 358.5499877929688 12.18000030517578
93.68000030517578 358.1600036621094 12.61999988555908
96.65000152587891 358.9299926757812 11.64999961853027
95.81999969482422 358.7200012207031 11.89999961853027
97.40000152587891 359.0799865722656 11.4399995803833
94.38999938964844 359.0899963378906 12.42000007629395
93.69000244140625 358.8999938964844 12.64000034332275
97.30999755859375 359.8299865722656 11.44999980926514
95.91000366210938 359.4500122070312 11.88000011444092
96.62000274658203 359.6499938964844 11.64000034332275
95.20999908447266 359.260009765625 12.18000030517578
95.08000183105469 359.8999938964844 12.22999954223633
94.26000213623047 359.7300109863281 12.60999965667725
84.48999786376953 339.8999938964844 12.07999992370605
83.88999938964844 339.760009765625 12.1899995803833
85.33000183105469 339.3500061035156 12.30000019073486
85.98000335693359 339.5400085449219 12.19999980926514
87.09999847412109 339.7900085449219 12.0600004196167
87.70999908447266 339.9599914550781 11.96000003814697
84.16000366210938 339.1000061035156 12.5
86.47000122070312 339.6799926757812 12.10999965667725
84.76999664306641 339.2099914550781 12.38000011444092
89.62999725341797 339.8099975585938 12.56999969482422
87.91000366210938 339.3900146484375 12.21000003814697
89.01999664306641 339.6799926757812 12.39000034332275
86.76999664306641 339.1499938964844 12.39999961853027
85.08999633789062 338.7000122070312 12.55000019073486
87.33000183105469 339.2799987792969 12.31999969482422
88.48000335693359 339.5199890136719 12.22000026702881
84.48000335693359 338.5700073242188 12.52999973297119
86.26000213623047 339.0199890136719 12.5
83.94000244140625 338.4200134277344 12.60999965667725
85.62999725341797 338.8299865722656 12.55000019073486
91.52999877929688 339.7900085449219 12.10000038146973
86.44999694824219 338.510009765625 12.46000003814697
89.26000213623047 339.2300109863281 12.55000019073486
88.72000122070312 339.0599975585938 12.40999984741211
84.09999847412109 337.9400024414062 12.21000003814697
87.01000213623047 338.6199951171875 12.52999973297119
91.04000091552734 339.6600036621094 12.14000034332275
89.83999633789062 339.3599853515625 12.42000007629395
84.70999908447266 338.0799865722656 12.22000026702881
90.08000183105469 338.7799987792969 12.51000022888184
88.13999938964844 338.9200134277344 12.47000026702881
88.90000152587891 338.489990234375 12.43000030517578
87.20999908447266 338.0599975585938 12.25
88.29000091552734 338.3299865722656 12.39000034332275
90.47000122070312 339.510009765625 12.21000003814697
89.48000335693359 338.6499938964844 12.52999973297119
85.88999938964844 338.3500061035156 12.35999965667725
85.30000305175781 338.2099914550781 12.30000019073486
87.61000061035156 338.7799987792969 12.55000019073486
86.12000274658203 337.7900085449219 12.13000011444092
87.76000213623047 338.2099914550781 12.32999992370605
86.68000030517578 337.9299926757812 12.14999961853027
90.61000061035156 338.9100036621094 12.51000022888184
91.83999633789062 339.2300109863281 12.36999988555908
85.01000213623047 337.5299987792969 12.03999996185303
84.43000030517578 337.3900146484375 12
91.23000335693359 339.0899963378906 12.44999980926514
85.55999755859375 337.6700134277344 12.05000019073486
88.16000366210938 337.5599975585938 11.97999954223633
87.05999755859375 337.2900085449219 11.85999965667725
85.90000152587891 336.989990234375 11.72000026702881
87.59999847412109 337.4200134277344 11.9399995803833
86.41000366210938 337.1400146484375 11.78999996185303
85.30999755859375 336.8399963378906 11.65999984741211
90.94999694824219 338.239990234375 12.35999965667725
90.41000366210938 338.1499938964844 12.31999969482422
89.33000183105469 337.8699951171875 12.17000007629395
92.05999755859375 338.5499877929688 12.53999996185303
91.5 338.4100036621094 12.43000030517578
88.69000244140625 337.6799926757812 12.07999992370605
89.83999633789062 337.9599914550781 12.21000003814697
90.19000244140625 337.4400024414062 12.17000007629395
91.91999816894531 337.8299865722656 12.18000030517578
90.77999877929688 337.5400085449219 11.97999954223633
89.05000305175781 337.1000061035156 11.8100004196167
91.37999725341797 337.7099914550781 12.02999973297119
89.62000274658203 337.260009765625 11.97000026702881
88.44999694824219 337 11.72000026702881
86.29000091552734 336.4100036621094 11.47999954223633
85.70999908447266 336.2699890136719 11.39000034332275
87.91999816894531 336.8299865722656 11.63000011444092
87.38999938964844 336.7200012207031 11.64000034332275
86.81999969482422 336.5499877929688 11.53999996185303
91.65000152587891 337.1900024414062 11.80000019073486
90.55999755859375 336.9200134277344 11.97000026702881
88.80999755859375 336.5 11.64999961853027
87.79000091552734 336.2200012207031 11.3100004196167
89.37999725341797 336.6000061035156 11.90999984741211
89.97000122070312 336.7799987792969 12.09000015258789
87.16999816894531 336.0700073242188 11.28999996185303
88.27999877929688 336.3399963378906 11.40999984741211
91.12000274658203 337.0400085449219 11.76000022888184
91.93000030517578 336.6499938964844 11.52000045776367
90.70999908447266 336.3599853515625 11.92000007629395
89.59999847412109 336.0799865722656 12
88.44000244140625 335.760009765625 11.4399995803833
90.12999725341797 336.2099914550781 12.14000034332275
91.30999755859375 336.5 11.60999965667725
88.98999786376953 335.8900146484375 11.72000026702881
91.04000091552734 335.7200012207031 11.78999996185303
90.52999877929688 335.5799865722656 12.01000022888184
91.65000152587891 335.8299865722656 11.48999977111816
89.36000061035156 335.2699890136719 11.90999984741211
89.87000274658203 335.4400024414062 12.14000034332275
88.80000305175781 335.1400146484375 11.64000034332275
88.27999877929688 334.989990234375 11.38000011444092
91.44000244140625 335.1600036621094 11.57999992370605
92.06999969482422 335.2699890136719 11.39000034332275
91.80000305175781 334.6099853515625 11.43000030517578
90.66999816894531 334.3399963378906 11.98999977111816
91.23999786376953 334.4400024414062 11.71000003814697
90.06999969482422 334.1600036621094 12.18000030517578
90.84999847412109 335 11.84000015258789
89.66999816894531 334.6900024414062 12.03999996185303
89.12999725341797 334.5499877929688 11.81999969482422
88.51999664306641 334.3999938964844 11.52000045776367
90.30000305175781 334.8699951171875 12.11999988555908
89.48000335693359 334.0400085449219 11.94999980926514
88.37999725341797 333.760009765625 11.47000026702881
88.93000030517578 333.8999938964844 11.71000003814697
91.51999664306641 333.8500061035156 11.52999973297119
90.91999816894531 333.7000122070312 11.77000045776367
92.02999877929688 340.4299926757812 11.71000003814697
91.38999938964844 340.2799987792969 11.82999992370605
90.20999908447266 339.989990234375 12.22000026702881
92.19000244140625 340.4100036621094 9.149999618530273
90.77999877929688 340.1400146484375 11.97000026702881
89.88999938964844 340.5 12.39000034332275
89.37000274658203 340.3500061035156 12.56999969482422
88.26999664306641 340.0700073242188 12.02000045776367
91.65000152587891 340.9400024414062 11.5600004196167
92.36000061035156 341.0599975585938 9.369999885559082
90.55000305175781 340.6700134277344 12.06999969482422
88.76000213623047 340.2099914550781 12.26000022888184
91.06999969482422 340.7999877929688 11.76000022888184
91.98000335693359 341.7300109863281 11.3100004196167
92.11000061035156 341.7699890136719 9.189999580383301
91.34999847412109 341.5799865722656 11.64999961853027
87.90000152587891 340.739990234375 11.8100004196167
86.20999908447266 340.3099975585938 11.85000038146973
88.98000335693359 341 12.43000030517578
85.62000274658203 340.1600036621094 11.92000007629395
88.38999938964844 340.8500061035156 12.02999973297119
87.33000183105469 340.6000061035156 11.78999996185303
86.80000305175781 340.4700012207031 11.80000019073486
85.05999755859375 340.0199890136719 11.98999977111816
90.18000030517578 341.2900085449219 12.27999973297119
89.51000213623047 341.1600036621094 12.55000019073486
90.70999908447266 341.4599914550781 11.97999954223633
88.90000152587891 340.989990234375 13.25
92.75 342.5899963378906 11
91.58000183105469 342.3099975585938 11.52000045776367
88.19999694824219 341.4800109863281 11.94999980926514
88.73000335693359 341.6099853515625 12.1899995803833
92.22000122070312 342.4800109863281 11.07999992370605
90.44999694824219 342.0400085449219 12.10999965667725
91.02999877929688 342.1799926757812 11.77999973297119
86.5 341.0499877929688 11.64999961853027
84.15000152587891 340.4599914550781 11.85999965667725
89.26000213623047 341.739990234375 12.52000045776367
85.94000244140625 340.9299926757812 11.71000003814697
84.70999908447266 340.6099853515625 11.77000045776367
87.68000030517578 341.3500061035156 11.77999973297119
85.31999969482422 340.7999877929688 11.78999996185303
87.02999877929688 341.2099914550781 11.65999984741211
89.83999633789062 341.9200134277344 12.40999984741211
93.04000091552734 343.2799987792969 11.31999969482422
93.16999816894531 343.2799987792969 9.619999885559082
90.11000061035156 342.5899963378906 12.27999973297119
88.91999816894531 342.2699890136719 12.38000011444092
88.36000061035156 342.1600036621094 12.0600004196167
91.33000183105469 342.8500061035156 11.65999984741211
89.51000213623047 342.4599914550781 12.56999969482422
91.97000122070312 343.0400085449219 11.35999965667725
92.51000213623047 343.1700134277344 11.22999954223633
86.76000213623047 341.7300109863281 11.60999965667725
90.72000122070312 342.7099914550781 11.78999996185303
83.94000244140625 341.0299987792969 11.65999984741211
85.09999847412109 341.3399963378906 11.68000030517578
86.23000335693359 341.5799865722656 11.59000015258789
87.29000091552734 341.8900146484375 11.6899995803833
84.47000122070312 341.1600036621094 11.65999984741211
85.58999633789062 341.4700012207031 11.61999988555908
87.83000183105469 341.989990234375 11.82999992370605
91.48999786376953 343.5299987792969 11.60000038146973
89.70999908447266 343.1000061035156 12.5
88.11000061035156 342.7200012207031 11.85000038146973
90.91999816894531 343.3999938964844 11.82999992370605
92.01000213623047 343.6900024414062 11.5
87.55999755859375 342.5799865722656 11.73999977111816
84.63999938964844 341.8399963378906 11.52000045776367
88.61000061035156 342.8200073242188 12.18000030517578
85.81999969482422 342.1499938964844 11.46000003814697
89.18000030517578 342.9700012207031 12.48999977111816
86.98999786376953 342.4500122070312 11.63000011444092
92.62000274658203 343.8299865722656 11.5
86.37000274658203 342.260009765625 11.48999977111816
85.25 342 11.51000022888184
84.05000305175781 341.6799926757812 11.61999988555908
90.33000183105469 343.2799987792969 12.22999954223633
83.81999969482422 342.3500061035156 11.40999984741211
93.01000213623047 344.5899963378906 9.789999961853027
91.19999694824219 344.1600036621094 11.75
92.88999938964844 344.6099853515625 11.80000019073486
88.84999847412109 343.6099853515625 12.22999954223633
92.52999877929688 344.5 9.079999923706055
90.55999755859375 344.0199890136719 12.02000045776367
86.62000274658203 343.0700073242188 11.56999969482422
86.09999847412109 342.8999938964844 11.43000030517578
89.38999938964844 343.7200012207031 12.59000015258789
88.22000122070312 343.4599914550781 11.96000003814697
87.13999938964844 343.1900024414062 11.68000030517578
84.36000061035156 342.4700012207031 11.35999965667725
91.79000091552734 344.3299865722656 11.73999977111816
92.33000183105469 344.4500122070312 11.77999973297119
87.75 343.3299865722656 11.77999973297119
90.02999877929688 343.8900146484375 12.30000019073486
84.91999816894531 342.6400146484375 11.39000034332275
91.98000335693359 345.0299987792969 11.47999954223633
88.01999664306641 344.0599975585938 11.89999961853027
92.18000030517578 345.0199890136719 9.010000228881836
87.48999786376953 343.9200134277344 11.73999977111816
90.84999847412109 344.7300109863281 12.0600004196167
91.43000030517578 344.8599853515625 11.8100004196167
92.73000335693359 345.1600036621094 9.060000419616699
89.68000030517578 344.4400024414062 12.56999969482422
85.76999664306641 343.489990234375 11.31999969482422
89.15000152587891 344.3299865722656 12.39000034332275
93.93000030517578 345.4500122070312 8.890000343322754
86.87999725341797 343.7799987792969 11.64000034332275
90.30999755859375 344.6199951171875 12.28999996185303
86.33000183105469 343.6099853515625 11.48999977111816
92.66000366210938 345.1799926757812 9.880000114440918
88.58000183105469 344.1700134277344 12.13000011444092
95.48999786376953 345.8999938964844 11.53999996185303
95.08999633789062 345.739990234375 8.840000152587891
94.31999969482422 345.6099853515625 11.4399995803833
93.98999786376953 346.1099853515625 11.57999992370605
95.12000274658203 346.4299926757812 11.64000034332275
94.56999969482422 346.2699890136719 11.61999988555908
92.30000305175781 345.6900024414062 11.47000026702881
94.51000213623047 345.6000061035156 9.119999885559082
94.90000152587891 345.739990234375 11.40999984741211
90.51999664306641 345.2699890136719 12.25
89.37000274658203 345.010009765625 12.69999980926514
88.75 344.8500061035156 12.36999988555908
92.48000335693359 345.7099914550781 9.029999732971191
86.08999633789062 344.1799926757812 11.42000007629395
86.56999969482422 344.3099975585938 11.56999969482422
92.86000061035156 345.8599853515625 11.44999980926514
87.13999938964844 344.4200134277344 11.68000030517578
88.23000335693359 344.7099914550781 12.07999992370605
87.69000244140625 344.5700073242188 11.80000019073486
91.75 345.5599975585938 11.63000011444092
91.13999938964844 345.4100036621094 11.93000030517578
89.94999694824219 345.1199951171875 12.56999969482422
93.43000030517578 345.9700012207031 11.56999969482422
94.68000030517578 346.989990234375 11.84000015258789
95.23000335693359 347.1499938964844 11.93000030517578
92.91999816894531 346.5799865722656 11.73999977111816
90.69000244140625 346.0299987792969 12.1899995803833
89.48999786376953 345.7099914550781 12.72000026702881
93.52999877929688 346.7300109863281 11.77000045776367
88.36000061035156 345.4500122070312 12.1899995803833
91.23000335693359 346.1300048828125 11.89999961853027
94.11000061035156 346.8500061035156 11.80000019073486
91.81999969482422 346.2799987792969 11.64000034332275
86.76000213623047 345.0199890136719 11.35000038146973
87.31999969482422 345.1499938964844 11.64999961853027
88.98999786376953 345.5799865722656 12.4399995803833
90.12999725341797 345.8900146484375 12.47999954223633
87.84999847412109 345.3200073242188 11.89999961853027
92.33999633789062 346.4299926757812 11.64000034332275
94.33999633789062 347.7000122070312 12.05000019073486
92.59999847412109 347.239990234375 11.9399995803833
93.19999694824219 347.3900146484375 11.94999980926514
91.5 346.9599914550781 11.85000038146973
95.45999908447266 347.9599914550781 12.14999961853027
90.29000091552734 346.6700134277344 12.35000038146973
87.98999786376953 346.0899963378906 11.97999954223633
89.73000335693359 346.5599975585938 12.65999984741211
90.94999694824219 346.8500061035156 12.03999996185303
94.87999725341797 347.7900085449219 12.10000038146973
92.11000061035156 347.1300048828125 11.86999988555908
86.94000244140625 345.8200073242188 11.39999961853027
88.58999633789062 346.239990234375 12.27000045776367
89.13999938964844 346.3699951171875 12.57999992370605
87.47000122070312 345.9800109863281 11.71000003814697
93.72000122070312 347.5499877929688 12.02999973297119
95.16000366210938 348.5199890136719 12.34000015258789
90.62000274658203 347.4100036621094 12.1899995803833
91.12999725341797 347.5400085449219 12.02000045776367
90.05000305175781 347.2699890136719 12.5
94.58000183105469 348.3699951171875 12.22999954223633
92.83000183105469 347.9400024414062 12.14000034332275
94.02999877929688 348.239990234375 12.22999954223633
91.68000030517578 347.6499938964844 12.0600004196167
87.25 346.5499877929688 11.59000015258789
88.33000183105469 346.8200073242188 12.11999988555908
86.69000244140625 346.3999938964844 11.32999992370605
92.29000091552734 347.8200073242188 12.07999992370605
88.91000366210938 346.989990234375 12.40999984741211
93.41000366210938 348.1099853515625 12.18000030517578
87.80000305175781 346.6799926757812 11.92000007629395
89.38999938964844 347.1199951171875 12.6899995803833
95.56999969482422 349.1900024414062 10.0600004196167
95.41000366210938 349.1499938964844 12.52000045776367
93.72000122070312 348.75 12.39000034332275
89.75 347.760009765625 12.63000011444092
89.18000030517578 347.6199951171875 12.5600004196167
94.33000183105469 348.8999938964844 12.42000007629395
91.5 348.1700134277344 12.21000003814697
90.30000305175781 347.8800048828125 12.34000015258789
93.18000030517578 348.5899963378906 12.31999969482422
88.01999664306641 347.3099975585938 11.96000003814697
92.58000183105469 348.4700012207031 12.27999973297119
87.48999786376953 347.1900024414062 11.69999980926514
90.87999725341797 348.0499877929688 12.15999984741211
88.58999633789062 347.4700012207031 12.25
92.05000305175781 348.2999877929688 12.26000022888184
86.94000244140625 347.0299987792969 11.44999980926514
94.84999847412109 349.0499877929688 12.52000045776367
95.01000213623047 349.7000122070312 12.71000003814697
94.41000366210938 349.5499877929688 12.65999984741211
92.08999633789062 349 12.4399995803833
93.87999725341797 349.4200134277344 12.60999965667725
95.72000122070312 349.8500061035156 11.07999992370605
90.47000122070312 348.5899963378906 12.31999969482422
93.30000305175781 349.2900085449219 12.5
86.58999633789062 347.6099853515625 11.26000022888184
92.69999694824219 349.1300048828125 12.5
89.30999755859375 348.2900085449219 12.64999961853027
91.59999847412109 348.8699951171875 12.4399995803833
91.01999664306641 348.7000122070312 12.32999992370605
88.77999877929688 348.1400146484375 12.39999961853027
88.20999908447266 348 12.10999965667725
89.87999725341797 348.4599914550781 12.57999992370605
87.13999938964844 347.760009765625 11.5600004196167
87.66000366210938 347.8599853515625 11.81999969482422
94.05000305175781 350.25 12.61999988555908
95.16999816894531 350.489990234375 12.60000038146973
91.80000305175781 349.6600036621094 12.64000034332275
89.48999786376953 349.1000061035156 12.71000003814697
92.33000183105469 349.8299865722656 12.75
92.88999938964844 349.9599914550781 12.72000026702881
90.65000152587891 349.3699951171875 12.57999992370605
91.23000335693359 349.5400085449219 12.61999988555908
88.31999969482422 348.8200073242188 12.13000011444092
94.62000274658203 350.3800048828125 12.59000015258789
87.76999664306641 348.6600036621094 11.88000011444092
88.91000366210938 348.9500122070312 12.43000030517578
93.44000244140625 350.0700073242188 12.6899995803833
86.69000244140625 348.4100036621094 11.3100004196167
87.26999664306641 348.5499877929688 11.63000011444092
90.02999877929688 349.2200012207031 12.57999992370605
95.45999908447266 351.260009765625 12.34000015258789
94.83999633789062 351.1099853515625 12.36999988555908
93.08999633789062 350.7099914550781 12.5600004196167
91.33000183105469 350.260009765625 12.60999965667725
90.79000091552734 350.1400146484375 12.72000026702881
94.27999877929688 350.989990234375 12.47000026702881
91.94000244140625 350.3900146484375 12.59000015258789
89.09999847412109 349.6900024414062 12.56999969482422
88.62000274658203 349.5799865722656 12.27999973297119
90.23000335693359 349.989990234375 12.73999977111816
86.94999694824219 349.1400146484375 11.43000030517578
89.69999694824219 349.8699951171875 12.75
93.66999816894531 350.8099975585938 12.64999961853027
88.04000091552734 349.4100036621094 11.97999954223633
95.65000152587891 351.2699890136719 9.939999580383301
92.5 350.5299987792969 12.53999996185303
87.52999877929688 349.2999877929688 11.72999954223633
95.08000183105469 351.760009765625 12.27000045776367
93.94999694824219 351.510009765625 12.60000038146973
93.33999633789062 351.3599853515625 12.52000045776367
91.12000274658203 350.7799987792969 12.47000026702881
95.62999725341797 351.8900146484375 12.10999965667725
89.38999938964844 350.3500061035156 12.68000030517578
88.83000183105469 350.2300109863281 12.35999965667725
92.20999908447266 351.0799865722656 12.39000034332275
95.75 351.8900146484375 10.73999977111816
88.23999786376953 350.0599975585938 12.11999988555908
87.69000244140625 349.9400024414062 11.80000019073486
92.81999969482422 351.2300109863281 12.39000034332275
94.51000213623047 351.6099853515625 12.43000030517578
91.69000244140625 350.9200134277344 12.42000007629395
86.61000061035156 349.6300048828125 11.36999988555908
89.93000030517578 350.489990234375 12.60999965667725
87.12999725341797 349.7999877929688 11.53999996185303
90.55999755859375 350.6400146484375 12.52000045776367
97.19999694824219 352.8900146484375 9.880000114440918
93.55000305175781 352.0499877929688 12.65999984741211
94.12000274658203 352.1499938964844 12.5
97.76000213623047 353.010009765625 9.600000381469727
91.80999755859375 351.5799865722656 12.1899995803833
91.26000213623047 351.4500122070312 12.27000045776367
88.44000244140625 350.7699890136719 12.22000026702881
90.68000030517578 351.2900085449219 12.35000038146973
93 351.8900146484375 12.40999984741211
87.90000152587891 350.6099853515625 11.89999961853027
86.84999847412109 350.3299865722656 11.39000034332275
95.33999633789062 352.4700012207031 12.11999988555908
90.15000152587891 351.1600036621094 12.46000003814697
92.40000152587891 351.760009765625 12.25
89.55999755859375 351.0299987792969 12.71000003814697
87.34999847412109 350.489990234375 11.64999961853027
94.75 352.3099975585938 12.32999992370605
