191.5800018310547 496.8699951171875 17.28000068664551
194.4100036621094 496.1900024414062 17.48999977111816
193.8899993896484 496.2999877929688 17.40999984741211
182.7700042724609 499.0799865722656 18.32999992370605
194.6999969482422 496.1199951171875 15.73999977111816
190.3600006103516 497.2099914550781 17.18000030517578
186.1499938964844 498.2000122070312 18.67000007629395
192.6900024414062 496.6199951171875 17.35000038146973
192.1199951171875 496.7799987792969 17.30999946594238
190.75 497.1400146484375 14.8100004196167
183.3000030517578 498.9200134277344 18.42000007629395
195 496.0199890136719 17.60000038146973
194.8500061035156 496.1000061035156 14.64999961853027
184.3500061035156 499.3800048828125 18.27000045776367
183.2200012207031 499.6700134277344 18.15999984741211
182.6600036621094 499.8099975585938 18.10000038146973
183.8300018310547 499.5499877929688 18.26000022888184
186 499 18.3799991607666
186.6300048828125 498.8200073242188 18.40999984741211
187.2299957275391 498.6700134277344 18.39999961853027
184.9400024414062 499.2300109863281 18.30999946594238
187.7599945068359 498.5499877929688 18.46999931335449
191.25 497.7000122070312 14.76000022888184
182.1300048828125 499.9700012207031 18.04000091552734
192.3600006103516 497.4299926757812 14.72000026702881
188.3999938964844 498.4100036621094 18.55999946594238
190.1100006103516 497.989990234375 14.89000034332275
190.6399993896484 497.8599853515625 14.94999980926514
193.7299957275391 497.0599975585938 17.20000076293945
193.1900024414062 497.239990234375 17.20000076293945
185.5 499.1000061035156 18.31999969482422
194.8699951171875 496.7799987792969 17.26000022888184
194.5200042724609 496.8800048828125 15.76000022888184
194.3399963378906 496.9400024414062 17.09000015258789
194.7100067138672 496.8900146484375 14.73999977111816
193.5299987792969 497.1400146484375 14.73999977111816
188.9299926757812 498.2699890136719 18.6200008392334
192.6100006103516 497.3699951171875 17.09000015258789
189.4900054931641 498.1400146484375 14.9399995803833
192.9499969482422 497.2799987792969 14.69999980926514
192.0200042724609 497.5 17.07999992370605
191.7799987792969 497.6000061035156 14.72000026702881
188.8500061035156 498.9500122070312 18.36000061035156
188.2799987792969 499.0899963378906 18.35000038146973
189.9700012207031 498.7200012207031 14.77000045776367
193.4799957275391 497.8699951171875 14.6899995803833
194.8699951171875 497.5 17.09000015258789
192.2899932861328 498.1300048828125 14.75
192.8500061035156 498.0199890136719 14.71000003814697
190.5500030517578 498.5700073242188 14.78999996185303
194.5500030517578 497.5700073242188 15.52000045776367
193.9499969482422 497.7200012207031 15.43000030517578
194.6600036621094 497.5400085449219 14.71000003814697
191.7200012207031 498.2900085449219 14.72000026702881
191.0599975585938 498.4700012207031 14.73999977111816
186.5899963378906 499.5400085449219 18.19000053405762
187.1399993896484 499.4100036621094 18.20999908447266
187.7200012207031 499.2300109863281 18.29000091552734
186.0599975585938 499.6499938964844 18.13999938964844
184.9199981689453 499.9400024414062 18.06999969482422
185.4799957275391 499.8099975585938 18.10000038146973
194.8500061035156 498.1099853515625 15.69999980926514
188.1600036621094 499.7200012207031 18.1200008392334
189.8600006103516 499.3299865722656 14.80000019073486
191.5599975585938 498.9200134277344 14.72000026702881
192.6699981689453 498.6400146484375 14.6899995803833
193.7799987792969 498.3800048828125 14.88000011444092
192.1199951171875 498.7699890136719 14.75
190.4400024414062 499.1900024414062 14.77000045776367
193.2899932861328 498.489990234375 14.6899995803833
194.3099975585938 498.239990234375 15.47999954223633
191.0200042724609 499.0799865722656 14.77999973297119
187.5599975585938 499.8999938964844 18.04999923706055
188.7100067138672 499.5799865722656 18.15999984741211
189.25 499.5 14.6899995803833
191.3000030517578 499.6400146484375 14.75
191.9299926757812 499.4800109863281 14.73999977111816
193.6600036621094 499.0499877929688 14.72999954223633
193.5399932861328 499.0799865722656 15.5
194.7100067138672 498.7900085449219 15.76000022888184
194.1799926757812 498.9100036621094 15.4399995803833
190.7899932861328 499.7999877929688 14.75
190.2100067138672 499.9299926757812 14.75
194.8999938964844 498.760009765625 14.5600004196167
193.1100006103516 499.2300109863281 14.71000003814697
192.5399932861328 499.3800048828125 14.76000022888184
192.9600067138672 499.9500122070312 14.73999977111816
194.7299957275391 499.5199890136719 14.73999977111816
194.5800018310547 499.5400085449219 15.8100004196167
194.1100006103516 499.6600036621094 14.72999954223633
193.5700073242188 499.8099975585938 14.71000003814697
194.7400054931641 499.6700134277344 15.77999973297119
194.5899963378906 499.6900024414062 14.75
193.9900054931641 499.8800048828125 14.68000030517578
195.0899963378906 499.5899963378906 14.59000015258789
194.7100067138672 498.9800109863281 14.68000030517578
193.6199951171875 499.260009765625 14.81999969482422
194.2299957275391 499.0799865722656 15.3100004196167
191.9199981689453 499.6600036621094 14.76000022888184
190.7899932861328 499.989990234375 14.78999996185303
191.3200073242188 499.8099975585938 14.73999977111816
192.4700012207031 499.5499877929688 14.73999977111816
193.0700073242188 499.3699951171875 14.6899995803833
194.6600036621094 498.1799926757812 11.97999954223633
193.8099975585938 498.4100036621094 14.77999973297119
192.6999969482422 498.7000122070312 14.69999980926514
190.3399963378906 499.2999877929688 14.76000022888184
190.8800048828125 499.1400146484375 14.75
194.9600067138672 498.1000061035156 14.60999965667725
189.0899963378906 499.6300048828125 18.09000015258789
188.75 499.6900024414062 15.52000045776367
192.0800018310547 498.8599853515625 14.71000003814697
187.9199981689453 499.9299926757812 18
193.2299957275391 498.5799865722656 14.72999954223633
188.5399932861328 499.7799987792969 18.06999969482422
189.2299957275391 499.5599975585938 14.81999969482422
189.7899932861328 499.4400024414062 14.77000045776367
194.5299987792969 498.2099914550781 15.65999984741211
191.4600067138672 499.010009765625 14.73999977111816
194.0200042724609 498.3599853515625 16.1200008392334
185.8099975585938 499.75 18.1200008392334
185.3000030517578 499.9100036621094 18.11000061035156
187.5399932861328 499.2999877929688 18.21999931335449
186.9299926757812 499.4500122070312 18.18000030517578
186.4100036621094 499.6000061035156 18.1299991607666
194.6499938964844 497.4599914550781 15.77000045776367
195.1000061035156 497.3399963378906 14.59000015258789
194.0899963378906 497.6099853515625 15.38000011444092
191.75 498.2000122070312 14.72999954223633
192.8899993896484 497.9100036621094 14.72000026702881
190.0099945068359 498.6300048828125 14.80000019073486
194.5200042724609 497.4800109863281 14.72999954223633
190.5899963378906 498.489990234375 14.75
192.25 498.0899963378906 14.71000003814697
188.7899932861328 499.0199890136719 18.29000091552734
191.1399993896484 498.3500061035156 14.72999954223633
188.8800048828125 498.9599914550781 15.27999973297119
193.4400024414062 497.760009765625 14.72999954223633
194.8500061035156 497.4800109863281 17.10000038146973
188.1300048828125 499.1499938964844 18.29999923706055
189.4499969482422 498.7699890136719 14.92000007629395
194.5200042724609 496.8500061035156 12.30000019073486
193.6799926757812 497.1000061035156 14.71000003814697
194.3099975585938 496.9200134277344 14.68000030517578
192.8399963378906 497.3500061035156 17.1299991607666
194.5899963378906 496.8999938964844 17.1299991607666
191.3500061035156 497.7000122070312 14.73999977111816
193.3999938964844 497.2000122070312 17.18000030517578
190.75 497.8200073242188 14.77000045776367
194.0399932861328 497.0499877929688 17.20999908447266
194.8600006103516 496.8099975585938 14.59000015258789
190.2400054931641 497.9800109863281 15.17000007629395
192.2599945068359 497.4800109863281 17.1299991607666
188.6000061035156 498.3699951171875 15.25
187.2700042724609 498.7699890136719 18.40999984741211
185.5700073242188 499.1799926757812 18.35000038146973
188.4700012207031 498.4800109863281 18.47999954223633
186.7200012207031 498.8999938964844 18.3700008392334
184.9499969482422 499.3599853515625 18.28000068664551
189.1699981689453 498.2699890136719 15.40999984741211
189.0200042724609 498.3299865722656 18.48999977111816
192.5599975585938 497.3599853515625 14.73999977111816
193.1300048828125 497.260009765625 14.78999996185303
187.9100036621094 498.6199951171875 18.43000030517578
186.1799926757812 499.0400085449219 18.32999992370605
191.9299926757812 497.5199890136719 14.73999977111816
184.3999938964844 499.4700012207031 18.22999954223633
183.8200073242188 499.6600036621094 18.14999961853027
189.6399993896484 498.1099853515625 14.78999996185303
182.5899963378906 499.9599914550781 18.04000091552734
183.1900024414062 499.7900085449219 18.1299991607666
194.8099975585938 496.1300048828125 17.35000038146973
194.2599945068359 496.2900085449219 17.45000076293945
194.9600067138672 496.0700073242188 14.56999969482422
194.4400024414062 496.2099914550781 14.6899995803833
190.8200073242188 497.1300048828125 17.20000076293945
194.6100006103516 496.1600036621094 15.75
191.0299987792969 497.0400085449219 14.64000034332275
193.7100067138672 496.4299926757812 17.3700008392334
189.9499969482422 497.3200073242188 14.81999969482422
191.3600006103516 497.0299987792969 17.25
192.5599975585938 496.7300109863281 17.31999969482422
188.7400054931641 497.7200012207031 18.81999969482422
193.1100006103516 496.5599975585938 17.35000038146973
193.8699951171875 496.3299865722656 14.67000007629395
190.5200042724609 497.1799926757812 14.89000034332275
190.2799987792969 497.2799987792969 17.11000061035156
189.3999938964844 497.4599914550781 15.35999965667725
191.9400024414062 496.8699951171875 17.25
186.3600006103516 498.2799987792969 18.6200008392334
186.9199981689453 498.1499938964844 18.6200008392334
188.1600036621094 497.8699951171875 18.75
185.8300018310547 498.4299926757812 18.56999969482422
189.6699981689453 497.4599914550781 17.1200008392334
188.8300018310547 497.6499938964844 15.43000030517578
181.8200073242188 499.4800109863281 18.25
185.25 498.5799865722656 18.5
181.2200012207031 499.5899963378906 18.17000007629395
184.6900024414062 498.7000122070312 18.51000022888184
182.3600006103516 499.2999877929688 18.27000045776367
180.0599975585938 499.9100036621094 18.06999969482422
183.5500030517578 498.989990234375 18.3799991607666
184.0599975585938 498.8900146484375 18.40999984741211
180.5700073242188 499.7699890136719 18.1200008392334
182.8999938964844 499.1499938964844 18.35000038146973
187.5 498 18.64999961853027
194.4700012207031 495.4599914550781 17.75
193.2799987792969 495.7699890136719 17.63999938964844
195.0399932861328 495.3599853515625 17.75
194.1000061035156 495.5199890136719 14.82999992370605
193.8800048828125 495.6199951171875 17.68000030517578
192.6799926757812 495.9400024414062 17.56999969482422
189.25 496.7900085449219 17.38999938964844
191.5099945068359 496.2200012207031 17.45999908447266
189.7799987792969 496.6499938964844 17.36000061035156
190.9100036621094 496.3699951171875 17.42000007629395
187.7599945068359 497.2000122070312 18.88999938964844
186.5899963378906 497.489990234375 18.84000015258789
185.4199981689453 497.7799987792969 18.78000068664551
184.8099975585938 497.9299926757812 18.73999977111816
192.1000061035156 496.1000061035156 17.54999923706055
183.6399993896484 498.2200012207031 18.64999961853027
184.2799987792969 498.0700073242188 18.70000076293945
183.0500030517578 498.4100036621094 18.60000038146973
186.0299987792969 497.6300048828125 18.79000091552734
182.4499969482422 498.5299987792969 18.56999969482422
194.7899932861328 495.3900146484375 15.80000019073486
181.8999938964844 498.6900024414062 18.47999954223633
181.3399963378906 498.8200073242188 18.44000053405762
177.8800048828125 499.7099914550781 18.18000030517578
187.1300048828125 497.3399963378906 18.89999961853027
180.7799987792969 498.9599914550781 18.40999984741211
179.0399932861328 499.3900146484375 18.29999923706055
194.6499938964844 495.4200134277344 14.67000007629395
179.6499938964844 499.25 18.32999992370605
188.8800048828125 496.9200134277344 18.79999923706055
177.3600006103516 499.8299865722656 18.1200008392334
178.4799957275391 499.5700073242188 18.21999931335449
190.3500061035156 496.5499877929688 17.40999984741211
180.1999969482422 499.1300048828125 18.3799991607666
188.2899932861328 497.0499877929688 18.89999961853027
178.6000061035156 498.8299865722656 18.48999977111816
176.8800048828125 499.2999877929688 18.32999992370605
178 498.9800109863281 18.45000076293945
177.4499969482422 499.1199951171875 18.3799991607666
193.4799957275391 495.0499877929688 17.86000061035156
192.9100036621094 495.1900024414062 17.81999969482422
194.6900024414062 494.7300109863281 14.64000034332275
195.1399993896484 494.6300048828125 17.8799991607666
188.9900054931641 496.2000122070312 18.56999969482422
194.0399932861328 494.8999938964844 17.95999908447266
191.1499938964844 495.6400146484375 17.67000007629395
191.7599945068359 495.489990234375 17.71999931335449
187.8200073242188 496.5 18.64999961853027
189.4299926757812 496.0700073242188 17.59000015258789
185.5599975585938 497.0700073242188 18.90999984741211
188.4400024414062 496.3299865722656 18.6299991607666
188.8500061035156 496.2300109863281 17.54000091552734
186.6699981689453 496.7900085449219 18.77000045776367
190.5800018310547 495.8099975585938 17.63999938964844
186.1100006103516 496.9299926757812 18.86000061035156
183.3000030517578 497.6400146484375 18.84000015258789
182.7200012207031 497.7999877929688 18.78000068664551
180.9700012207031 498.2300109863281 18.67000007629395
179.2100067138672 498.6700134277344 18.52000045776367
184.4700012207031 497.3500061035156 18.94000053405762
179.8099975585938 498.5499877929688 18.55999946594238
181.5899963378906 498.0799865722656 18.70000076293945
182.1399993896484 497.9700012207031 18.78000068664551
183.8899993896484 497.5 18.88999938964844
180.3899993896484 498.3900146484375 18.61000061035156
194.6000061035156 494.7999877929688 18
192.3300018310547 495.3699951171875 17.77000045776367
187.2299957275391 496.6600036621094 18.72999954223633
185.0099945068359 497.2099914550781 18.90999984741211
190.0399932861328 495.9500122070312 17.56999969482422
194.6999969482422 494.1099853515625 11.85999965667725
194.3500061035156 494.2699890136719 17.79000091552734
193.1399993896484 494.5799865722656 17.94000053405762
194.9199981689453 494.1300048828125 17.70000076293945
194.6300048828125 494.1700134277344 15.72999954223633
194.5099945068359 494.1900024414062 14.78999996185303
192.6100006103516 494.7099914550781 17.97999954223633
193.7799987792969 494.4200134277344 17.81999969482422
189.6699981689453 495.4599914550781 17.79999923706055
186.3899993896484 496.2799987792969 18.56999969482422
190.25 495.2999877929688 17.79000091552734
185.8600006103516 496.4100036621094 18.61000061035156
188.6900024414062 495.7200012207031 18.3799991607666
188.0800018310547 495.8699951171875 18.45999908447266
187.5200042724609 495.9800109863281 18.46999931335449
182.9299926757812 497.1900024414062 18.93000030517578
184.1199951171875 496.8599853515625 18.76000022888184
191.4400024414062 494.989990234375 17.89999961853027
190.7899932861328 495.1700134277344 17.86000061035156
183.5800018310547 497.0199890136719 18.81999969482422
192.0299987792969 494.8599853515625 17.94000053405762
184.7100067138672 496.739990234375 18.76000022888184
179.5099945068359 498.0499877929688 18.73999977111816
177.8399963378906 498.489990234375 18.63999938964844
181.25 497.6199951171875 18.8700008392334
182.3699951171875 497.2999877929688 18.95000076293945
180.6799926757812 497.7300109863281 18.84000015258789
186.9700012207031 496.1300048828125 18.51000022888184
178.3899993896484 498.3399963378906 18.65999984741211
180.1600036621094 497.8699951171875 18.77000045776367
189.1799926757812 495.5499877929688 17.81999969482422
179.0099945068359 498.1799926757812 18.70999908447266
176.6699981689453 498.7799987792969 18.51000022888184
181.8000030517578 497.4400024414062 18.94000053405762
185.25 496.5899963378906 18.70000076293945
177.2299957275391 498.6300048828125 18.56999969482422
195.0500030517578 494.0599975585938 14.55000019073486
194.8399963378906 493.4400024414062 15.78999996185303
194.5399932861328 493.5700073242188 17.54000091552734
193.9700012207031 493.6900024414062 17.6200008392334
194.6799926757812 493.5 14.64999961853027
191.1799926757812 494.4100036621094 17.86000061035156
191.7599945068359 494.2799987792969 17.80999946594238
189.4600067138672 494.8699951171875 18.04999923706055
187.1900024414062 495.4500122070312 18.20999908447266
192.3099975585938 494.1400146484375 17.76000022888184
193.4199981689453 493.8500061035156 17.64999961853027
190.6000061035156 494.5499877929688 17.93000030517578
188.3600006103516 495.1300048828125 18.18000030517578
188.9199981689453 495.0199890136719 18.1200008392334
192.8699951171875 493.9599914550781 17.70999908447266
186.5700073242188 495.6099853515625 18.34000015258789
183.8200073242188 496.2900085449219 18.54000091552734
195.0500030517578 493.4100036621094 17.42000007629395
190.1000061035156 494.6799926757812 17.96999931335449
186.0599975585938 495.739990234375 18.3700008392334
180.3999938964844 497.1600036621094 18.89999961853027
181.5899963378906 496.8500061035156 18.85000038146973
181 497.010009765625 18.80999946594238
183.2799987792969 496.4599914550781 18.67000007629395
184.3999938964844 496.1300048828125 18.54999923706055
187.7400054931641 495.2999877929688 18.20999908447266
179.8800048828125 497.2999877929688 18.93000030517578
176.9600067138672 498.0700073242188 18.79000091552734
190.75 494.4599914550781 14.73999977111816
177.5099945068359 497.8999938964844 18.78000068664551
178.6399993896484 497.6000061035156 18.89999961853027
182.6600036621094 496.5700073242188 18.68000030517578
182.1199951171875 496.75 18.77000045776367
184.9299926757812 496.0199890136719 18.45000076293945
179.2899932861328 497.4700012207031 18.90999984741211
178.0599975585938 497.739990234375 18.85000038146973
185.5099945068359 495.8800048828125 18.39999961853027
194.2200012207031 492.9599914550781 17.3799991607666
193.0599975585938 493.2300109863281 17.44000053405762
190.3500061035156 493.8800048828125 14.65999984741211
191.9400024414062 493.510009765625 17.57999992370605
189.6699981689453 494.0899963378906 17.82999992370605
193.6199951171875 493.1099853515625 17.43000030517578
191.3399963378906 493.6700134277344 17.61000061035156
192.5200042724609 493.3900146484375 17.5
194.75 492.7799987792969 17.30999946594238
186.3200073242188 494.9700012207031 18.04999923706055
184.5800018310547 495.4200134277344 18.23999977111816
189.8099975585938 494.0199890136719 14.80000019073486
187.4100036621094 494.6900024414062 18
184.0599975585938 495.5499877929688 18.28000068664551
182.2299957275391 496.0199890136719 18.48999977111816
181.1300048828125 496.2999877929688 18.61000061035156
180.6100006103516 496.4299926757812 18.65999984741211
187.9799957275391 494.5599975585938 17.96999931335449
179.5099945068359 496.7200012207031 18.70999908447266
189.1199951171875 494.2300109863281 17.92000007629395
182.8600006103516 495.8299865722656 18.42000007629395
180.0500030517578 496.5799865722656 18.68000030517578
190.1699981689453 493.9599914550781 17.71999931335449
186.8399963378906 494.8200073242188 18.03000068664551
177.25 497.2900085449219 18.96999931335449
185.1499938964844 495.2300109863281 18.22999954223633
190.7400054931641 493.8299865722656 17.67000007629395
181.75 496.1400146484375 18.54000091552734
183.3999938964844 495.6900024414062 18.32999992370605
176.6399993896484 497.4200134277344 18.94000053405762
188.6000061035156 494.3900146484375 17.92000007629395
178.3600006103516 496.9700012207031 18.86000061035156
185.7100067138672 495.1199951171875 18.14999961853027
178.9400024414062 496.8699951171875 18.79999923706055
177.8099975585938 497.1199951171875 18.8700008392334
193.2200012207031 492.5199890136719 17.26000022888184
194.8600006103516 492.1300048828125 17.05999946594238
194.2799987792969 492.25 17.17000007629395
193.7299957275391 492.4200134277344 17.22999954223633
188.1100006103516 493.8500061035156 17.72999954223633
192.0700073242188 492.8099975585938 17.3700008392334
187.5 494 17.75
190.0500030517578 493.3299865722656 14.72999954223633
191.5399932861328 492.989990234375 17.39999961853027
189.2400054931641 493.5700073242188 17.68000030517578
185.2599945068359 494.5599975585938 17.90999984741211
192.6499938964844 492.6700134277344 17.29000091552734
186.3300018310547 494.2999877929688 17.85000038146973
185.8300018310547 494.4400024414062 17.8799991607666
181.3800048828125 495.5799865722656 18.35000038146973
184.1600036621094 494.8699951171875 18.07999992370605
189.8300018310547 493.3900146484375 17.54999923706055
190.9499969482422 493.1099853515625 17.42000007629395
181.8800048828125 495.4400024414062 18.26000022888184
179.6100006103516 496.0299987792969 18.5
188.6999969482422 493.7099914550781 17.68000030517578
180.1600036621094 495.8500061035156 18.45000076293945
177.8399963378906 496.4700012207031 18.68000030517578
178.4499969482422 496.2999877929688 18.59000015258789
182.4299926757812 495.2799987792969 18.21999931335449
176.8000030517578 496.75 18.76000022888184
180.7799987792969 495.7300109863281 18.38999938964844
183.0399932861328 495.1300048828125 18.15999984741211
177.3000030517578 496.6199951171875 18.72999954223633
186.9499969482422 494.1199951171875 17.81999969482422
179.0299987792969 496.1400146484375 18.54000091552734
184.7299957275391 494.7300109863281 18.04000091552734
190.3600006103516 493.2699890136719 17.3700008392334
183.5700073242188 494.989990234375 18.10000038146973
186.6399993896484 493.6600036621094 17.63999938964844
182.6399993896484 494.6600036621094 18.02000045776367
182.0899963378906 494.7999877929688 18.11000061035156
185.5500030517578 493.9400024414062 17.71999931335449
180.3999938964844 495.25 18.22999954223633
181.5 494.9500122070312 18.1299991607666
178.7599945068359 495.6600036621094 18.34000015258789
183.8300018310547 494.3599853515625 17.86000061035156
179.8600006103516 495.3900146484375 18.21999931335449
178.1499938964844 495.8099975585938 18.38999938964844
177.6300048828125 495.9500122070312 18.47999954223633
187.2599945068359 493.5199890136719 17.64999961853027
183.2299957275391 494.5400085449219 17.95000076293945
184.9799957275391 494.0899963378906 17.76000022888184
177.0399932861328 496.1099853515625 18.56999969482422
186.0800018310547 493.7999877929688 17.67000007629395
179.2700042724609 495.5199890136719 18.29000091552734
180.9900054931641 495.0799865722656 18.20000076293945
184.4100036621094 494.239990234375 17.80999946594238
191.1799926757812 492.510009765625 17.20000076293945
192.8500061035156 492.0700073242188 17.1299991607666
189.4900054931641 492.9400024414062 17.43000030517578
192.3200073242188 492.2200012207031 17.1200008392334
187.7799987792969 493.3699951171875 17.56999969482422
191.7100067138672 492.3599853515625 17.17000007629395
188.9600067138672 493.0899963378906 17.54000091552734
188.3600006103516 493.2000122070312 17.51000022888184
190.0399932861328 492.7999877929688 17.30999946594238
190.5599975585938 492.6400146484375 17.27000045776367
189.7799987792969 492.1499938964844 17.11000061035156
189.2200012207031 492.2999877929688 17.26000022888184
190.3500061035156 492.0199890136719 17.07999992370605
188.6300048828125 492.4500122070312 17.32999992370605
186.8899993896484 492.8900146484375 17.39999961853027
188.0899963378906 492.6000061035156 17.31999969482422
185.2100067138672 493.3299865722656 17.51000022888184
186.3000030517578 493.0400085449219 17.47999954223633
185.75 493.1799926757812 17.47999954223633
184.6799926757812 493.4599914550781 17.55999946594238
184.1199951171875 493.6099853515625 17.6299991607666
189.3200073242188 492.2200012207031 13.6899995803833
182.3899993896484 494.0400085449219 17.79999923706055
180.1399993896484 494.6199951171875 17.98999977111816
178.9799957275391 494.9200134277344 18.10000038146973
183.5099945068359 493.7699890136719 17.67000007629395
187.4799957275391 492.7799987792969 17.56999969482422
180.6900024414062 494.4700012207031 17.98999977111816
179.5500030517578 494.760009765625 18.06999969482422
176.7100067138672 495.510009765625 18.36000061035156
182.9799957275391 493.8900146484375 17.77000045776367
181.3099975585938 494.3299865722656 17.89999961853027
178.3899993896484 495.0700073242188 18.15999984741211
177.8300018310547 495.239990234375 18.20000076293945
177.2400054931641 495.3599853515625 18.27000045776367
181.8600006103516 494.2099914550781 17.85000038146973
187.1900024414062 492.0700073242188 17.11000061035156
187.6999969482422 491.9599914550781 17.11000061035156
186.2100067138672 492.3399963378906 18.26000022888184
186.0399932861328 492.3900146484375 17.25
183.1499938964844 493.1300048828125 17.47999954223633
182.6100006103516 493.2699890136719 17.52000045776367
184.3000030517578 492.7999877929688 17.39999961853027
181.4900054931641 493.5599975585938 17.6299991607666
180.3800048828125 493.8200073242188 17.73999977111816
183.8000030517578 492.9400024414062 17.44000053405762
184.9299926757812 492.6900024414062 17.36000061035156
185.4900054931641 492.510009765625 17.27000045776367
177.5399932861328 494.5400085449219 18.02000045776367
179.25 494.1099853515625 17.80999946594238
186.6999969482422 492.2300109863281 18.22999954223633
181.9799957275391 493.4200134277344 17.6200008392334
179.8399963378906 493.9800109863281 17.79000091552734
177.0200042724609 494.6799926757812 18.04000091552734
178.1199951171875 494.4299926757812 17.96999931335449
180.8899993896484 493.6799926757812 17.72999954223633
187.3099975585938 492.0899963378906 18.23999977111816
178.6799926757812 494.239990234375 17.95000076293945
182.8399963378906 492.5 17.29000091552734
181.7200012207031 492.7900085449219 17.39999961853027
183.3899993896484 492.3599853515625 17.21999931335449
181.1300048828125 492.9500122070312 17.45999908447266
184.5399932861328 492.1000061035156 17.17000007629395
180.5700073242188 493.0799865722656 17.51000022888184
178.25 493.6600036621094 17.75
179.9900054931641 493.2200012207031 17.56999969482422
177.1300048828125 493.9599914550781 17.84000015258789
177.6799926757812 493.8500061035156 17.79999923706055
182.2700042724609 492.6700134277344 17.31999969482422
176.5599975585938 494.0899963378906 17.94000053405762
178.8200073242188 493.5499877929688 17.67000007629395
184.0200042724609 492.2300109863281 17.17000007629395
179.4700012207031 493.3699951171875 17.60000038146973
181.9100036621094 492.1700134277344 17.13999938964844
181.3699951171875 492.2999877929688 17.21999931335449
180.2400054931641 492.5499877929688 17.32999992370605
178.5700073242188 492.9800109863281 17.47999954223633
180.8300018310547 492.4500122070312 17.28000068664551
179.1000061035156 492.8699951171875 17.40999984741211
177.4299926757812 493.2799987792969 17.57999992370605
179.7299957275391 492.7200012207031 17.34000015258789
177.9700012207031 493.1300048828125 17.54999923706055
176.9199981689453 493.4500122070312 17.68000030517578
177.6000061035156 492.5400085449219 17.30999946594238
176.5299987792969 492.8099975585938 17.59000015258789
176.9900054931641 492.6900024414062 17.42000007629395
179.3099975585938 492.0899963378906 17.14999961853027
178.1600036621094 492.3599853515625 17.29000091552734
178.7400054931641 492.2200012207031 17.17000007629395
176.4700012207031 492.489990234375 17.67000007629395
177.6199951171875 492.2099914550781 17.21999931335449
177.0299987792969 492.3699951171875 17.29999923706055
178.2899932861328 492.0400085449219 17.26000022888184
179.0599975585938 492.5400085449219 17.28000068664551
180.9799957275391 492.0599975585938 17.1299991607666
179.6499938964844 492.4200134277344 17.27000045776367
180.3200073242188 492.25 17.17000007629395
176.5599975585938 493.1499938964844 17.80999946594238
177.1300048828125 493.010009765625 17.52000045776367
178.4100036621094 492.7300109863281 17.3799991607666
177.8200073242188 492.8500061035156 17.42000007629395
177.6799926757812 493.5299987792969 17.69000053405762
178.9499969482422 493.1799926757812 17.56999969482422
181.5700073242188 492.5499877929688 17.34000015258789
177.0200042724609 493.7099914550781 17.75
180.2700042724609 492.8699951171875 17.44000053405762
182.9299926757812 492.1799926757812 17.20000076293945
182.2100067138672 492.3599853515625 17.23999977111816
178.2899932861328 493.3699951171875 17.6200008392334
179.5899963378906 493.0199890136719 17.48999977111816
180.8899993896484 492.6900024414062 17.39999961853027
179.0200042724609 493.8699951171875 17.76000022888184
180.8800048828125 493.3699951171875 17.6200008392334
182.1799926757812 493.0499877929688 17.5
182.8399963378906 492.8800048828125 17.42000007629395
180.2400054931641 493.5599975585938 17.6299991607666
181.5800018310547 493.2000122070312 17.54999923706055
186.0099945068359 492.1199951171875 17.06999969482422
185.4499969482422 492.2699890136719 17.15999984741211
186.7899932861328 491.8999938964844 17.20999908447266
184.75 492.4299926757812 17.25
184.1000061035156 492.5700073242188 17.30999946594238
186.4900054931641 491.9700012207031 18.13999938964844
183.4600067138672 492.7699890136719 17.3799991607666
179.6499938964844 493.7000122070312 17.71999931335449
177.0500030517578 494.3599853515625 17.95999908447266
177.7599945068359 494.2000122070312 17.8799991607666
178.3999938964844 494.010009765625 17.81999969482422
194.8600006103516 499.6799926757812 14.60999965667725
194.75 499.7099914550781 12.72999954223633
194.6000061035156 499.6900024414062 15.77999973297119
194.1900024414062 499.8599853515625 14.72000026702881
194.7599945068359 499.0799865722656 15.60000038146973
194.7400054931641 499.1400146484375 12.42000007629395
195.0200042724609 499.010009765625 14.65999984741211
194.7100067138672 499.1000061035156 13.88000011444092
193.0500030517578 499.5199890136719 14.6899995803833
193.75 499.3599853515625 14.6899995803833
192.3800048828125 499.6799926757812 14.71000003814697
191.7799987792969 499.8699951171875 14.73999977111816
188.5 499.9599914550781 18.02000045776367
190.5099945068359 499.489990234375 14.77999973297119
191.8399963378906 499.1600036621094 14.77000045776367
189.1699981689453 499.8599853515625 14.85000038146973
193.1399993896484 498.8200073242188 14.69999980926514
192.5 498.989990234375 14.73999977111816
194.5500030517578 498.4700012207031 14.75
188.7299957275391 499.9500122070312 16.89999961853027
194.3300018310547 498.510009765625 15.9399995803833
188.7799987792969 499.9100036621094 15.4399995803833
191.1199951171875 499.3399963378906 14.75
189.1999969482422 499.8099975585938 17.98999977111816
194.0299987792969 498.6099853515625 16.89999961853027
194.7100067138672 498.4400024414062 13.52000045776367
194.7799987792969 498.489990234375 11.98999977111816
189.8500061035156 499.6600036621094 14.77000045776367
186.7100067138672 499.739990234375 18.09000015258789
188.5399932861328 499.2699890136719 16.06999969482422
188.9400024414062 499.1799926757812 16.94000053405762
190.1000061035156 498.9100036621094 14.75
190.75 498.739990234375 14.73999977111816
186.0700073242188 499.9100036621094 18.04999923706055
187.3600006103516 499.5700073242188 18.1299991607666
188.8300018310547 499.2200012207031 18.28000068664551
188.7899932861328 499.25 15.01000022888184
194.3200073242188 497.8599853515625 15.5
192.0099945068359 498.4299926757812 14.71000003814697
191.3500061035156 498.5899963378906 14.72000026702881
194.6399993896484 497.7799987792969 14.69999980926514
188.0700073242188 499.3999938964844 18.20000076293945
193.3399963378906 498.0899963378906 14.65999984741211
194.7899932861328 497.760009765625 11.88000011444092
194.7799987792969 497.7799987792969 13.43000030517578
192.6499938964844 498.2900085449219 14.69999980926514
189.3899993896484 499.0700073242188 14.78999996185303
189.6300048828125 498.3500061035156 15.14000034332275
190.1699981689453 498.2200012207031 14.89999961853027
190.7400054931641 498.0799865722656 14.76000022888184
191.4600067138672 497.9100036621094 14.72000026702881
192.7599945068359 497.5799865722656 14.6899995803833
194.4799957275391 497.1199951171875 17.14999961853027
194.1399993896484 497.2200012207031 14.69999980926514
193.7599945068359 497.2900085449219 17.13999938964844
194.6900024414062 497.1099853515625 12.77000045776367
194.5700073242188 497.1400146484375 15.78999996185303
194.8500061035156 497.0599975585938 14.64999961853027
188.9900054931641 498.5299987792969 15.21000003814697
195.1499938964844 496.9500122070312 17.14999961853027
193.1399993896484 497.489990234375 17.1200008392334
193.4400024414062 497.4299926757812 14.6899995803833
192.1600036621094 497.760009765625 14.71000003814697
185.6600036621094 499.3200073242188 18.30999946594238
186.3800048828125 499.1400146484375 18.35000038146973
186.9900054931641 498.9800109863281 18.36000061035156
188.9700012207031 498.510009765625 18.47999954223633
184.9499969482422 499.510009765625 18.22999954223633
183.5200042724609 499.8900146484375 18.1200008392334
187.6799926757812 498.8099975585938 18.42000007629395
184.2100067138672 499.7000122070312 18.14999961853027
188.6699981689453 498.6199951171875 15.97999954223633
188.3300018310547 498.6400146484375 18.45000076293945
181.0599975585938 499.9500122070312 18.05999946594238
184.4400024414062 499.0499877929688 18.3700008392334
181.6900024414062 499.739990234375 18.10000038146973
183.6999969482422 499.260009765625 18.28000068664551
187.8500061035156 498.1900024414062 18.56999969482422
182.3999938964844 499.6099853515625 18.20000076293945
188.7799987792969 498.010009765625 15.93000030517578
185.0899963378906 498.9200134277344 18.40999984741211
188.5800018310547 498.010009765625 18.6299991607666
183.0599975585938 499.4299926757812 18.19000053405762
191.0099945068359 497.4599914550781 14.78999996185303
188.75 497.9800109863281 17.46999931335449
193.2799987792969 496.8399963378906 17.21999931335449
192.6499938964844 497.0299987792969 17.19000053405762
194.0099945068359 496.6499938964844 17.32999992370605
191.2799987792969 497.3599853515625 17.10000038146973
185.8099975585938 498.7000122070312 18.45000076293945
194.6999969482422 496.489990234375 15.75
194.2299957275391 496.6499938964844 14.65999984741211
190.4600067138672 497.6000061035156 15.11999988555908
191.9700012207031 497.1700134277344 17.13999938964844
189.25 497.8699951171875 15.39999961853027
194.6499938964844 496.5 17.29999923706055
194.8600006103516 496.4700012207031 14.63000011444092
189.7299957275391 497.7999877929688 14.85000038146973
186.5 498.5599975585938 18.46999931335449
193.5899963378906 496.8200073242188 14.6899995803833
194.7899932861328 496.5 12.85000038146973
187.1300048828125 498.3599853515625 18.53000068664551
192.7599945068359 496.3099975585938 17.43000030517578
190.5899963378906 496.8399963378906 17.27000045776367
188.6499938964844 497.3500061035156 15.76000022888184
191.2899932861328 496.6799926757812 17.32999992370605
193.3699951171875 496.1099853515625 17.53000068664551
190.0099945068359 497.010009765625 17.27000045776367
194.9100036621094 495.760009765625 14.65999984741211
194.6699981689453 495.8699951171875 14.01000022888184
192.0200042724609 496.4700012207031 17.3700008392334
194.7200012207031 495.8200073242188 15.69999980926514
194.2899932861328 495.9500122070312 14.6899995803833
193.8699951171875 496.0400085449219 15.32999992370605
194.75 495.7999877929688 17.38999938964844
194.1300048828125 495.9400024414062 17.53000068664551
194.7299957275391 495.8299865722656 12.56999969482422
178.9499969482422 499.7699890136719 18.1200008392334
179.6600036621094 499.5899963378906 18.20999908447266
181.0399932861328 499.2200012207031 18.29000091552734
182.4600067138672 498.8900146484375 18.3700008392334
180.3399963378906 499.4100036621094 18.26000022888184
183.8500061035156 498.5400085449219 18.52000045776367
186.6399993896484 497.8200073242188 18.75
183.1199951171875 498.7099914550781 18.47999954223633
185.9700012207031 498 18.77000045776367
187.9600067138672 497.489990234375 18.84000015258789
178.2899932861328 499.9200134277344 18.06999969482422
189.2599945068359 497.1900024414062 17.23999977111816
188.75 497.2999877929688 17.52000045776367
188.6100006103516 497.2999877929688 18.92000007629395
185.3000030517578 498.1499938964844 18.67000007629395
184.5700073242188 498.3699951171875 18.6200008392334
181.6900024414062 499.0599975585938 18.32999992370605
187.3200073242188 497.6600036621094 18.77000045776367
178.5299987792969 499.1600036621094 18.34000015258789
179.2400054931641 498.9400024414062 18.45999908447266
177.8300018310547 499.2999877929688 18.29999923706055
177.1100006103516 499.4800109863281 18.26000022888184
181.3200073242188 498.4100036621094 18.60000038146973
185.4199981689453 497.4100036621094 18.90999984741211
182 498.25 18.60000038146973
186.6999969482422 497.0599975585938 18.85000038146973
182.6699981689453 498.0700073242188 18.70000076293945
180.6999969482422 498.6099853515625 18.48999977111816
188.6799926757812 496.6000061035156 18.68000030517578
189.5800018310547 496.3900146484375 17.5
184.0700073242188 497.7300109863281 18.79999923706055
190.9299926757812 496.0199890136719 17.51000022888184
179.9499969482422 498.760009765625 18.48999977111816
188.8699951171875 496.5599975585938 17.45999908447266
190.25 496.2200012207031 17.5
186.0700073242188 497.25 18.93000030517578
188.0399932861328 496.7200012207031 18.73999977111816
184.7200012207031 497.5499877929688 18.84000015258789
193.7100067138672 495.3699951171875 14.77999973297119
191.5700073242188 495.8500061035156 17.57999992370605
192.2599945068359 495.6700134277344 17.68000030517578
194.7299957275391 495.0899963378906 15.72000026702881
195.0299987792969 495.010009765625 17.89999961853027
194.3699951171875 495.1700134277344 14.82999992370605
187.3899993896484 496.8900146484375 18.80999946594238
192.9100036621094 495.5199890136719 17.68000030517578
193.6399993896484 495.3500061035156 17.72999954223633
194.3000030517578 495.1900024414062 17.79999923706055
183.3200073242188 497.9100036621094 18.70999908447266
194.8699951171875 495.0499877929688 14.47000026702881
194.75 495.1000061035156 12.47999954223633
184.8899993896484 496.8900146484375 18.79999923706055
185.5399932861328 496.7300109863281 18.76000022888184
188.0200042724609 496.1000061035156 18.54000091552734
186.1799926757812 496.5700073242188 18.70000076293945
191.0500030517578 495.3599853515625 17.76000022888184
189 495.8800048828125 17.70000076293945
187.4400024414062 496.2799987792969 18.54999923706055
186.7899932861328 496.4100036621094 18.67000007629395
188.6999969482422 495.9299926757812 18.45999908447266
193.9100036621094 494.6900024414062 14.6899995803833
192.4799957275391 494.989990234375 17.8700008392334
195.1000061035156 494.3200073242188 17.70000076293945
193.0899963378906 494.8500061035156 17.94000053405762
193.8500061035156 494.6700134277344 17.95000076293945
191.7299957275391 495.1700134277344 17.86000061035156
194.4900054931641 494.4800109863281 17.92000007629395
194.5299987792969 494.510009765625 14.77999973297119
189.7400054931641 495.6900024414062 17.69000053405762
194.7400054931641 494.510009765625 13.64000034332275
190.3500061035156 495.5299987792969 17.71999931335449
194.75 494.510009765625 12.13000011444092
178 498.6600036621094 18.54000091552734
179.4100036621094 498.2699890136719 18.65999984741211
182.1999969482422 497.5899963378906 18.82999992370605
176.7200012207031 498.9800109863281 18.43000030517578
178.7100067138672 498.4800109863281 18.63999938964844
181.4499969482422 497.760009765625 18.82999992370605
183.5700073242188 497.25 18.89999961853027
182.8999938964844 497.3900146484375 18.92000007629395
177.3200073242188 498.7900085449219 18.47999954223633
180.8200073242188 497.9500122070312 18.78000068664551
184.2299957275391 497.0799865722656 18.86000061035156
180.1100006103516 498.1000061035156 18.71999931335449
178.2899932861328 498.0700073242188 18.70999908447266
181.7200012207031 497.1700134277344 18.92000007629395
177.5899963378906 498.239990234375 18.69000053405762
184.25 496.5400085449219 18.67000007629395
180.4400024414062 497.5299987792969 18.8700008392334
183.6100006103516 496.6900024414062 18.70999908447266
178.9799957275391 497.8900146484375 18.78000068664551
182.9400024414062 496.8599853515625 18.79000091552734
181.1100006103516 497.3299865722656 18.96999931335449
186.8500061035156 495.9200134277344 18.40999984741211
186.1600036621094 496.0599975585938 18.51000022888184
187.4900054931641 495.7200012207031 18.3799991607666
182.3600006103516 497.0199890136719 18.82999992370605
185.5200042724609 496.239990234375 18.54999923706055
176.8899993896484 498.3999938964844 18.65999984741211
189.3399963378906 495.260009765625 17.89999961853027
190.0200042724609 495.1199951171875 17.81999969482422
191.3200073242188 494.760009765625 17.96999931335449
188.7799987792969 495.3999938964844 18.27000045776367
179.7100067138672 497.7099914550781 18.8799991607666
193.8800048828125 494.1199951171875 17.79999923706055
195.0800018310547 493.8699951171875 17.45000076293945
188.1000061035156 495.5899963378906 18.32999992370605
194.7599945068359 493.9500122070312 13.44999980926514
190.6600036621094 494.9400024414062 17.89999961853027
192.5599975585938 494.4700012207031 17.86000061035156
194.5700073242188 494.010009765625 14.73999977111816
191.9799957275391 494.6099853515625 17.92000007629395
194.5500030517578 493.9800109863281 17.68000030517578
184.9400024414062 496.3699951171875 18.61000061035156
194.8399963378906 493.989990234375 11.90999984741211
193.9900054931641 494.1199951171875 14.85000038146973
193.3300018310547 494.2900085449219 14.8100004196167
193.2299957275391 494.2900085449219 17.81999969482422
176.9499969482422 497.7699890136719 18.8700008392334
177.6600036621094 497.5700073242188 18.88999938964844
181.6100006103516 496.6099853515625 18.70999908447266
182.8999938964844 496.2799987792969 18.61000061035156
182.2400054931641 496.3999938964844 18.64999961853027
184.25 495.9500122070312 18.48999977111816
179.0200042724609 497.25 18.92000007629395
185.4799957275391 495.6199951171875 18.32999992370605
179.6900024414062 497.0799865722656 18.8700008392334
183.5099945068359 496.0899963378906 18.51000022888184
184.8600006103516 495.739990234375 18.40999984741211
186.7599945068359 495.3099975585938 18.19000053405762
180.9100036621094 496.75 18.75
180.2700042724609 496.9100036621094 18.78000068664551
186.1199951171875 495.4700012207031 18.31999969482422
193.8300018310547 493.5400085449219 17.60000038146973
188.0500030517578 494.9800109863281 18.09000015258789
191.1999969482422 494.1700134277344 17.77000045776367
194.5299987792969 493.3599853515625 17.52000045776367
194.6799926757812 493.3599853515625 14.76000022888184
193.9900054931641 493.5 14.68000030517578
195.0899963378906 493.2099914550781 17.34000015258789
194.7599945068359 493.3500061035156 11.89000034332275
194.7299957275391 493.3599853515625 13.39000034332275
189.9199981689453 494.4700012207031 17.95999908447266
191.8999938964844 493.989990234375 17.71999931335449
193.1600036621094 493.6600036621094 17.63999938964844
188.6199951171875 494.8099975585938 18.06999969482422
189.3500061035156 494.6199951171875 18.04000091552734
192.4799957275391 493.8399963378906 17.68000030517578
187.3500061035156 495.1499938964844 18.19000053405762
178.3200073242188 497.4200134277344 18.96999931335449
190.5700073242188 494.3500061035156 17.85000038146973
178.3300018310547 496.6700134277344 18.72999954223633
179.0099945068359 496.5 18.65999984741211
180.3000030517578 496.1799926757812 18.54999923706055
181.5599975585938 495.8599853515625 18.45999908447266
177.6600036621094 496.8599853515625 18.79999923706055
179.6699981689453 496.3599853515625 18.6200008392334
185.3399963378906 494.9299926757812 18.06999969482422
182.2100067138672 495.7300109863281 18.40999984741211
186.6999969482422 494.5700073242188 17.94000053405762
177.0399932861328 496.989990234375 18.86000061035156
183.4700012207031 495.4200134277344 18.27000045776367
189.3600006103516 493.8900146484375 17.80999946594238
188.0200042724609 494.2699890136719 17.82999992370605
188.6799926757812 494.0700073242188 17.85000038146973
184.7400054931641 495.0599975585938 18.1299991607666
182.8200073242188 495.5599975585938 18.29999923706055
189.4199981689453 493.9100036621094 14.86999988555908
193.7400054931641 492.7900085449219 17.34000015258789
191.8000030517578 493.2900085449219 17.48999977111816
194.9700012207031 492.5 17.18000030517578
193.9600067138672 492.7699890136719 14.69999980926514
191.1900024414062 493.4700012207031 17.52000045776367
193.25 492.9800109863281 12.98999977111816
186.0099945068359 494.7699890136719 18.03000068664551
189.9700012207031 493.7799987792969 17.65999984741211
184.1300048828125 495.2000122070312 18.20999908447266
193.5399932861328 492.9100036621094 11.97999954223633
194.3699951171875 492.6400146484375 17.27000045776367
187.3099975585938 494.4400024414062 17.89999961853027
192.4600067138672 493.1199951171875 17.43000030517578
180.9499969482422 496.0199890136719 18.5
193.0599975585938 492.989990234375 17.36000061035156
190.5899963378906 493.6300048828125 17.63999938964844
193.8099975585938 492.1000061035156 17.1200008392334
193.6000061035156 492.25 11.85000038146973
177.0200042724609 496.3500061035156 18.6299991607666
177.6499938964844 496.1600036621094 18.55999946594238
180.1799926757812 495.5599975585938 18.35000038146973
178.9299926757812 495.8399963378906 18.40999984741211
180.8699951171875 495.3599853515625 18.22999954223633
182.1900024414062 495.0499877929688 18.15999984741211
185.3999938964844 494.239990234375 17.86000061035156
181.5200042724609 495.2200012207031 18.23999977111816
188.6100006103516 493.4400024414062 17.63999938964844
184.1499938964844 494.5299987792969 17.95000076293945
190.4499969482422 492.9500122070312 17.23999977111816
179.5899963378906 495.6700134277344 18.43000030517578
184.7700042724609 494.3900146484375 17.90999984741211
186.0299987792969 494.0599975585938 17.76000022888184
183.4900054931641 494.7000122070312 18.01000022888184
178.2799987792969 496.0299987792969 18.46999931335449
193.1399993896484 492.2799987792969 17.14999961853027
189.25 493.260009765625 17.54999923706055
187.3000030517578 493.760009765625 17.69000053405762
189.8099975585938 493.1400146484375 17.43000030517578
186.6600036621094 493.9299926757812 17.73999977111816
191.1699981689453 492.7699890136719 17.32999992370605
182.8200073242188 494.8599853515625 18.10000038146973
191.8099975585938 492.6099853515625 17.30999946594238
187.9700012207031 493.6099853515625 17.67000007629395
192.4499969482422 492.4700012207031 17.21999931335449
179.0299987792969 495.239990234375 18.20000076293945
180.8999938964844 494.7799987792969 18.05999946594238
182.2200012207031 494.4200134277344 17.88999938964844
177.0800018310547 495.739990234375 18.42000007629395
181.5200042724609 494.6199951171875 18.01000022888184
179.6499938964844 495.0799865722656 18.1299991607666
183.5099945068359 494.1199951171875 17.78000068664551
177.7299957275391 495.5799865722656 18.3799991607666
184.7599945068359 493.8099975585938 17.67000007629395
180.2700042724609 494.9299926757812 18.10000038146973
184.1199951171875 493.9500122070312 17.70999908447266
178.3699951171875 495.3699951171875 18.29999923706055
182.8200073242188 494.2699890136719 17.8700008392334
185.4100036621094 493.6199951171875 17.61000061035156
186.7100067138672 493.2999877929688 17.48999977111816
188.7400054931641 492.7799987792969 17.40999984741211
189.9499969482422 492.4800109863281 17.19000053405762
189.4100036621094 492.6400146484375 14.39999961853027
187.3899993896484 493.1300048828125 17.45000076293945
190.5500030517578 492.3200073242188 17.18000030517578
186.1000061035156 493.4800109863281 17.57999992370605
188.0200042724609 492.9599914550781 17.39999961853027
189.3399963378906 492.6199951171875 17.36000061035156
