367.7200012207031 373.5400085449219 6.78000020980835
371.6799926757812 372.5 6.260000228881836
369.3999938964844 373.0799865722656 6.480000019073486
367.2000122070312 373.6700134277344 6.800000190734863
370.5 372.7999877929688 6.289999961853027
368.8599853515625 373.25 6.559999942779541
368.3200073242188 373.3800048828125 6.639999866485596
366.5499877929688 373.8099975585938 6.840000152587891
369.9100036621094 372.9599914550781 6.369999885559082
367.9800109863281 372.7200012207031 6.46999979019165
367.3999938964844 372.8699951171875 6.489999771118164
366.7699890136719 373.0400085449219 6.489999771118164
367.010009765625 372.7000122070312 6.5
367.2099914550781 373.2099914550781 6.590000152587891
368.9599914550781 372.7699890136719 6.460000038146973
369.5899963378906 372.6099853515625 6.309999942779541
366.5700073242188 373.3699951171875 6.710000038146973
368.2999877929688 372.9400024414062 6.46999979019165
367.760009765625 373.0499877929688 6.559999942779541
369.8299865722656 373.2699890136719 6.539999961853027
366.9100036621094 373.9500122070312 6.929999828338623
372.1799926757812 372.6600036621094 6.25
371.0199890136719 372.9299926757812 6.429999828338623
367.5299987792969 373.7900085449219 6.869999885559082
371.6400146484375 372.8099975585938 6.300000190734863
369.2799987792969 373.3999938964844 6.590000152587891
370.4400024414062 373.0799865722656 6.429999828338623
368.0799865722656 373.6900024414062 6.78000020980835
368.6799926757812 373.5400085449219 6.630000114440918
372.7900085449219 372.510009765625 6.340000152587891
366.6600036621094 374.8599853515625 7.179999828338623
368.4100036621094 374.3999938964844 7.019999980926514
367.2999877929688 374.7099914550781 7.110000133514404
369.6700134277344 374.0899963378906 6.889999866485596
369.0899963378906 374.2699890136719 6.960000038146973
370.8800048828125 373.7900085449219 6.78000020980835
367.8500061035156 374.5599975585938 7.070000171661377
373.25 373.2099914550781 6.579999923706055
370.2900085449219 373.9599914550781 6.809999942779541
372.7200012207031 373.3200073242188 6.610000133514404
375.0499877929688 372.760009765625 6.409999847412109
374.4500122070312 372.9200134277344 6.46999979019165
371.5299987792969 373.6600036621094 6.699999809265137
372.1499938964844 373.489990234375 6.659999847412109
375.260009765625 372.7300109863281 4.940000057220459
373.8699951171875 373.0299987792969 6.510000228881836
375.6099853515625 372.6199951171875 6.389999866485596
366.4800109863281 375.6900024414062 6.989999771118164
367.0700073242188 375.5299987792969 6.929999828338623
369.5599975585938 374.8900146484375 7.090000152587891
370.1400146484375 374.75 7.070000171661377
370.7799987792969 374.5799865722656 7.079999923706055
368.9400024414062 375.0400085449219 7.090000152587891
371.3200073242188 374.4599914550781 6.989999771118164
371.9700012207031 374.2799987792969 6.980000019073486
372.5400085449219 374.1600036621094 6.980000019073486
368.3200073242188 375.2200012207031 7.03000020980835
367.7300109863281 375.3500061035156 6.980000019073486
373.1199951171875 374.010009765625 6.929999828338623
373.75 373.8500061035156 6.889999866485596
374.9800109863281 373.5299987792969 6.800000190734863
375.8599853515625 373.3500061035156 5.5
374.3699951171875 373.6799926757812 6.800000190734863
375.5700073242188 373.3699951171875 6.75
371.75 374.989990234375 7.119999885559082
370.4200134277344 375.3500061035156 6.980000019073486
372.4400024414062 374.8299865722656 7.239999771118164
371.1400146484375 375.1700134277344 7.019999980926514
374.1400146484375 374.4100036621094 7.079999923706055
374.7799987792969 374.2300109863281 7.039999961853027
372.989990234375 374.7000122070312 7.179999828338623
375.9400024414062 373.9800109863281 4.659999847412109
375.8900146484375 373.9500122070312 6.699999809265137
373.6199951171875 374.5599975585938 7.119999885559082
375.3800048828125 374.0799865722656 7.010000228881836
366.6600036621094 376.2999877929688 6.710000038146973
367.3200073242188 376.1300048828125 6.730000019073486
367.8999938964844 375.989990234375 6.769999980926514
368.5499877929688 375.7999877929688 6.840000152587891
369.8500061035156 375.4599914550781 6.929999828338623
369.1600036621094 375.6700134277344 6.869999885559082
372.5899963378906 375.4500122070312 6.909999847412109
374.5 374.9599914550781 7.130000114440918
373.1799926757812 375.2900085449219 7.019999980926514
371.9700012207031 375.6199951171875 6.889999866485596
375.7300109863281 374.6799926757812 7.239999771118164
373.8599853515625 375.1199951171875 7.119999885559082
367.6499938964844 376.7300109863281 6.53000020980835
368.239990234375 376.5599975585938 6.619999885559082
368.8699951171875 376.4100036621094 6.599999904632568
369.489990234375 376.260009765625 6.690000057220459
374.760009765625 375.6300048828125 6.989999771118164
375.8299865722656 375.3900146484375 6.579999923706055
375.4100036621094 375.5 6.96999979019165
371.6700134277344 376.3999938964844 6.679999828338623
375.989990234375 376.0299987792969 5.400000095367432
375.7099914550781 376.0799865722656 6.78000020980835
375.0599975585938 376.239990234375 6.760000228881836
368.6000061035156 372.7300109863281 6.420000076293945
370.2699890136719 373.0299987792969 6.400000095367432
369.510009765625 373.2200012207031 6.519999980926514
368.1000061035156 373.5700073242188 6.739999771118164
371.5799865722656 372.7099914550781 6.210000038146973
370.9100036621094 372.8500061035156 6.369999885559082
368.8299865722656 373.4200134277344 6.619999885559082
375.3800048828125 373.7099914550781 6.920000076293945
375.8699951171875 373.5899963378906 6.429999828338623
374.6199951171875 373.8999938964844 6.929999828338623
375.8900146484375 373.5599975585938 5.110000133514404
372.5400085449219 373.0299987792969 6.489999771118164
373.260009765625 372.8599853515625 6.420000076293945
371.1099853515625 373.4100036621094 6.650000095367432
369.0299987792969 373.9400024414062 6.860000133514404
369.760009765625 373.75 6.760000228881836
370.7900085449219 374.1700134277344 6.909999847412109
371.5 373.9700012207031 6.840000152587891
372.9599914550781 373.6400146484375 6.760000228881836
372.260009765625 373.7900085449219 6.849999904632568
370.0400085449219 374.3900146484375 6.96999979019165
371.7099914550781 373.2799987792969 6.510000228881836
374.0199890136719 372.6799926757812 6.369999885559082
369.3599853515625 374.5499877929688 7.039999961853027
370.3999938964844 373.5799865722656 6.710000038146973
374.6900024414062 372.510009765625 6.320000171661377
374.0599975585938 374.75 7.21999979019165
371.75 375.3299865722656 7.010000228881836
370.1799926757812 375.739990234375 6.829999923706055
372.5 375.1199951171875 6.980000019073486
373.8999938964844 374.0899963378906 7.03000020980835
373.1400146484375 374.2900085449219 7.039999961853027
369.4500122070312 375.2300109863281 7.03000020980835
371.010009765625 374.8500061035156 7.119999885559082
371.760009765625 374.6600036621094 7.110000133514404
370.2200012207031 375.0400085449219 7.019999980926514
373.6900024414062 373.4299926757812 6.699999809265137
375.760009765625 372.9200134277344 6.480000019073486
375.1400146484375 373.0599975585938 6.579999923706055
372.4200134277344 374.4599914550781 7.090000152587891
374.3800048828125 373.2799987792969 6.630000114440918
375.9200134277344 374.8299865722656 4.96999979019165
375.5799865722656 374.9400024414062 7.090000152587891
375.7300109863281 372.9200134277344 5.070000171661377
375.8500061035156 374.8800048828125 6.28000020980835
373.9599914550781 375.3500061035156 7.03000020980835
375.8800048828125 374.239990234375 5.050000190734863
375.8999938964844 374.2900085449219 6.320000171661377
375.5199890136719 374.3500061035156 7.139999866485596
374.8599853515625 374.5299987792969 7.150000095367432
373.2000122070312 375.5299987792969 6.989999771118164
375.8900146484375 375.5700073242188 5.989999771118164
374.7900085449219 375.8599853515625 6.829999923706055
371.6799926757812 376.6199951171875 6.610000133514404
374.0599975585938 376.0400085449219 6.789999961853027
375.5799865722656 376.9700012207031 6.539999961853027
375.8999938964844 376.2300109863281 5.900000095367432
375.7000122070312 372.9500122070312 6.559999942779541
375.1099853515625 372.8099975585938 6.46999979019165
373.9200134277344 372.510009765625 6.320000171661377
374.5 372.6300048828125 6.340000152587891
374.9500122070312 372.739990234375 4.860000133514404
371.8699951171875 372.6600036621094 6.289999961853027
374.1700134277344 373.260009765625 6.619999885559082
371.2200012207031 372.489990234375 6.28000020980835
375.3900146484375 373.5499877929688 6.789999961853027
373.5299987792969 373.1099853515625 6.559999942779541
373.010009765625 372.9500122070312 6.460000038146973
374.739990234375 373.3800048828125 6.739999771118164
372.4500122070312 372.8399963378906 6.360000133514404
375.6499938964844 374.2799987792969 7.110000133514404
375.0799865722656 374.0899963378906 7.050000190734863
373.8900146484375 373.7900085449219 6.860000133514404
373.3299865722656 373.6600036621094 6.789999961853027
374.4800109863281 373.9700012207031 6.949999809265137
370.9299926757812 373.0700073242188 6.449999809265137
371.510009765625 373.2000122070312 6.510000228881836
372.1000061035156 373.3500061035156 6.659999847412109
370.2999877929688 372.8900146484375 6.389999866485596
372.7300109863281 373.510009765625 6.670000076293945
369.6799926757812 372.7699890136719 6.239999771118164
372.9700012207031 374.1499938964844 6.980000019073486
372.3999938964844 374.010009765625 6.920000076293945
370.6000061035156 373.5899963378906 6.690000057220459
368.8800048828125 373.1400146484375 6.510000228881836
368.239990234375 372.9800109863281 6.449999809265137
371.2300109863281 373.7200012207031 6.730000019073486
375.3599853515625 374.760009765625 7.210000038146973
367.5400085449219 372.8299865722656 6.550000190734863
371.7999877929688 373.8900146484375 6.820000171661377
374.1099853515625 374.4400024414062 7.130000114440918
369.4100036621094 373.25 6.599999904632568
373.5799865722656 374.3200073242188 7.010000228881836
367.010009765625 372.6900024414062 6.480000019073486
369.9800109863281 373.4299926757812 6.630000114440918
368.3599853515625 373.6700134277344 6.71999979019165
367.7300109863281 373.5 6.78000020980835
367.0799865722656 373.2999877929688 4.789999961853027
367.1400146484375 373.3699951171875 6.699999809265137
368.9599914550781 373.7999877929688 6.760000228881836
366.5899963378906 373.2000122070312 6.510000228881836
373.8599853515625 375.0499877929688 7.110000133514404
375.1000061035156 375.3500061035156 7.019999980926514
375.7000122070312 375.5 6.960000038146973
374.4100036621094 375.1900024414062 7.019999980926514
372.5599975585938 374.7300109863281 7.159999847412109
371.3900146484375 374.4100036621094 7.03000020980835
373.2300109863281 374.8900146484375 7.110000133514404
371.9200134277344 374.5499877929688 7.130000114440918
370.7699890136719 374.2799987792969 6.960000038146973
369.4800109863281 373.9599914550781 6.820000171661377
370.1600036621094 374.1199951171875 6.869999885559082
373.5 375.6600036621094 6.929999828338623
370.4599914550781 374.8900146484375 7.119999885559082
369.2099914550781 374.6000061035156 7.110000133514404
371.0299987792969 375.0499877929688 7.03000020980835
368 374.2999877929688 6.980000019073486
369.8099975585938 374.760009765625 7.099999904632568
366.7999877929688 373.989990234375 6.920000076293945
371.7200012207031 375.2099914550781 7.019999980926514
366.5599975585938 373.9400024414062 5.53000020980835
368.6300048828125 374.4400024414062 7.090000152587891
367.3500061035156 374.1600036621094 6.949999809265137
372.7900085449219 376.1199951171875 6.75
373.4299926757812 376.25 6.710000038146973
372.1199951171875 375.9299926757812 6.829999923706055
371.4800109863281 375.7799987792969 6.829999923706055
368.3099975585938 375.0199890136719 7.110000133514404
369.5799865722656 375.3200073242188 6.960000038146973
367.7000122070312 374.8299865722656 7.170000076293945
367.1300048828125 374.7000122070312 7.139999866485596
366.5499877929688 374.5799865722656 6.800000190734863
370.2200012207031 375.4800109863281 6.900000095367432
368.8999938964844 375.1600036621094 7.050000190734863
370.8699951171875 375.6099853515625 6.889999866485596
370.7300109863281 376.1600036621094 6.71999979019165
370.0599975585938 375.9700012207031 6.71999979019165
367.5299987792969 375.3299865722656 7.010000228881836
369.4299926757812 375.7999877929688 6.849999904632568
366.9299926757812 375.1799926757812 7.090000152587891
368.8200073242188 375.6900024414062 6.860000133514404
372.5599975585938 376.5899963378906 6.579999923706055
368.2000122070312 375.5 6.880000114440918
366.4800109863281 375.0700073242188 6.300000190734863
366.6400146484375 375.0899963378906 5.71999979019165
369.0899963378906 376.3099975585938 6.690000057220459
367.8500061035156 376.0499877929688 6.760000228881836
370.3599853515625 376.6400146484375 6.489999771118164
371.4200134277344 376.9400024414062 7.21999979019165
368.5 376.2000122070312 6.650000095367432
369.7000122070312 376.489990234375 6.550000190734863
370.7799987792969 376.7799987792969 7.139999866485596
367.239990234375 375.8599853515625 6.789999961853027
366.6600036621094 375.7099914550781 6.75
368.2000122070312 376.8500061035156 6.639999866485596
366.9400024414062 376.5400085449219 6.550000190734863
366.5199890136719 376.4200134277344 5.789999961853027
367.6099853515625 376.6900024414062 6.489999771118164
375.7900085449219 372.5199890136719 6.28000020980835
375.2799987792969 373.0700073242188 6.619999885559082
375.7999877929688 373.2200012207031 6.71999979019165
374.1499938964844 372.8099975585938 6.420000076293945
374.75 372.9299926757812 6.489999771118164
373.6099853515625 372.6700134277344 6.329999923706055
373 372.510009765625 6.230000019073486
370.8699951171875 372.7699890136719 6.300000190734863
373.1499938964844 373.3200073242188 6.590000152587891
372.6199951171875 373.2000122070312 6.599999904632568
370.3099975585938 372.6099853515625 6.230000019073486
375.4400024414062 373.8699951171875 6.929999828338623
373.7300109863281 373.4500122070312 6.699999809265137
371.9800109863281 373.010009765625 6.46999979019165
371.3999938964844 372.8999938964844 6.349999904632568
372.7300109863281 373.8200073242188 6.869999885559082
373.3399963378906 373.9700012207031 6.880000114440918
373.8599853515625 374.1000061035156 6.980000019073486
372.2099914550781 373.7300109863281 6.820000171661377
374.4800109863281 374.25 7.090000152587891
375.5799865722656 374.5499877929688 7.269999980926514
374.9700012207031 374.4100036621094 7.139999866485596
367.010009765625 372.4299926757812 6.400000095367432
368.75 372.8800048828125 6.449999809265137
369.9800109863281 373.1700134277344 6.480000019073486
371.6099853515625 373.5499877929688 6.710000038146973
374.1300048828125 374.760009765625 7.190000057220459
370.5499877929688 373.3099975585938 6.559999942779541
371.0700073242188 373.4599914550781 6.650000095367432
369.3200073242188 373.0199890136719 6.449999809265137
373.5400085449219 374.6300048828125 7.130000114440918
374.7300109863281 374.9400024414062 7.179999828338623
375.239990234375 375.0599975585938 7.139999866485596
367.3099975585938 373.0799865722656 6.539999961853027
366.7300109863281 372.9299926757812 6.519999980926514
369.5400085449219 373.6300048828125 6.679999828338623
371.2099914550781 374.0400085449219 6.860000133514404
370.6400146484375 373.9400024414062 6.860000133514404
368.9400024414062 373.510009765625 6.650000095367432
368.3699951171875 373.3500061035156 6.650000095367432
370.1300048828125 373.7999877929688 6.800000190734863
372.3699951171875 374.3500061035156 7.03000020980835
367.8399963378906 373.2099914550781 6.630000114440918
372.9500122070312 374.4700012207031 7.099999904632568
371.8299865722656 374.2099914550781 6.940000057220459
366.8599853515625 373.6199951171875 6.75
368.6099853515625 374.0499877929688 6.880000114440918
367.4599914550781 373.7699890136719 6.809999942779541
370.3900146484375 374.5 7.03000020980835
369.1600036621094 374.1799926757812 6.960000038146973
370.9299926757812 374.6099853515625 7.110000133514404
369.7999877929688 374.3399963378906 6.989999771118164
371.4500122070312 374.75 7.099999904632568
368.0299987792969 373.8999938964844 6.860000133514404
372.0199890136719 374.8900146484375 7.090000152587891
368.0899963378906 374.7000122070312 7.130000114440918
366.4800109863281 374.2799987792969 6.989999771118164
370.3699951171875 375.25 6.96999979019165
369.8299865722656 375.1400146484375 7.019999980926514
370.9400024414062 375.3900146484375 6.96999979019165
371.5299987792969 375.5199890136719 6.989999771118164
368.7000122070312 374.8200073242188 7.130000114440918
369.2699890136719 374.989990234375 7.059999942779541
367.5499877929688 374.5700073242188 7.090000152587891
366.989990234375 374.4400024414062 7.090000152587891
372.1099853515625 375.7000122070312 6.829999923706055
367.7099914550781 375.260009765625 7.010000228881836
368.2300109863281 375.3699951171875 6.920000076293945
367.0499877929688 375.1000061035156 7.079999923706055
371.0799865722656 376.1099853515625 6.71999979019165
371.6199951171875 376.2099914550781 6.679999828338623
370.0199890136719 375.8200073242188 6.75
368.8099975585938 375.510009765625 6.909999847412109
370.5299987792969 375.9500122070312 6.71999979019165
366.4800109863281 374.9599914550781 7.139999866485596
369.4100036621094 375.6900024414062 6.889999866485596
366.739990234375 375.6099853515625 6.909999847412109
368.4800109863281 376.0199890136719 6.650000095367432
368.9800109863281 376.1799926757812 6.71999979019165
370.1300048828125 376.4500122070312 6.670000076293945
369.6300048828125 376.2999877929688 6.610000133514404
367.3500061035156 375.7200012207031 6.829999923706055
370.7000122070312 376.5599975585938 6.599999904632568
367.8500061035156 375.8900146484375 6.739999771118164
368.1499938964844 376.5199890136719 6.579999923706055
367.6099853515625 376.3800048828125 6.610000133514404
369.3699951171875 376.8200073242188 6.489999771118164
367.0499877929688 376.2699890136719 6.630000114440918
368.7200012207031 376.6600036621094 6.510000228881836
366.6900024414062 376.8299865722656 6.360000133514404
375.8299865722656 372.9299926757812 6.46999979019165
375.2000122070312 372.7799987792969 6.400000095367432
375.4299926757812 372.8099975585938 4.980000019073486
374.5700073242188 372.6199951171875 6.340000152587891
375.3900146484375 373.489990234375 6.78000020980835
374.7099914550781 373.2999877929688 6.690000057220459
373.3999938964844 372.9700012207031 6.550000190734863
374.0499877929688 373.1600036621094 6.570000171661377
372.7000122070312 372.8299865722656 6.28000020980835
375.8599853515625 374.2999877929688 6.099999904632568
373.010009765625 373.6000061035156 6.769999980926514
370.4500122070312 372.9299926757812 6.389999866485596
375.5400085449219 374.2099914550781 7.050000190734863
371.7200012207031 373.2799987792969 6.570000171661377
372.4100036621094 373.4200134277344 6.690000057220459
369.8099975585938 372.7699890136719 6.320000171661377
371.0899963378906 373.1099853515625 6.460000038146973
375.8699951171875 375.0400085449219 5.789999961853027
375.5599975585938 374.989990234375 7.079999923706055
369.9299926757812 373.5899963378906 6.679999828338623
370.6099853515625 373.739990234375 6.760000228881836
371.1900024414062 373.8900146484375 6.800000190734863
368.6600036621094 373.260009765625 6.599999904632568
369.2999877929688 373.4500122070312 6.610000133514404
368.0899963378906 373.1400146484375 6.5
366.8200073242188 372.8099975585938 6.449999809265137
367.4800109863281 372.9800109863281 6.550000190734863
368.2099914550781 373.8399963378906 6.78000020980835
370.1799926757812 374.2999877929688 6.980000019073486
367.0299987792969 373.5199890136719 6.71999979019165
368.8399963378906 374.010009765625 6.829999923706055
367.6300048828125 373.6900024414062 6.769999980926514
369.510009765625 374.1300048828125 6.869999885559082
373.8599853515625 375.2200012207031 6.929999828338623
369.6000061035156 374.760009765625 7.079999923706055
367.7699890136719 374.3099975585938 7.039999961853027
369.0499877929688 374.5899963378906 7.130000114440918
367.1499938964844 374.1499938964844 6.960000038146973
366.5299987792969 373.9599914550781 6.929999828338623
368.3800048828125 374.4200134277344 7.059999942779541
375.6199951171875 376.8599853515625 6.480000019073486
375.0499877929688 376.7099914550781 6.639999866485596
368.3500061035156 375.0799865722656 7.070000171661377
368.9700012207031 375.2000122070312 7.019999980926514
367.1799926757812 374.760009765625 7.139999866485596
367.7699890136719 374.9299926757812 7.159999847412109
366.5799865722656 374.6000061035156 7.190000057220459
366.6000061035156 375.3500061035156 7.070000171661377
367.3999938964844 375.5299987792969 5.690000057220459
367.1199951171875 375.5 6.960000038146973
368.8999938964844 375.9500122070312 6.78000020980835
367.739990234375 375.6400146484375 6.880000114440918
367.7900085449219 376.260009765625 6.610000133514404
366.0700073242188 375.8699951171875 7.090000152587891
367.1199951171875 376.1000061035156 6.699999809265137
366.6199951171875 375.989990234375 6.849999904632568
367.2000122070312 376.7099914550781 6.489999771118164
366.6300048828125 376.5599975585938 6.579999923706055
367.8599853515625 376.8699951171875 6.440000057220459
375.3599853515625 372.9500122070312 6.590000152587891
375.8999938964844 373.1199951171875 6.230000019073486
375.9299926757812 373.1600036621094 4.860000133514404
375.2099914550781 372.9700012207031 4.989999771118164
373.4500122070312 373.2000122070312 6.590000152587891
375.7699890136719 373.7699890136719 6.809999942779541
375.9100036621094 373.7999877929688 5.659999847412109
374.4599914550781 372.7699890136719 6.360000133514404
373.6600036621094 372.5799865722656 6.300000190734863
375.9400024414062 375.3999938964844 5.929999828338623
374.3900146484375 374.9800109863281 7.139999866485596
375.0700073242188 375.1400146484375 7.099999904632568
373.9800109863281 374.0799865722656 7
375.8699951171875 374.510009765625 6.210000038146973
375.5799865722656 376.5899963378906 6.590000152587891
376 374.5899963378906 5.010000228881836
375.8900146484375 376.0599975585938 6.53000020980835
374.1400146484375 376.2300109863281 6.769999980926514
373.0799865722656 376.4599914550781 6.579999923706055
372.3599853515625 376.1799926757812 6.75
370.9299926757812 375.739990234375 6.869999885559082
370.6099853515625 374.489990234375 7.03000020980835
371.0599975585938 376.2699890136719 6.639999866485596
370.7799987792969 375.1600036621094 6.96999979019165
369.760009765625 373.1799926757812 6.460000038146973
370.1499938964844 374.7799987792969 7.190000057220459
369.9200134277344 373.9599914550781 6.710000038146973
370.4299926757812 375.8500061035156 6.809999942779541
370.5899963378906 376.489990234375 6.610000133514404
369.1900024414062 373.6300048828125 6.639999866485596
369.7300109863281 375.6499938964844 6.860000133514404
369.5700073242188 375.0899963378906 7.099999904632568
369.8800048828125 376.25 6.78000020980835
368.75 374.6900024414062 7.150000095367432
368.8999938964844 375.239990234375 7.03000020980835
369.0299987792969 375.8500061035156 6.829999923706055
369.1799926757812 376.4400024414062 6.650000095367432
368.4100036621094 373.2000122070312 6.5
368.5799865722656 373.8999938964844 6.829999923706055
368.0299987792969 374.4400024414062 7.010000228881836
367.8399963378906 373.6900024414062 6.78000020980835
368.2000122070312 375.1300048828125 7.070000171661377
368.6199951171875 376.7900085449219 6.489999771118164
368.4500122070312 376.2000122070312 6.679999828338623
367.3500061035156 373.8999938964844 6.840000152587891
367.7900085449219 375.8200073242188 6.840000152587891
367.5400085449219 374.6900024414062 7.150000095367432
367.7000122070312 375.2900085449219 7.059999942779541
367.9400024414062 376.4299926757812 6.679999828338623
368.1400146484375 377.0400085449219 6.46999979019165
367.1499938964844 373.1600036621094 6.559999942779541
366.8299865722656 374.3599853515625 7.079999923706055
367.25 376.1700134277344 6.71999979019165
366.9800109863281 375.0400085449219 7.150000095367432
367.3999938964844 376.7000122070312 6.53000020980835
366.6099853515625 373.5299987792969 6.670000076293945
366.5 375.8299865722656 6.900000095367432
366.6300048828125 376.4200134277344 6.650000095367432
366.0700073242188 375.8900146484375 7.110000133514404
366.8399963378906 376.739990234375 6.519999980926514
366.5400085449219 375.6300048828125 6.940000057220459
366.4100036621094 375.0700073242188 7.119999885559082
366.7099914550781 376.2000122070312 6.710000038146973
367.5199890136719 376.989990234375 6.449999809265137
367.25 375.9200134277344 6.800000190734863
366.7200012207031 373.6400146484375 6.760000228881836
366.5499877929688 373.010009765625 6.519999980926514
367.4200134277344 376.4299926757812 6.559999942779541
366.989990234375 374.8500061035156 7.190000057220459
367.1499938964844 375.3399963378906 6.980000019073486
366.8299865722656 374.2300109863281 7.039999961853027
368.239990234375 376.760009765625 6.559999942779541
367.6900024414062 374.5499877929688 7.119999885559082
368.0700073242188 376.2300109863281 6.670000076293945
367.8200073242188 375.0499877929688 7.079999923706055
367.9299926757812 375.6600036621094 6.840000152587891
367.3399963378906 373.2799987792969 6.630000114440918
367.4800109863281 373.8900146484375 6.849999904632568
368.7900085449219 376.4100036621094 6.659999847412109
368.5199890136719 375.3099975585938 6.989999771118164
368.9500122070312 376.9200134277344 6.489999771118164
368.0899963378906 373.5700073242188 6.769999980926514
368.260009765625 374.1499938964844 6.949999809265137
368.6799926757812 375.8299865722656 6.789999961853027
367.9299926757812 372.9500122070312 6.550000190734863
368.3900146484375 374.7900085449219 7.130000114440918
369.3599853515625 376.2099914550781 6.690000057220459
369.489990234375 376.7099914550781 6.53000020980835
369.0400085449219 375.0799865722656 7.070000171661377
369.2099914550781 375.5899963378906 6.909999847412109
368.8999938964844 374.510009765625 7.079999923706055
368.6099853515625 373.2300109863281 6.639999866485596
368.75 373.8800048828125 6.829999923706055
369.5 374.2099914550781 6.929999828338623
369.6300048828125 374.8500061035156 7.130000114440918
369.3500061035156 373.6199951171875 6.699999809265137
369.760009765625 375.3699951171875 6.960000038146973
369.1600036621094 373.0400085449219 6.5
369.8999938964844 375.8800048828125 6.789999961853027
370.0199890136719 376.4500122070312 6.590000152587891
370.2900085449219 374.5299987792969 7.039999961853027
370.0899963378906 373.8500061035156 6.820000171661377
369.7999877929688 372.6600036621094 6.260000228881836
370.5299987792969 375.6499938964844 6.869999885559082
369.9299926757812 373.2699890136719 6.559999942779541
370.3800048828125 375.0700073242188 7.050000190734863
371.0799865722656 375.3299865722656 6.929999828338623
370.9800109863281 374.7799987792969 7.110000133514404
370.7999877929688 374.1900024414062 6.940000057220459
370.6799926757812 373.5799865722656 6.690000057220459
370.5 372.9700012207031 6.460000038146973
370.989990234375 372.6900024414062 6.269999980926514
371.1499938964844 373.2999877929688 6.550000190734863
371.489990234375 374.5400085449219 7.079999923706055
371.3099975585938 373.9299926757812 6.789999961853027
371.75 375.6700134277344 6.840000152587891
372.0899963378906 374.2999877929688 7.050000190734863
371.9400024414062 373.7099914550781 6.769999980926514
371.7900085449219 373.1400146484375 6.489999771118164
371.6099853515625 372.5199890136719 6.320000171661377
372.5499877929688 373.3999938964844 6.670000076293945
372.7200012207031 373.9500122070312 6.900000095367432
372.4100036621094 372.7300109863281 6.300000190734863
373 372.5 6.269999980926514
373.1499938964844 373.0599975585938 6.539999961853027
373.2699890136719 373.6700134277344 6.789999961853027
373.5799865722656 372.7300109863281 6.340000152587891
373.75 373.3800048828125 6.690000057220459
374.2000122070312 372.5899963378906 6.389999866485596
374.5299987792969 373.7799987792969 6.949999809265137
375.1700134277344 373.5 6.829999923706055
375.3500061035156 374.0799865722656 6.860000133514404
375.0199890136719 372.8800048828125 6.510000228881836
375.7799987792969 373.1600036621094 6.630000114440918
375.6300048828125 372.6400146484375 6.380000114440918
375.6099853515625 372.510009765625 4.869999885559082
375.4100036621094 372.510009765625 4.980000019073486
375.4800109863281 372.8599853515625 6.489999771118164
375.6400146484375 373.3500061035156 6.710000038146973
375.8800048828125 374.489990234375 7.119999885559082
375.75 373.8999938964844 6.980000019073486
374.9299926757812 373.2999877929688 6.659999847412109
375.2300109863281 374.3800048828125 7.090000152587891
375.3800048828125 375.010009765625 7.190000057220459
375.0700073242188 373.8800048828125 6.880000114440918
375.6499938964844 376.2000122070312 6.800000190734863
375.5199890136719 375.5799865722656 6.929999828338623
374.8399963378906 372.7900085449219 6.369999885559082
374.2200012207031 372.6600036621094 6.349999904632568
374.3500061035156 373.260009765625 6.639999866485596
374.4800109863281 373.739990234375 6.860000133514404
374.9599914550781 375.5899963378906 6.96999979019165
375.239990234375 376.8399963378906 6.5
375.0899963378906 376.1799926757812 6.75
373.5799865722656 372.5799865722656 6.340000152587891
373.9700012207031 374.2099914550781 7
373.7999877929688 373.6600036621094 6.789999961853027
374.25 375.3999938964844 7.019999980926514
374.3999938964844 376 6.800000190734863
374.1000061035156 374.7300109863281 7.210000038146973
373.6900024414062 373.1199951171875 6.570000171661377
374.5700073242188 376.5799865722656 6.71999979019165
372.8399963378906 372.4400024414062 6.21999979019165
373.260009765625 374.1099853515625 6.940000057220459
373.1000061035156 373.6000061035156 6.75
373.4100036621094 374.7000122070312 7.159999847412109
373.5400085449219 375.3500061035156 7.039999961853027
372.9800109863281 373.0199890136719 6.53000020980835
372.4400024414062 373.4400024414062 6.699999809265137
372.6000061035156 374.0199890136719 6.940000057220459
372.3299865722656 372.9500122070312 6.420000076293945
372.8500061035156 375.1700134277344 7.070000171661377
373.2000122070312 376.3999938964844 6.650000095367432
373.010009765625 375.8200073242188 6.869999885559082
372.7099914550781 374.5199890136719 7.139999866485596
372.1700134277344 372.3999938964844 6.309999942779541
371.6900024414062 372.6900024414062 6.269999980926514
371.9599914550781 373.8200073242188 6.829999923706055
372.2300109863281 374.9800109863281 7.130000114440918
372.4299926757812 375.6300048828125 6.889999866485596
372.5799865722656 376.2699890136719 6.670000076293945
371.8599853515625 373.2900085449219 6.579999923706055
372.1000061035156 374.3599853515625 7.050000190734863
371.1900024414062 373.1700134277344 6.5
371.5400085449219 374.7699890136719 7.099999904632568
371.0499877929688 372.5899963378906 6.25
371.2999877929688 373.6499938964844 6.710000038146973
371.7000122070312 375.3599853515625 6.96999979019165
372.0400085449219 376.6099853515625 6.610000133514404
371.4100036621094 374.1799926757812 6.920000076293945
370.4500122070312 373.0199890136719 6.389999866485596
370.8500061035156 374.6700134277344 7.110000133514404
370.5799865722656 373.5400085449219 6.679999828338623
370.2900085449219 372.4299926757812 6.260000228881836
371.3099975585938 376.5899963378906 6.650000095367432
371.1400146484375 375.9599914550781 6.789999961853027
370.7300109863281 374.1499938964844 6.860000133514404
371.010009765625 375.2999877929688 6.960000038146973
369.8200073242188 373.0199890136719 6.360000133514404
369.9299926757812 373.5 6.619999885559082
370.3299865722656 375.1799926757812 7.039999961853027
370.6700134277344 376.4700012207031 6.599999904632568
370.1700134277344 374.5299987792969 7.039999961853027
370.4700012207031 375.7999877929688 6.840000152587891
370.0700073242188 374.0499877929688 6.840000152587891
369.8900146484375 375.6700134277344 6.860000133514404
369.4800109863281 373.8800048828125 6.829999923706055
370.0499877929688 376.3099975585938 6.659999847412109
369.75 374.9800109863281 7.070000171661377
369.6300048828125 374.4599914550781 7
369.3200073242188 373.2999877929688 6.559999942779541
369.1799926757812 372.7699890136719 6.369999885559082
368.6400146484375 373.1799926757812 6.53000020980835
369.1700134277344 375.4500122070312 7
369.5 376.7200012207031 6.559999942779541
369.3599853515625 376.010009765625 6.800000190734863
368.8900146484375 374.239990234375 6.929999828338623
369.0499877929688 374.7999877929688 7.150000095367432
368.760009765625 373.6900024414062 6.78000020980835
368.2699890136719 374.7200012207031 7.110000133514404
368.5799865722656 375.9800109863281 6.78000020980835
368.4299926757812 375.3200073242188 6.989999771118164
368.7799987792969 376.6099853515625 6.639999866485596
367.989990234375 373.5700073242188 6.760000228881836
368.1400146484375 374.1300048828125 6.980000019073486
367.8599853515625 373.0700073242188 6.519999980926514
367.2200012207031 373.1000061035156 6.570000171661377
367.4800109863281 374.1600036621094 6.960000038146973
367.760009765625 375.2900085449219 7.039999961853027
368.1199951171875 376.5599975585938 6.610000133514404
367.6099853515625 374.6900024414062 7.119999885559082
367.3800048828125 373.6000061035156 6.75
367.9299926757812 375.9400024414062 6.760000228881836
366.8099975585938 373.489990234375 6.679999828338623
366.6900024414062 372.9700012207031 6.420000076293945
367.2200012207031 375.1900024414062 7.059999942779541
366.9400024414062 374.0299987792969 6.929999828338623
367.3999938964844 375.8500061035156 6.78000020980835
367.0499877929688 374.5700073242188 7.150000095367432
367.5599975585938 376.489990234375 6.570000171661377
366.5599975585938 375.0299987792969 7.21999979019165
366.8900146484375 376.3200073242188 6.639999866485596
366.5899963378906 375.239990234375 6.090000152587891
366.6900024414062 375.6499938964844 6.880000114440918
366.989990234375 376.8900146484375 6.769999980926514
366.0899963378906 376.0700073242188 7.269999980926514
366.510009765625 374.7200012207031 6.340000152587891
366.6199951171875 375.1799926757812 7.050000190734863
366.9599914550781 376.6499938964844 6.739999771118164
366.8200073242188 375.9500122070312 6.71999979019165
367.1600036621094 374.6099853515625 7.170000076293945
367.3500061035156 375.3599853515625 6.949999809265137
367.010009765625 374.0400085449219 6.96999979019165
367.5400085449219 376.1700134277344 6.659999847412109
366.7099914550781 372.8299865722656 6.449999809265137
366.8399963378906 373.4400024414062 6.659999847412109
366.8200073242188 373.2699890136719 5.480000019073486
367.5299987792969 373.0700073242188 6.550000190734863
368.3999938964844 376.5700073242188 6.550000190734863
368 374.9100036621094 7.159999847412109
367.8200073242188 374.2200012207031 7.019999980926514
368.2200012207031 375.739990234375 6.809999942779541
367.6400146484375 373.6300048828125 6.829999923706055
368.7300109863281 375.0700073242188 7.059999942779541
369.1600036621094 376.7000122070312 6.659999847412109
368.9500122070312 375.8800048828125 6.78000020980835
368.260009765625 373.239990234375 6.630000114440918
368.5499877929688 374.3999938964844 7.039999961853027
368.3299865722656 373.3800048828125 4.809999942779541
368.3999938964844 373.8500061035156 6.829999923706055
368.8099975585938 372.9200134277344 6.449999809265137
368.9299926757812 373.3900146484375 5.460000038146973
368.9400024414062 373.4599914550781 6.679999828338623
369.2300109863281 374.739990234375 7.119999885559082
369.6499938964844 376.3200073242188 6.639999866485596
369.4500122070312 375.5400085449219 6.900000095367432
369.0700073242188 374.1400146484375 6.929999828338623
370.2099914550781 375.739990234375 6.78000020980835
369.7099914550781 373.75 6.739999771118164
369.8399963378906 374.2999877929688 6.949999809265137
369.5400085449219 373.2000122070312 4.900000095367432
369.9700012207031 374.9599914550781 7.019999980926514
370.4100036621094 376.510009765625 6.739999771118164
369.5599975585938 373.1700134277344 6.480000019073486
369.4200134277344 372.5899963378906 6.179999828338623
370.5 374.0199890136719 6.889999866485596
370.2099914550781 372.8599853515625 6.340000152587891
370.8399963378906 375.3599853515625 6.940000057220459
370.3399963378906 373.489990234375 4.960000038146973
371.1700134277344 376.6600036621094 7.150000095367432
370.2999877929688 373.3800048828125 6.619999885559082
371.0299987792969 376.1600036621094 6.670000076293945
370.6499938964844 374.5899963378906 7.119999885559082
371.8800048828125 376.9500122070312 7.090000152587891
371.1900024414062 374.1499938964844 6.96999979019165
371.7900085449219 376.4200134277344 6.670000076293945
371.0700073242188 373.5799865722656 6.699999809265137
371.3800048828125 374.7900085449219 7.059999942779541
371.5400085449219 375.5299987792969 6.880000114440918
370.8999938964844 373.0400085449219 6.480000019073486
370.9400024414062 373.1000061035156 4.75
371.6099853515625 373.3399963378906 4.980000019073486
371.739990234375 373.8699951171875 6.860000133514404
371.5599975585938 373.3200073242188 6.579999923706055
371.8999938964844 374.510009765625 7.099999904632568
372.0899963378906 375.2300109863281 6.980000019073486
371.4200134277344 372.75 6.260000228881836
372.2699890136719 376.010009765625 6.809999942779541
372.6300048828125 374.6900024414062 7.130000114440918
372.1700134277344 372.989990234375 6.440000057220459
372.489990234375 374.1000061035156 6.980000019073486
372.8099975585938 375.510009765625 6.900000095367432
373.0400085449219 376.3500061035156 6.619999885559082
372.3399963378906 373.510009765625 6.78000020980835
372.1499938964844 372.8699951171875 5.179999828338623
373.4599914550781 375.1199951171875 7.039999961853027
373.2699890136719 374.3900146484375 7.090000152587891
372.8299865722656 372.6600036621094 6.260000228881836
372.9800109863281 373.1600036621094 6.559999942779541
373.1400146484375 373.7999877929688 6.840000152587891
373.7000122070312 375.9100036621094 6.769999980926514
373.8299865722656 373.9200134277344 6.940000057220459
373.6900024414062 373.3699951171875 6.710000038146973
374.1799926757812 375.2300109863281 6.949999809265137
373 373.2799987792969 4.960000038146973
374.010009765625 374.489990234375 7.099999904632568
373.5899963378906 372.8099975585938 6.360000133514404
374.4800109863281 374.25 7.079999923706055
374.25 373.1600036621094 4.889999866485596
374.6700134277344 374.8699951171875 7.150000095367432
374.3299865722656 373.6400146484375 6.809999942779541
374.0400085449219 372.489990234375 6.269999980926514
374.8399963378906 375.6000061035156 7.070000171661377
374.1900024414062 373.0199890136719 6.559999942779541
375.0799865722656 376.510009765625 6.650000095367432
375.6300048828125 376.0299987792969 6.699999809265137
374.9500122070312 373.3900146484375 5.070000171661377
375.2099914550781 374.3900146484375 7.199999809265137
375.1000061035156 373.8500061035156 6.949999809265137
374.8099975585938 372.7200012207031 6.420000076293945
374.9500122070312 373.2799987792969 6.670000076293945
374.7900085449219 372.6400146484375 5.059999942779541
375.6300048828125 373.0700073242188 4.849999904632568
375.6000061035156 372.9200134277344 6.579999923706055
375.7699890136719 373.510009765625 6.809999942779541
374.2999877929688 376.4700012207031 6.690000057220459
373.8500061035156 375.9800109863281 6.820000171661377
373.739990234375 376.489990234375 6.599999904632568
373.260009765625 376.0899963378906 6.71999979019165
373.1199951171875 376.6000061035156 6.559999942779541
372.5 376.0700073242188 6.78000020980835
372.3599853515625 376.6700134277344 6.5
372.7799987792969 374.8800048828125 7.110000133514404
372.9700012207031 374.1300048828125 6.900000095367432
373.2099914550781 373.3500061035156 6.559999942779541
372.0799865722656 375.1000061035156 7.070000171661377
372.25 374.4299926757812 6.989999771118164
371.6799926757812 376.8699951171875 6.710000038146973
371.8200073242188 376.239990234375 6.690000057220459
371.9800109863281 375.7099914550781 6.880000114440918
371.2300109863281 376.3299865722656 6.639999866485596
371.3800048828125 375.75 6.840000152587891
371.6400146484375 374.5199890136719 7.079999923706055
371.4800109863281 375.1400146484375 7.050000190734863
372.0899963378906 372.8800048828125 6.349999904632568
371.8599853515625 373.6799926757812 6.710000038146973
370.7900085449219 375.260009765625 6.980000019073486
370.9800109863281 374.6300048828125 7.099999904632568
371.3900146484375 373.0700073242188 6.380000114440918
370.5700073242188 376.3800048828125 6.639999866485596
371.1600036621094 373.8200073242188 6.699999809265137
370.6400146484375 373.0700073242188 6.5
370.3999938964844 373.9100036621094 6.760000228881836
369.7999877929688 376.4700012207031 6.579999923706055
370.0899963378906 375.2900085449219 6.989999771118164
369.9500122070312 375.8999938964844 6.800000190734863
370.2200012207031 374.6900024414062 7.090000152587891
369.3999938964844 375.4500122070312 7
369.5400085449219 374.8999938964844 7.110000133514404
369.7200012207031 374.1199951171875 6.800000190734863
369.9299926757812 373.3999938964844 6.53000020980835
369.2699890136719 376.0799865722656 6.78000020980835
369.1600036621094 376.6099853515625 6.590000152587891
368.9299926757812 374.9800109863281 7.110000133514404
369.5199890136719 372.75 6.340000152587891
369.3399963378906 373.5 6.579999923706055
369.1000061035156 374.3200073242188 6.96999979019165
368.8200073242188 375.6400146484375 6.880000114440918
368.2699890136719 375.1199951171875 7.050000190734863
368.6600036621094 373.6300048828125 6.619999885559082
368.8500061035156 372.9800109863281 6.489999771118164
368.4400024414062 374.4599914550781 7.03000020980835
367.7000122070312 374.5499877929688 7.090000152587891
368.1000061035156 373.0599975585938 6.519999980926514
367.8900146484375 373.8299865722656 6.809999942779541
367.3800048828125 373.25 6.5
367.1700134277344 374.0499877929688 6.900000095367432
366.6600036621094 374.0700073242188 4.809999942779541
366.6199951171875 374.0899963378906 6.630000114440918
366.75 373.4100036621094 6.590000152587891
366.3999938964844 373.4400024414062 5.769999980926514
366.5700073242188 372.8699951171875 6.460000038146973
367.1199951171875 373.239990234375 6.639999866485596
366.5799865722656 375.5199890136719 6.949999809265137
366.760009765625 374.989990234375 7.130000114440918
366.5400085449219 375.4100036621094 5.610000133514404
366.8699951171875 374.3900146484375 7.099999904632568
366.989990234375 373.8399963378906 6.869999885559082
367.9700012207031 372.9800109863281 6.53000020980835
367.6499938964844 374.2000122070312 7
367.5599975585938 374.760009765625 7.139999866485596
367.2200012207031 375.9299926757812 6.800000190734863
367.3999938964844 375.3299865722656 6.96999979019165
367.7999877929688 373.5700073242188 6.809999942779541
367.1000061035156 376.4500122070312 6.590000152587891
368.6600036621094 372.7699890136719 6.46999979019165
368.4200134277344 373.8999938964844 6.869999885559082
368.010009765625 375.5799865722656 6.829999923706055
368.5599975585938 373.3500061035156 6.630000114440918
368.1199951171875 375.0700073242188 7.059999942779541
367.8500061035156 376.1799926757812 6.659999847412109
368.2699890136719 374.4700012207031 7.059999942779541
367.7300109863281 376.7200012207031 6.5
369.239990234375 373.0199890136719 6.409999847412109
369.1099853515625 373.6199951171875 6.690000057220459
368.510009765625 375.9400024414062 6.75
368.3399963378906 376.5499877929688 6.539999961853027
368.6499938964844 375.3699951171875 6.989999771118164
368.9599914550781 374.2300109863281 6.96999979019165
368.8099975585938 374.7699890136719 7.150000095367432
369.6499938964844 373.9800109863281 6.829999923706055
369.2300109863281 375.7000122070312 6.849999904632568
369.9100036621094 372.8099975585938 6.320000171661377
369.7799987792969 373.3999938964844 6.630000114440918
369.5599975585938 374.5700073242188 7.070000171661377
369.1099853515625 376.239990234375 6.619999885559082
368.9800109863281 376.8299865722656 6.480000019073486
369.3699951171875 375.1499938964844 7.050000190734863
370.4400024414062 373.75 6.800000190734863
370.2999877929688 374.3500061035156 6.980000019073486
370.6199951171875 373.1199951171875 6.539999961853027
369.8900146484375 376.0400085449219 6.690000057220459
370.1900024414062 374.9100036621094 7.090000152587891
369.75 376.6099853515625 6.46999979019165
370.0299987792969 375.4599914550781 6.909999847412109
370.5899963378906 375.760009765625 6.829999923706055
371.260009765625 372.9299926757812 6.400000095367432
371.0400085449219 374.0299987792969 6.840000152587891
370.8800048828125 374.6300048828125 7.130000114440918
370.7300109863281 375.2300109863281 7.010000228881836
371.1700134277344 373.4599914550781 6.690000057220459
371.9400024414062 372.5899963378906 6.230000019073486
371.5700073242188 374.4200134277344 7.050000190734863
371.6700134277344 373.7900085449219 6.789999961853027
371.8200073242188 373.1600036621094 6.539999961853027
371.25 375.5400085449219 6.889999866485596
372.6700134277344 372.489990234375 6.25
372.510009765625 373.0700073242188 6.5
372.260009765625 374.2300109863281 7.010000228881836
372.4200134277344 373.6499938964844 6.730000019073486
372.1199951171875 374.7999877929688 7.21999979019165
371.8399963378906 375.8800048828125 6.75
373.3399963378906 372.7900085449219 6.309999942779541
373.239990234375 373.3399963378906 6.71999979019165
373.1000061035156 373.9800109863281 6.96999979019165
374.0700073242188 372.5400085449219 6.28000020980835
373.9599914550781 373.1400146484375 6.619999885559082
374.3200073242188 373.9100036621094 6.909999847412109
374.6000061035156 372.6900024414062 6.389999866485596
375.3099975585938 372.5899963378906 6.389999866485596
375.1700134277344 373.1799926757812 6.610000133514404
375.0499877929688 373.7300109863281 6.880000114440918
376 372.8699951171875 6.519999980926514
375.8900146484375 373.4599914550781 6.769999980926514
375.5599975585938 376.260009765625 6.730000019073486
375.8399963378906 375.0899963378906 7
375.739990234375 375.6600036621094 6.940000057220459
374.9599914550781 376.489990234375 6.71999979019165
375.25 375.239990234375 7.039999961853027
375.0799865722656 375.8399963378906 6.920000076293945
375.6799926757812 373.5700073242188 6.820000171661377
375.510009765625 374.1099853515625 7.070000171661377
375.4100036621094 374.6499938964844 7.230000019073486
375.8299865722656 373.0199890136719 6.559999942779541
374.6700134277344 374.7999877929688 7.159999847412109
375.2799987792969 372.8599853515625 5.010000228881836
375.260009765625 372.5599975585938 6.340000152587891
374.989990234375 373.6400146484375 6.860000133514404
375.1099853515625 373.1499938964844 6.619999885559082
374.8200073242188 374.2099914550781 7.139999866485596
374.3699951171875 376.0299987792969 6.829999923706055
374.5199890136719 375.4200134277344 7.03000020980835
373.5899963378906 376.1799926757812 6.789999961853027
373.7300109863281 375.5 6.949999809265137
374.010009765625 374.3399963378906 7.110000133514404
373.8599853515625 374.9400024414062 7.119999885559082
374.4400024414062 372.739990234375 6.400000095367432
374.3200073242188 373.3299865722656 6.659999847412109
374.1799926757812 373.8599853515625 6.860000133514404
372.8599853515625 376.4800109863281 6.619999885559082
372.9800109863281 375.8200073242188 6.869999885559082
373.2699890136719 374.6099853515625 7.170000076293945
373.4299926757812 374.0299987792969 6.96999979019165
373.739990234375 372.9299926757812 6.53000020980835
373.1199951171875 375.2099914550781 7.050000190734863
373.5700073242188 373.5 6.730000019073486
372.5 375.4400024414062 6.980000019073486
372.6499938964844 374.8299865722656 7.119999885559082
372.8200073242188 374.3299865722656 7.059999942779541
373.0599975585938 373.2699890136719 6.599999904632568
373.239990234375 372.6900024414062 6.289999961853027
372.9599914550781 373.7900085449219 6.849999904632568
372.3699951171875 376.0799865722656 6.730000019073486
