473.7799987792969 345.3500061035156 10.6899995803833
484.6799926757812 342.5599975585938 10.69999980926514
471.989990234375 345.7099914550781 4.769999980926514
473.1000061035156 344.7900085449219 10.35000038146973
472.5299987792969 344.9700012207031 10.18000030517578
472.0599975585938 345.0700073242188 9.949999809265137
479.8099975585938 343.1499938964844 12.0600004196167
478.7000122070312 343.3900146484375 11.6899995803833
479.2000122070312 343.2999877929688 11.85000038146973
478.1400146484375 343.5799865722656 11.5
483.3399963378906 342.2099914550781 10.97999954223633
484.510009765625 341.9500122070312 10.52999973297119
482.7000122070312 342.4100036621094 11.1899995803833
482.1600036621094 342.510009765625 11.40999984741211
476.4400024414062 343.9599914550781 10.90999984741211
475.8900146484375 344.0899963378906 10.72000026702881
481 342.8500061035156 11.85000038146973
483.8800048828125 342.1000061035156 10.72000026702881
474.7799987792969 344.3900146484375 10.78999996185303
476.9800109863281 343.8399963378906 11.0600004196167
475.3699951171875 344.2200012207031 10.63000011444092
481.5499877929688 342.7200012207031 11.67000007629395
480.3900146484375 342.9800109863281 12.09000015258789
473.6600036621094 344.6600036621094 10.55000019073486
477.5899963378906 343.7099914550781 11.26000022888184
474.239990234375 344.5199890136719 10.73999977111816
479.010009765625 342.6000061035156 11.59000015258789
480.6300048828125 342.2300109863281 11.69999980926514
481.8500061035156 341.9299926757812 11.23999977111816
480.1199951171875 342.3399963378906 11.88000011444092
474.5199890136719 343.739990234375 10.56999969482422
475.0899963378906 343.6000061035156 10.38000011444092
481.2300109863281 342.0499877929688 11.52000045776367
473.9200134277344 343.8900146484375 10.44999980926514
479.5199890136719 342.510009765625 11.77000045776367
472.7999877929688 344.1799926757812 10.02999973297119
473.3900146484375 344.0499877929688 10.22999954223633
476.2300109863281 343.3399963378906 10.67000007629395
477.3099975585938 343.0299987792969 11.01000022888184
477.9100036621094 342.8800048828125 11.22999954223633
476.7799987792969 343.1900024414062 10.80000019073486
478.4500122070312 342.7799987792969 11.38000011444092
472.260009765625 344.2999877929688 9.880000114440918
475.7200012207031 343.4700012207031 10.47999954223633
479.260009765625 341.8999938964844 11.5
478.739990234375 342.0400085449219 11.31999969482422
475.9299926757812 342.75 10.36999988555908
477.5899963378906 342.3200073242188 10.89999961853027
476.4599914550781 342.6199951171875 10.53999996185303
477.010009765625 342.4700012207031 10.72000026702881
474.8299865722656 343.0299987792969 10.23999977111816
478.1499938964844 342.2099914550781 11.14999961853027
473.7099914550781 343.2900085449219 10.17000007629395
473.1600036621094 343.4299926757812 9.989999771118164
475.4400024414062 342.8900146484375 10.22000026702881
472.5799865722656 343.5899963378906 9.850000381469727
474.260009765625 343.1600036621094 10.32999992370605
476.2999877929688 342.1099853515625 10.32999992370605
475.1499938964844 342.3999938964844 9.930000305175781
473.4100036621094 342.8200073242188 9.880000114440918
476.8500061035156 341.9800109863281 10.51000022888184
474.5599975585938 342.5499877929688 10.07999992370605
475.75 342.2699890136719 10.14999961853027
474.0199890136719 342.6600036621094 10.17000007629395
477.3999938964844 341.8200073242188 10.68000030517578
474.0799865722656 341.9599914550781 7.159999847412109
474.3800048828125 341.9299926757812 9.869999885559082
473.8299865722656 342.0700073242188 9.880000114440918
474.6000061035156 341.8299865722656 7.480000019073486
488.2999877929688 341.489990234375 7.829999923706055
488.8999938964844 341.3200073242188 8.020000457763672
490.0199890136719 341.0799865722656 7.639999866485596
485.6900024414062 340 7.460000038146973
489.5499877929688 341.1799926757812 7.920000076293945
486.239990234375 339.9100036621094 7.28000020980835
486.6199951171875 341.1400146484375 7.170000076293945
487.2099914550781 340.989990234375 7.25
487.8699951171875 340.8200073242188 7.510000228881836
484.9100036621094 341.5299987792969 10.17000007629395
488.4700012207031 340.6799926757812 7.730000019073486
489.1199951171875 340.4800109863281 7.869999885559082
485.6199951171875 341.3999938964844 7.619999885559082
486.1400146484375 341.2699890136719 7.409999847412109
487.5799865722656 340.1700134277344 7.150000095367432
486.0400085449219 341.239990234375 9.859999656677246
485.4800109863281 341.3800048828125 9.970000267028809
482.4800109863281 341.4200134277344 10.86999988555908
482.9700012207031 341.260009765625 10.64999961853027
484.0899963378906 341.0199890136719 10.22000026702881
481.8800048828125 341.5499877929688 11.02999973297119
488.2300109863281 339.9800109863281 7.380000114440918
484.6199951171875 340.8599853515625 10.05000019073486
486.4100036621094 340.4500122070312 7.150000095367432
485.1900024414062 340.75 9.810000419616699
485.2900085449219 340.7200012207031 7.46999979019165
481.5799865722656 341.0199890136719 10.92000007629395
481.1000061035156 341.1400146484375 11.10999965667725
480.489990234375 341.260009765625 11.32999992370605
479.3200073242188 341.5499877929688 11.39999961853027
483.8200073242188 340.4700012207031 10.0600004196167
484.6099853515625 340.2999877929688 7.849999904632568
483.25 340.6099853515625 10.30000019073486
485.8299865722656 340.6199951171875 7.25
482.6900024414062 340.7200012207031 10.48999977111816
484.7300109863281 340.8800048828125 7.639999866485596
484.3500061035156 340.3099975585938 9.859999656677246
484 340.4100036621094 8.029999732971191
483.5199890136719 341.1400146484375 10.43000030517578
482.1000061035156 340.8800048828125 10.71000003814697
479.9800109863281 341.3900146484375 11.55000019073486
485.2000122070312 340.1499938964844 7.659999847412109
477.75 341.2900085449219 10.68000030517578
477.1799926757812 341.4599914550781 10.4399995803833
479.1000061035156 340.9800109863281 11.15999984741211
476.5599975585938 341.5899963378906 10.27999973297119
480.8800048828125 340.5199890136719 10.98999977111816
483.5700073242188 339.8699951171875 10.10000038146973
481.9700012207031 340.2300109863281 10.60000038146973
480.260009765625 340.6499938964844 11.19999980926514
482.4599914550781 340.1199951171875 10.44999980926514
478.4500122070312 341.1000061035156 10.92000007629395
483.0299987792969 339.9599914550781 10.27999973297119
483.7699890136719 339.8299865722656 7.889999866485596
481.4400024414062 340.3800048828125 10.80000019073486
484.2999877929688 339.6600036621094 7.989999771118164
485.4500122070312 339.3900146484375 7.71999979019165
484.9700012207031 339.5400085449219 7.949999809265137
484.1099853515625 339.7000122070312 9.710000038146973
479.6799926757812 340.8099975585938 11.31999969482422
482.5599975585938 338.8099975585938 7.119999885559082
483.1600036621094 338.6600036621094 7.179999828338623
476.2699890136719 340.989990234375 9.989999771118164
478.1400146484375 340.5199890136719 10.64000034332275
477.5700073242188 340.6700134277344 10.43000030517578
474.5299987792969 341.4800109863281 7.300000190734863
478.760009765625 340.3699951171875 10.86999988555908
480.0499877929688 340.0400085449219 11.25
481.7300109863281 339.6300048828125 10.93000030517578
475.1900024414062 341.3099975585938 7.460000038146973
483.4200134277344 339.2000122070312 7.519999980926514
475.6600036621094 341.1300048828125 9.899999618530273
482.8299865722656 339.3500061035156 10.52999973297119
483.8200073242188 338.489990234375 7.409999847412109
484.0700073242188 339.0400085449219 7.739999771118164
480.6099853515625 339.8800048828125 11.26000022888184
482.8200073242188 339.3999938964844 7.260000228881836
481.1799926757812 339.7300109863281 11.10000038146973
483.3699951171875 339.1799926757812 10.27000045776367
479.3599853515625 340.2099914550781 11.03999996185303
484.7300109863281 338.8999938964844 7.909999847412109
476.9400024414062 340.7999877929688 10.25
475.5700073242188 340.5899963378906 7.489999771118164
478.5499877929688 339.7999877929688 10.60000038146973
477.8800048828125 339.9200134277344 10.36999988555908
481.0700073242188 339.1099853515625 11.34000015258789
482.6499938964844 338.75 10.47999954223633
474.9299926757812 340.7000122070312 7.260000228881836
477.260009765625 340.0899963378906 10.11999988555908
483.0899963378906 338.6499938964844 9.850000381469727
479.8299865722656 339.4700012207031 11.03999996185303
481.6499938964844 338.9700012207031 11.11999988555908
482.2000122070312 338.8399963378906 10.89999961853027
476.6799926757812 340.2699890136719 9.930000305175781
480.4700012207031 339.2799987792969 11.23999977111816
475.9400024414062 339.8900146484375 7.389999866485596
477.0700073242188 339.6099853515625 9.909999847412109
478.8999938964844 339.1199951171875 10.52999973297119
479.1799926757812 339.6199951171875 10.81999969482422
480.739990234375 338.6600036621094 11.1899995803833
477.6700134277344 339.4200134277344 10.14000034332275
475.2999877929688 340.0799865722656 7.159999847412109
481.3900146484375 338.489990234375 11.34000015258789
479.5 338.9599914550781 10.72999954223633
476.0599975585938 340.3900146484375 10.02000045776367
478.2999877929688 339.2999877929688 10.39000034332275
482.3399963378906 338.239990234375 10.4399995803833
480.1300048828125 338.7900085449219 10.97999954223633
481.9200134277344 338.3399963378906 11.14999961853027
483.5499877929688 337.9800109863281 7.260000228881836
483.010009765625 338.1199951171875 7.340000152587891
482.2200012207031 339.5 10.73999977111816
476.1799926757812 339.1600036621094 7.349999904632568
477.2699890136719 338.8500061035156 9.970000267028809
476.75 339.0299987792969 7.289999961853027
477.8299865722656 338.7200012207031 9.970000267028809
475.5400085449219 339.3200073242188 7.260000228881836
481.0700073242188 337.8900146484375 11.06999969482422
481.4800109863281 337.8399963378906 7.190000057220459
479.1300048828125 338.3999938964844 10.4399995803833
478.510009765625 338.5400085449219 10.26000022888184
481.5799865722656 337.760009765625 10.63000011444092
479.739990234375 338.239990234375 10.65999984741211
480.4200134277344 338.0599975585938 10.85999965667725
483.1799926757812 337.4100036621094 7.079999923706055
482.1199951171875 337.6900024414062 7.610000133514404
479.3399963378906 337.6199951171875 10.31999969482422
480.6700134277344 337.3200073242188 7.739999771118164
481.5499877929688 337.0799865722656 9.489999771118164
477.510009765625 338.1499938964844 6.929999828338623
480.8299865722656 337.2699890136719 8.569999694824219
481.3800048828125 337.1300048828125 8.579999923706055
478.75 337.7699890136719 10.10000038146973
480.0299987792969 337.4400024414062 10.59000015258789
478.1000061035156 337.9500122070312 9.920000076293945
480.5400085449219 337.3099975585938 10.47999954223633
481.8299865722656 337.0299987792969 7.880000114440918
478.5 337.25 9.920000076293945
480.4599914550781 336.7699890136719 7.809999942779541
479.7300109863281 336.8900146484375 10.23999977111816
480.7300109863281 336.6799926757812 9.189999580383301
479.8599853515625 336.9299926757812 7.610000133514404
479.1499938964844 337.0499877929688 10.0600004196167
481.3999938964844 336.5199890136719 9.189999580383301
479.5199890136719 336.489990234375 7.360000133514404
478.8399963378906 336.6000061035156 9.909999847412109
478.8699951171875 336.6199951171875 7.260000228881836
479.4100036621094 336.4700012207031 9.850000381469727
473.9500122070312 341.6000061035156 7.239999771118164
475.9299926757812 341.7900085449219 10.06999969482422
474.7999877929688 342.0599975585938 7.550000190734863
474.1099853515625 342.2300109863281 10.02999973297119
474.6900024414062 342.0700073242188 9.850000381469727
473.5700073242188 342.3500061035156 9.880000114440918
473.1300048828125 343.1600036621094 9.810000419616699
473.7699890136719 342.9800109863281 10.10000038146973
475.2699890136719 341.9299926757812 9.920000076293945
476.2200012207031 342.3699951171875 10.31999969482422
474.4200134277344 342.7900085449219 10.27000045776367
475.6000061035156 342.5400085449219 10.15999984741211
477.5199890136719 342.010009765625 10.8100004196167
474.1900024414062 342.2099914550781 7.449999809265137
478.7200012207031 341.7000122070312 11.18000030517578
478.0899963378906 341.8900146484375 10.97999954223633
474.9700012207031 342.6900024414062 10.05000019073486
476.8800048828125 342.2000122070312 10.56999969482422
472.25 343.989990234375 9.869999885559082
472.8800048828125 343.8200073242188 9.920000076293945
475.8200073242188 343.0599975585938 10.42000007629395
473.4800109863281 343.6799926757812 10.13000011444092
476.5 342.8800048828125 10.64000034332275
474.6600036621094 343.3599853515625 10.39000034332275
477.0899963378906 342.7300109863281 10.82999992370605
481.4200134277344 341.6900024414062 11.28999996185303
480.8200073242188 341.7999877929688 11.47000026702881
477.7000122070312 342.6199951171875 11.01000022888184
480.25 341.9299926757812 11.68000030517578
478.3399963378906 342.4400024414062 11.22999954223633
475.260009765625 343.2200012207031 10.21000003814697
474.1099853515625 343.489990234375 10.40999984741211
479.6600036621094 342.1099853515625 11.69999980926514
479.0299987792969 342.25 11.47999954223633
471.8399963378906 344.8200073242188 9.899999618530273
474.3999938964844 344.1799926757812 10.69999980926514
473.0499877929688 344.489990234375 10.27999973297119
472.4200134277344 344.6799926757812 10.02999973297119
473.7200012207031 344.3299865722656 10.47999954223633
478.0400085449219 343.2200012207031 11.39000034332275
480.489990234375 342.6499938964844 11.93000030517578
475.5400085449219 343.8999938964844 10.51000022888184
474.8999938964844 344.0599975585938 10.61999988555908
482.1000061035156 342.2099914550781 11.27000045776367
483.2300109863281 341.9599914550781 10.85000038146973
479.9100036621094 342.739990234375 12.02000045776367
476.1799926757812 343.7000122070312 10.75
481.0799865722656 342.5 11.72000026702881
483.760009765625 341.7999877929688 10.64999961853027
479.260009765625 342.9200134277344 11.76000022888184
482.6400146484375 342.1000061035156 11.05000019073486
481.6000061035156 342.3599853515625 11.47999954223633
476.8200073242188 343.5599975585938 10.97999954223633
484.3399963378906 341.6600036621094 10.40999984741211
478.6799926757812 343.0599975585938 11.57999992370605
477.4599914550781 343.3999938964844 11.15999984741211
472.8999938964844 345.3299865722656 10.38000011444092
475.3099975585938 344.739990234375 10.78999996185303
474.1300048828125 345.0199890136719 10.80000019073486
472.3099975585938 345.5 10.15999984741211
478.4400024414062 343.9100036621094 11.72999954223633
476.5400085449219 344.4100036621094 11.03999996185303
477.75 344.1000061035156 11.47000026702881
475.9200134277344 344.5899963378906 10.84000015258789
477.1700134277344 344.2699890136719 11.26000022888184
471.6000061035156 345.6499938964844 9.890000343322754
473.510009765625 345.1900024414062 10.63000011444092
481.4800109863281 343.1799926757812 11.82999992370605
482.489990234375 342.8900146484375 11.44999980926514
484.6400146484375 342.3599853515625 10.64000034332275
482.010009765625 343.0499877929688 11.60999965667725
479.0700073242188 343.75 11.94999980926514
474.7200012207031 344.8800048828125 11.01000022888184
483.0299987792969 342.7999877929688 11.25
479.7000122070312 343.6000061035156 12.13000011444092
480.2999877929688 343.4400024414062 12.27999973297119
485.7799987792969 342.1199951171875 10.21000003814697
487.6099853515625 341.6600036621094 7.610000133514404
486.3099975585938 341.9599914550781 10.02000045776367
483.5799865722656 342.6600036621094 11
480.9100036621094 343.2999877929688 12.0600004196167
485.239990234375 342.2099914550781 10.43000030517578
486.8299865722656 341.8500061035156 9.800000190734863
484.1400146484375 342.489990234375 10.84000015258789
486.4100036621094 341.989990234375 7.630000114440918
487.0499877929688 341.8099975585938 7.429999828338623
476.239990234375 345.1499938964844 11
478.7699890136719 344.5499877929688 11.86999988555908
480.6000061035156 344.0499877929688 12.47000026702881
477.5299987792969 344.8399963378906 11.4399995803833
479.3500061035156 344.3599853515625 12.17000007629395
480.010009765625 344.2200012207031 12.47000026702881
481.7099914550781 343.7699890136719 12.06999969482422
483.3599853515625 343.3699951171875 11.40999984741211
483.8699951171875 343.260009765625 11.1899995803833
478.1199951171875 344.6799926757812 11.69999980926514
485.0199890136719 342.9599914550781 10.76000022888184
486.1199951171875 342.7099914550781 10.36999988555908
486.6499938964844 342.5599975585938 10.14999961853027
481.1900024414062 343.9299926757812 12.19999980926514
487.1799926757812 342.4299926757812 9.960000038146973
485.5899963378906 342.8500061035156 10.55000019073486
482.7799987792969 343.5 11.60999965667725
484.4700012207031 343.0899963378906 11.02000045776367
482.2300109863281 343.6600036621094 11.8100004196167
488.5599975585938 342.1000061035156 8.060000419616699
489.1600036621094 342 7.840000152587891
489.7099914550781 341.8500061035156 7.650000095367432
487.9800109863281 342.25 7.929999828338623
490.2300109863281 341.7200012207031 7.460000038146973
487.3200073242188 342.4400024414062 7.739999771118164
476.8900146484375 345.0199890136719 11.22999954223633
472.4400024414062 346.1199951171875 9.989999771118164
475.5700073242188 345.3299865722656 10.72000026702881
486.1099853515625 343.260009765625 12.57999992370605
486.25 343.2099914550781 10.40999984741211
486.8299865722656 343.1000061035156 10.19999980926514
474.9800109863281 345.4800109863281 10.85999965667725
473.0499877929688 345.9599914550781 10.22999954223633
487.5799865722656 342.9400024414062 7.940000057220459
489.8900146484375 342.3699951171875 7.429999828338623
485.7799987792969 343.3599853515625 10.60000038146973
488.7900085449219 342.6099853515625 7.769999980926514
489.3500061035156 342.4599914550781 7.630000114440918
473.75 345.7900085449219 10.47999954223633
487.3800048828125 342.9299926757812 9.930000305175781
474.4100036621094 345.6300048828125 10.72999954223633
485.5799865722656 343.3699951171875 12.6899995803833
488.2300109863281 342.7900085449219 8.010000228881836
490.4100036621094 342.2099914550781 7.21999979019165
472.7000122070312 346.6499938964844 9.909999847412109
475.1700134277344 345.989990234375 10.64999961853027
474.510009765625 346.1900024414062 10.52000045776367
473.9599914550781 346.3500061035156 10.31999969482422
476.4200134277344 345.7099914550781 10.76000022888184
475.7000122070312 345.8599853515625 10.53999996185303
473.3200073242188 346.5 10.05000019073486
480.8599853515625 344.5400085449219 12.46000003814697
476.9700012207031 345.5599975585938 11
477.6400146484375 345.4100036621094 11.26000022888184
481.9299926757812 344.2999877929688 12.01000022888184
482.989990234375 344.0400085449219 11.64000034332275
484.0899963378906 343.75 11.18000030517578
484.6400146484375 343.6199951171875 10.97000026702881
479.5700073242188 344.9100036621094 11.97999954223633
483.5400085449219 343.9100036621094 11.42000007629395
478.9400024414062 345.0299987792969 11.77999973297119
481.4599914550781 344.3999938964844 12.25
480.2099914550781 344.739990234375 12.27000045776367
482.5199890136719 344.1799926757812 11.84000015258789
478.2900085449219 345.239990234375 11.47999954223633
474.0799865722656 347 10.06999969482422
477.2200012207031 346.1900024414062 10.77000045776367
477.8099975585938 346.0299987792969 11.02999973297119
476.5799865722656 346.3699951171875 10.5600004196167
474.7200012207031 346.8500061035156 10.30000019073486
475.3500061035156 346.6900024414062 10.35999965667725
478.4599914550781 345.8800048828125 11.22999954223633
483.2900085449219 344.6900024414062 11.82999992370605
473.4400024414062 347.1400146484375 9.909999847412109
483.8099975585938 344.5599975585938 11.63000011444092
482.1300048828125 344.9400024414062 12.25
484.3699951171875 344.4200134277344 11.35999965667725
480.3099975585938 345.4100036621094 12
479.7000122070312 345.5499877929688 11.77000045776367
484.5899963378906 344.2999877929688 12.63000011444092
486.3900146484375 343.8699951171875 12.73999977111816
487.0799865722656 343.7000122070312 10.39000034332275
487.6000061035156 343.6000061035156 10.13000011444092
488.1700134277344 343.4599914550781 9.960000038146973
485.9100036621094 344.010009765625 12.96000003814697
486.9200134277344 343.75 12.57999992370605
485.239990234375 344.1499938964844 12.75
481.6199951171875 345.0899963378906 12.42000007629395
486.5499877929688 343.8399963378906 10.5600004196167
479.0499877929688 345.7200012207031 11.53999996185303
482.7000122070312 344.7900085449219 12.03999996185303
489.9599914550781 343.0499877929688 7.190000057220459
475.9400024414062 346.510009765625 10.32999992370605
481.0199890136719 345.239990234375 12.21000003814697
488.8999938964844 343.2799987792969 7.590000152587891
488.3500061035156 343.4299926757812 7.75
489.4400024414062 343.1700134277344 7.389999866485596
475 347.6000061035156 10.09000015258789
476.239990234375 347.2999877929688 10.10000038146973
480.0499877929688 346.2900085449219 11.5600004196167
482.5799865722656 345.6600036621094 12.39000034332275
477.4599914550781 346.9800109863281 10.61999988555908
475.6000061035156 347.4500122070312 10.07999992370605
482 345.7900085449219 12.27999973297119
481.3599853515625 345.9599914550781 12.09000015258789
474.3699951171875 347.7300109863281 9.850000381469727
484.3699951171875 345.1799926757812 12.6899995803833
483.6600036621094 345.3999938964844 12.02999973297119
480.7200012207031 346.1000061035156 11.82999992370605
483.1400146484375 345.5299987792969 12.1899995803833
478.7799987792969 346.6000061035156 11.06999969482422
489.1600036621094 344.010009765625 9.930000305175781
487.5299987792969 344.4400024414062 10.52000045776367
485.6300048828125 344.8900146484375 13.14000034332275
487.3099975585938 344.4400024414062 12.92000007629395
487.989990234375 344.2699890136719 13.10000038146973
478.1099853515625 346.7999877929688 10.80000019073486
489.8999938964844 343.8800048828125 7.449999809265137
484.9800109863281 345.0599975585938 12.90999984741211
488.6099853515625 344.1700134277344 10.07999992370605
488 344.2900085449219 10.3100004196167
489.3699951171875 343.9800109863281 7.650000095367432
486.2099914550781 344.7200012207031 13.14999961853027
479.3800048828125 346.4400024414062 11.30000019073486
486.7200012207031 344.6099853515625 12.97000026702881
490.3900146484375 343.760009765625 7.239999771118164
476.8500061035156 347.1099853515625 10.27999973297119
475.3699951171875 348.2799987792969 9.880000114440918
475.5 348.2699890136719 7.400000095367432
474.8800048828125 348.4500122070312 7.239999771118164
478.4700012207031 347.4500122070312 10.63000011444092
482.9100036621094 346.3200073242188 12.38000011444092
482.260009765625 346.489990234375 12.11999988555908
479.1199951171875 347.3200073242188 10.86999988555908
484.2000122070312 345.989990234375 12.86999988555908
480.3599853515625 346.9800109863281 11.36999988555908
481.6700134277344 346.6799926757812 11.89000034332275
486.1400146484375 345.5 13.47000026702881
484.8599853515625 345.8500061035156 13.05000019073486
485.510009765625 345.6600036621094 13.3100004196167
487.1799926757812 345.260009765625 13.10999965667725
483.5700073242188 346.1499938964844 12.61999988555908
486.6900024414062 345.3999938964844 13.28999996185303
479.7300109863281 347.1600036621094 11.10000038146973
476.6099853515625 347.9700012207031 9.909999847412109
488.4700012207031 344.9800109863281 10.46000003814697
477.8900146484375 347.6199951171875 10.47000026702881
487.8200073242188 345.1099853515625 13.26000022888184
477.4400024414062 347.7000122070312 11.25
488.3900146484375 344.9299926757812 13.40999984741211
490.7799987792969 344.4400024414062 7.449999809265137
493.75 343.6499938964844 7.179999828338623
489.5199890136719 344.7099914550781 10.0600004196167
493.1799926757812 343.8299865722656 7.21999979019165
490.0700073242188 344.5499877929688 9.869999885559082
488.989990234375 344.8200073242188 10.31999969482422
489.7099914550781 344.7099914550781 7.829999923706055
491.3800048828125 344.2900085449219 7.170000076293945
481.0199890136719 346.8099975585938 11.60999965667725
490.2000122070312 344.5700073242188 7.610000133514404
477.7200012207031 348.3200073242188 11.26000022888184
476.4299926757812 348.7000122070312 7.449999809265137
478.8399963378906 348.0499877929688 10.4399995803833
481.3999938964844 347.3599853515625 11.48999977111816
478.1400146484375 348.2300109863281 10.31999969482422
480.1199951171875 347.7300109863281 10.97000026702881
475.8299865722656 348.8299865722656 7.199999809265137
480.739990234375 347.5400085449219 11.22000026702881
484 346.7300109863281 12.93000030517578
482.6700134277344 347.0499877929688 12.0600004196167
486.4800109863281 346.0899963378906 13.63000011444092
482.0499877929688 347.2300109863281 11.69999980926514
488.1900024414062 345.6700134277344 13.3100004196167
484.6300048828125 346.5400085449219 13.14999961853027
483.3399963378906 346.8999938964844 12.76000022888184
488.7300109863281 345.5299987792969 13.10999965667725
490.5299987792969 345.1199951171875 9.970000267028809
479.4299926757812 347.8699951171875 10.73999977111816
485.8599853515625 346.2200012207031 13.60000038146973
482.7699890136719 347 12.71000003814697
485.2099914550781 346.3999938964844 13.39000034332275
491.1900024414062 344.9500122070312 7.570000171661377
492.8399963378906 344.5599975585938 7.190000057220459
489.2999877929688 345.3999938964844 12.9399995803833
489.9500122070312 345.260009765625 10.1899995803833
492.2699890136719 344.6900024414062 7.119999885559082
486.9800109863281 345.9500122070312 13.43000030517578
491.6900024414062 344.8299865722656 7.349999904632568
493.510009765625 344.3699951171875 7.369999885559082
494.0700073242188 344.25 7.510000228881836
490.6700134277344 345.1099853515625 7.710000038146973
487.6000061035156 345.8200073242188 13.35000038146973
489.4200134277344 345.3699951171875 10.39000034332275
495.0799865722656 344.6400146484375 8.050000190734863
494.4800109863281 344.8099975585938 7.840000152587891
480.2799987792969 348.3200073242188 10.85000038146973
477.8399963378906 348.9800109863281 10.0600004196167
476.7000122070312 349.2699890136719 7.289999961853027
481.5799865722656 348.0199890136719 11.27000045776367
478.4299926757812 348.7999877929688 10.27000045776367
477.3099975585938 349.1199951171875 7.420000076293945
484.2799987792969 347.2900085449219 13.22999954223633
476.1300048828125 349.4500122070312 7.239999771118164
479.7099914550781 348.5 10.69999980926514
482.3699951171875 347.7799987792969 12.60999965667725
485.5799865722656 346.9599914550781 13.6899995803833
486.2900085449219 346.8200073242188 13.94999980926514
486.7799987792969 346.6799926757812 13.78999996185303
483.0400085449219 347.6099853515625 12.80000019073486
487.8399963378906 346.3999938964844 13.39000034332275
490.0199890136719 345.8800048828125 12.53999996185303
483.7200012207031 347.4700012207031 13.02000045776367
489.6700134277344 345.9800109863281 10.55000019073486
479.0199890136719 348.6700134277344 10.46000003814697
488.3599853515625 346.2900085449219 13.19999980926514
488.9400024414062 346.1300048828125 12.97000026702881
493.8500061035156 344.9800109863281 7.670000076293945
491.489990234375 345.5599975585938 7.659999847412109
489.489990234375 346.0299987792969 12.80000019073486
480.9400024414062 348.1499938964844 11.05000019073486
491.3099975585938 345.5899963378906 9.920000076293945
490.7099914550781 345.7300109863281 10.15999984741211
487.3500061035156 346.5400085449219 13.5600004196167
492 345.4400024414062 7.5
493.2300109863281 345.1099853515625 7.460000038146973
492.6099853515625 345.2699890136719 7.340000152587891
484.9500122070312 347.1300048828125 13.4399995803833
490.1900024414062 345.8399963378906 10.35999965667725
481.3099975585938 348.7699890136719 10.89999961853027
482.25 348.5299987792969 12.73999977111816
477.6300048828125 349.7799987792969 7.340000152587891
481.6700134277344 348.6799926757812 12.60000038146973
482.8399963378906 348.3599853515625 12.94999980926514
485.3399963378906 347.760009765625 13.76000022888184
478.8599853515625 349.3999938964844 10.63000011444092
480.6700134277344 348.9800109863281 10.65999984741211
487.6600036621094 347.1499938964844 13.73999977111816
486.5499877929688 347.4200134277344 14.14999961853027
488.739990234375 346.8999938964844 13.32999992370605
479.4500122070312 349.25 10.77000045776367
485.9800109863281 347.5799865722656 14.01000022888184
483.4599914550781 348.2200012207031 13.13000011444092
490.4599914550781 346.4800109863281 12.78999996185303
492.1900024414062 346.0799865722656 9.869999885559082
480.0400085449219 349.1099853515625 10.67000007629395
490.6199951171875 346.4500122070312 10.43000030517578
491.0700073242188 346.2999877929688 12.9399995803833
491.7000122070312 346.2099914550781 10.10000038146973
489.8999938964844 346.5899963378906 12.93000030517578
491.1499938964844 346.3200073242188 10.27999973297119
492.9299926757812 345.8999938964844 7.53000020980835
489.3200073242188 346.739990234375 13.10999965667725
494.7799987792969 345.4599914550781 7.989999771118164
476.9299926757812 349.9200134277344 7.199999809265137
494.1799926757812 345.5799865722656 7.929999828338623
492.3699951171875 346.0599975585938 7.630000114440918
495.3399963378906 345.2900085449219 7.840000152587891
484.6900024414062 347.9299926757812 13.56999969482422
495.9599914550781 345.1400146484375 7.699999809265137
484.0400085449219 348.0799865722656 13.35999965667725
487.1099853515625 347.3099975585938 13.93000030517578
493.6099853515625 345.739990234375 7.699999809265137
488.239990234375 347.0499877929688 13.53999996185303
491.4100036621094 346.9299926757812 13.27000045776367
490.2300109863281 347.2099914550781 13.06999969482422
490.7900085449219 347.0700073242188 13.09000015258789
491.5 346.9500122070312 10.4399995803833
493.3999938964844 346.5 7.869999885559082
489.6400146484375 347.3399963378906 13.26000022888184
494.5799865722656 346.2000122070312 7.869999885559082
494.0400085449219 346.3099975585938 8.039999961853027
492.75 346.6400146484375 7.809999942779541
493.1300048828125 346.5199890136719 9.880000114440918
495.0700073242188 346.0700073242188 7.699999809265137
495.6400146484375 345.9100036621094 7.539999961853027
496.7300109863281 345.6499938964844 7.139999866485596
497.25 345.5299987792969 6.980000019073486
492.5899963378906 346.6600036621094 10.05000019073486
496.1600036621094 345.7900085449219 7.360000133514404
492.0499877929688 346.7900085449219 10.21000003814697
477.9200134277344 350.3800048828125 7.139999866485596
479.2000122070312 350.0400085449219 10.75
481.9200134277344 349.3299865722656 12.84000015258789
479.75 349.8699951171875 10.53999996185303
483.1600036621094 349 13.26000022888184
481.3699951171875 349.4700012207031 12.61999988555908
484.4200134277344 348.6799926757812 13.65999984741211
486.4400024414062 348.1700134277344 14.34000015258789
483.8399963378906 348.8099975585938 13.47999954223633
480.2699890136719 349.739990234375 10.39999961853027
486.9400024414062 348.0299987792969 14.27000045776367
485.1300048828125 348.4700012207031 13.92000007629395
488.0199890136719 347.75 13.88000011444092
489.1199951171875 347.4800109863281 13.44999980926514
485.760009765625 348.3099975585938 14.14000034332275
487.5199890136719 347.8999938964844 14.0600004196167
482.5400085449219 349.1700134277344 13.05000019073486
488.5499877929688 347.6199951171875 13.6899995803833
481.1300048828125 350.1199951171875 12.6899995803833
480.010009765625 350.4400024414062 10.3100004196167
482.9700012207031 349.6300048828125 13.38000011444092
481.7699890136719 349.9500122070312 12.9399995803833
484.1799926757812 349.3200073242188 13.8100004196167
484.8599853515625 349.1600036621094 13.97000026702881
487.8099975585938 348.4200134277344 14.21000003814697
486.6799926757812 348.7099914550781 14.60999965667725
486.1199951171875 348.8399963378906 14.38000011444092
483.6000061035156 349.4700012207031 13.57999992370605
482.3599853515625 349.8099975585938 13.15999984741211
488.8699951171875 348.1700134277344 13.8100004196167
485.4700012207031 349.0299987792969 14.1899995803833
489.4800109863281 348.010009765625 13.55000019073486
491.8200073242188 347.4800109863281 10.52000045776367
491.760009765625 347.4500122070312 13.32999992370605
492.3599853515625 347.3200073242188 10.35000038146973
493.7000122070312 347.010009765625 8.060000419616699
491.2300109863281 347.6000061035156 13.4399995803833
494 346.9299926757812 9.850000381469727
490.6099853515625 347.739990234375 13.22999954223633
492.260009765625 347.3299865722656 13.10999965667725
488.3900146484375 348.2699890136719 14
490.0400085449219 347.8599853515625 13.40999984741211
494.2200012207031 346.8699951171875 7.849999904632568
480.4700012207031 350.2799987792969 12.63000011444092
495.8800048828125 346.489990234375 7.260000228881836
492.9200134277344 347.2099914550781 10.11999988555908
493.4800109863281 347.0700073242188 9.970000267028809
496.4700012207031 346.3200073242188 7.130000114440918
495.3599853515625 346.6300048828125 7.5
487.2300109863281 348.5400085449219 14.46000003814697
494.7699890136719 346.75 7.630000114440918
481.9800109863281 350.5499877929688 13.0600004196167
483.260009765625 350.2200012207031 13.55000019073486
485.1700134277344 349.7300109863281 14.28999996185303
480.7300109863281 350.8800048828125 12.61999988555908
482.6000061035156 350.4299926757812 13.26000022888184
487.5899963378906 349.1400146484375 14.5600004196167
489.739990234375 348.6000061035156 13.76000022888184
486.4800109863281 349.3999938964844 14.75
489.2200012207031 348.75 13.94999980926514
490.3099975585938 348.4599914550781 13.51000022888184
481.3900146484375 350.75 12.85000038146973
485.8299865722656 349.5700073242188 14.5
491.3699951171875 348.1900024414062 13.27999973297119
490.8299865722656 348.3500061035156 13.43000030517578
491.9599914550781 348.0799865722656 13.05000019073486
494.3900146484375 347.4700012207031 10.0600004196167
492.6700134277344 347.9400024414062 10.53999996185303
494.5400085449219 347.489990234375 7.619999885559082
487.0400085449219 349.25 14.80000019073486
493.2099914550781 347.7699890136719 10.3100004196167
483.8900146484375 350.1000061035156 13.80000019073486
493.7900085449219 347.6199951171875 10.17000007629395
484.5 349.9299926757812 14.02000045776367
488.1300048828125 348.989990234375 14.40999984741211
488.6499938964844 348.8699951171875 14.1899995803833
494.9200134277344 347.3599853515625 9.890000343322754
492.5499877929688 347.9299926757812 12.86999988555908
495.5899963378906 347.239990234375 7.28000020980835
493.0499877929688 347.7799987792969 12.59000015258789
495.0299987792969 347.3500061035156 7.440000057220459
484.8299865722656 350.5199890136719 13.86999988555908
483.0199890136719 350.989990234375 13.25
487.9299926757812 349.760009765625 14.69999980926514
484.2200012207031 350.6900024414062 13.60999965667725
487.3299865722656 349.8900146484375 14.81999969482422
486.1499938964844 350.2200012207031 14.32999992370605
486.760009765625 350.0299987792969 14.63000011444092
488.4800109863281 349.6199951171875 14.51000022888184
482.3599853515625 351.1600036621094 12.98999977111816
489.0499877929688 349.4700012207031 14.30000019073486
490.2000122070312 349.2099914550781 13.84000015258789
493.4299926757812 348.3900146484375 12.61999988555908
492.8500061035156 348.5299987792969 12.81999969482422
491.760009765625 348.8099975585938 13.23999977111816
491.2699890136719 348.9100036621094 13.42000007629395
495.2200012207031 347.9800109863281 10.01000022888184
494.7099914550781 348.1000061035156 10.19999980926514
493.5799865722656 348.3999938964844 10.47000026702881
495.9700012207031 347.8299865722656 7.349999904632568
492.3200073242188 348.6600036621094 13.03999996185303
490.760009765625 349.0700073242188 13.64000034332275
494.1900024414062 348.2300109863281 10.3100004196167
496.4700012207031 347.7000122070312 7.170000076293945
489.5799865722656 349.3299865722656 14.10999965667725
498.4400024414062 347.1900024414062 7.579999923706055
481.7999877929688 351.3399963378906 12.77999973297119
497.1700134277344 347.5299987792969 7.329999923706055
495.3999938964844 347.9400024414062 7.650000095367432
483.5799865722656 350.8800048828125 13.47000026702881
485.4700012207031 350.3599853515625 14.10000038146973
482.6300048828125 351.6900024414062 13.25
486.4299926757812 350.75 14.22000026702881
485.1499938964844 351.0899963378906 13.69999980926514
483.3099975585938 351.5299987792969 13.46000003814697
482.010009765625 351.8599853515625 12.97999954223633
489.8699951171875 349.8699951171875 14.19999980926514
487.6900024414062 350.4500122070312 14.73999977111816
483.9200134277344 351.3800048828125 13.4399995803833
488.2799987792969 350.2900085449219 14.77000045776367
492.0899963378906 349.3500061035156 13.35999965667725
491.510009765625 349.4700012207031 13.60000038146973
490.4400024414062 349.7300109863281 13.94999980926514
487.0299987792969 350.6000061035156 14.44999980926514
494.2900085449219 348.7999877929688 12.5600004196167
484.4500122070312 351.2300109863281 13.46000003814697
494.5400085449219 348.7300109863281 10.52000045776367
493.9299926757812 348.9100036621094 10.63000011444092
492.6700134277344 349.2099914550781 13.15999984741211
496.1099853515625 348.3800048828125 9.890000343322754
485.7900085449219 350.8900146484375 13.97999954223633
497.4400024414062 348.0400085449219 7.670000076293945
495.0599975585938 348.6000061035156 10.31999969482422
495.75 348.5 7.710000038146973
498.1099853515625 347.8699951171875 7.989999771118164
495.5899963378906 348.4800109863281 10.11999988555908
493.7200012207031 348.9200134277344 12.72000026702881
488.7900085449219 350.1300048828125 14.59000015258789
496.8299865722656 348.2200012207031 7.409999847412109
493.1799926757812 349.0599975585938 12.94999980926514
496.2300109863281 348.3699951171875 7.46999979019165
491 349.6300048828125 13.81999969482422
489.3599853515625 350 14.38000011444092
483.5799865722656 352.0299987792969 13.43000030517578
484.0799865722656 351.8699951171875 13.25
486.010009765625 351.4200134277344 13.84000015258789
487.8299865722656 350.9299926757812 14.53999996185303
488.5 350.7799987792969 14.56999969482422
490.1600036621094 350.3699951171875 14.01000022888184
491.25 350.1000061035156 13.59000015258789
488.9700012207031 350.6499938964844 14.34000015258789
486.5700073242188 351.2200012207031 14.05000019073486
487.2200012207031 351.0599975585938 14.28999996185303
485.3299865722656 351.5799865722656 13.55000019073486
494.5400085449219 349.2799987792969 12.53999996185303
492.2799987792969 349.8299865722656 13.21000003814697
494.7699890136719 349.239990234375 10.61999988555908
484.739990234375 351.7300109863281 13.30000019073486
491.7999877929688 349.9599914550781 13.42000007629395
490.7099914550781 350.2099914550781 13.78999996185303
495.8699951171875 348.9700012207031 10.22000026702881
496.5299987792969 348.8200073242188 7.650000095367432
493.9700012207031 349.3900146484375 12.72000026702881
496.4200134277344 348.8299865722656 10
496.9800109863281 348.7000122070312 9.899999618530273
482.9700012207031 352.1499938964844 13.44999980926514
499.0599975585938 348.1600036621094 8.210000038146973
495.239990234375 349.1199951171875 10.44999980926514
494.1600036621094 349.3900146484375 10.72999954223633
498.4100036621094 348.3500061035156 8
492.8299865722656 349.6600036621094 13.02999973297119
493.3900146484375 349.5199890136719 12.86999988555908
482.4299926757812 352.2900085449219 13.34000015258789
497.1400146484375 348.6499938964844 7.710000038146973
497.8399963378906 348.5 7.900000095367432
489.5899963378906 350.4800109863281 14.14000034332275
484.2900085449219 352.4700012207031 12.98999977111816
485.6099853515625 352.1300048828125 13.43000030517578
483.7900085449219 352.6400146484375 13.14999961853027
483.2200012207031 352.75 13.34000015258789
488.6300048828125 351.3900146484375 14.3100004196167
486.8900146484375 351.8500061035156 13.93000030517578
488.1099853515625 351.510009765625 14.32999992370605
484.9299926757812 352.3200073242188 13.14000034332275
490.8500061035156 350.8200073242188 13.55000019073486
490.3299865722656 350.9500122070312 13.69999980926514
489.2000122070312 351.25 14.09000015258789
493.0400085449219 350.2999877929688 12.77000045776367
492.5199890136719 350.4299926757812 12.97999954223633
487.4800109863281 351.6700134277344 14.10000038146973
493.6400146484375 350.1300048828125 12.64999961853027
495.5899963378906 349.6600036621094 10.57999992370605
489.75 351.1300048828125 13.89999961853027
493.9299926757812 350.0899963378906 11.06999969482422
497.4500122070312 349.2699890136719 8.010000228881836
496.1400146484375 349.5199890136719 10.39999961853027
499.1300048828125 348.8399963378906 7.550000190734863
494.5400085449219 349.9200134277344 10.93000030517578
491.9599914550781 350.5499877929688 13.15999984741211
498.0199890136719 349.1000061035156 7.929999828338623
495.0899963378906 349.7900085449219 10.75
496.6600036621094 349.3900146484375 10.1899995803833
497.260009765625 349.2799987792969 9.939999580383301
486.25 351.9700012207031 13.64000034332275
493.3500061035156 350.239990234375 11.19999980926514
498.6000061035156 348.9800109863281 7.760000228881836
491.3699951171875 350.6900024414062 13.35999965667725
487.8399963378906 352.3299865722656 13.93000030517578
491.25 351.4800109863281 13.19999980926514
492.3200073242188 351.2099914550781 12.85000038146973
493.760009765625 350.8500061035156 11.48999977111816
492.8200073242188 351.0899963378906 12.67000007629395
490.1499938964844 351.75 13.60999965667725
493.2799987792969 350.989990234375 11.63000011444092
495.4299926757812 350.4500122070312 10.96000003814697
491.7699890136719 351.3500061035156 13.01000022888184
488.9800109863281 352.0599975585938 13.97000026702881
496.5799865722656 350.1700134277344 10.52999973297119
494.3599853515625 350.7099914550781 11.22999954223633
496 350.3200073242188 10.72000026702881
494.8900146484375 350.5799865722656 11.1899995803833
490.6900024414062 351.6300048828125 13.36999988555908
497.6499938964844 349.9299926757812 10.10000038146973
488.4700012207031 352.1600036621094 14.18000030517578
489.5400085449219 351.9200134277344 13.77999973297119
498.9700012207031 349.6099853515625 7.400000095367432
498.2200012207031 349.760009765625 9.880000114440918
497.1099853515625 350.0400085449219 10.31999969482422
498.4400024414062 349.7300109863281 7.579999923706055
499.5 349.4700012207031 7.21999979019165
485.3500061035156 352.989990234375 13.11999988555908
484.1099853515625 353.2999877929688 12.82999992370605
486.5400085449219 352.6499938964844 13.44999980926514
485.9200134277344 352.8200073242188 13.19999980926514
484.9700012207031 353.0400085449219 14.35000038146973
487.1499938964844 352.510009765625 13.67000007629395
485.760009765625 353.5700073242188 12.86999988555908
486.3900146484375 353.3999938964844 13.10000038146973
487.010009765625 353.25 13.32999992370605
490.510009765625 352.3900146484375 13.27000045776367
489.9100036621094 352.510009765625 13.47000026702881
491.0299987792969 352.260009765625 13.09000015258789
488.8099975585938 352.7900085449219 13.8100004196167
492.6799926757812 351.8599853515625 12.38000011444092
489.3599853515625 352.6499938964844 13.64999961853027
495.4200134277344 351.1499938964844 11.30000019073486
491.5299987792969 352.1000061035156 12.94999980926514
487.6000061035156 353.1199951171875 13.57999992370605
496.9800109863281 350.760009765625 10.64000034332275
499.1900024414062 350.2200012207031 9.850000381469727
498.0700073242188 350.489990234375 10.23999977111816
498.7900085449219 350.3500061035156 7.639999866485596
495.9100036621094 351.0199890136719 11.0600004196167
488.2300109863281 352.9299926757812 13.81999969482422
485.2999877929688 353.6799926757812 13.85000038146973
492.1199951171875 351.9700012207031 12.69999980926514
494.8900146484375 351.2900085449219 11.42000007629395
493.6900024414062 351.6000061035156 11.76000022888184
494.2999877929688 351.4599914550781 11.52000045776367
493.1700134277344 351.739990234375 11.96000003814697
497.5700073242188 350.6199951171875 10.44999980926514
499.3099975585938 350.2099914550781 7.440000057220459
496.4800109863281 350.9299926757812 10.85999965667725
499.8599853515625 350.0799865722656 7.150000095367432
498.6400146484375 350.3800048828125 10.03999996185303
485.4800109863281 354.260009765625 12.88000011444092
486.1000061035156 354.0700073242188 13.06999969482422
487.2900085449219 353.7799987792969 13.46000003814697
486.739990234375 353.9400024414062 13.27999973297119
488.5599975585938 353.4599914550781 13.68000030517578
491.8800048828125 352.6400146484375 12.59000015258789
490.8299865722656 352.8699951171875 13
489.7099914550781 353.1900024414062 13.40999984741211
487.9100036621094 353.6099853515625 13.46000003814697
492.9500122070312 352.3699951171875 12.30000019073486
496.8500061035156 351.3900146484375 10.94999980926514
490.2799987792969 353.0400085449219 13.15999984741211
497.9400024414062 351.1099853515625 10.5600004196167
494.6499938964844 351.9700012207031 11.69999980926514
495.7200012207031 351.6700134277344 11.35999965667725
492.4100036621094 352.489990234375 12.43000030517578
494.0799865722656 352.1000061035156 11.85000038146973
497.3599853515625 351.2799987792969 10.77000045776367
491.3599853515625 352.7799987792969 12.8100004196167
496.2699890136719 351.5299987792969 11.14999961853027
495.1900024414062 351.7900085449219 11.60999965667725
499.7699890136719 350.7300109863281 7.53000020980835
493.5299987792969 352.2000122070312 12.07999992370605
489.1099853515625 353.3200073242188 13.56999969482422
499.1000061035156 350.8599853515625 10.07999992370605
498.5299987792969 350.9800109863281 10.27999973297119
499.6099853515625 350.7000122070312 9.880000114440918
497.6799926757812 351.8599853515625 10.92000007629395
498.7999877929688 351.5599975585938 10.46000003814697
498.2099914550781 351.7300109863281 10.71000003814697
497.1700134277344 351.989990234375 11.14999961853027
499.8299865722656 351.3299865722656 10.09000015258789
499.3500061035156 351.4200134277344 10.26000022888184
488.7699890136719 354.0400085449219 13.46000003814697
486.510009765625 354.6099853515625 13.40999984741211
489.8900146484375 353.7699890136719 13.10999965667725
487.6400146484375 354.3599853515625 13.3100004196167
491.5599975585938 353.3599853515625 12.60999965667725
491 353.489990234375 12.75
492.7200012207031 353.0700073242188 12.26000022888184
488.1799926757812 354.2099914550781 13.27999973297119
493.8500061035156 352.8099975585938 12.22999954223633
489.3900146484375 353.9200134277344 13.27000045776367
495.010009765625 352.510009765625 11.88000011444092
496.5700073242188 352.1199951171875 11.3100004196167
490.4700012207031 353.6199951171875 12.89999961853027
493.2900085449219 352.9100036621094 12.44999980926514
494.4299926757812 352.6400146484375 12
491.3900146484375 353.4200134277344 11.86999988555908
495.5199890136719 352.3900146484375 11.71000003814697
492.0499877929688 353.260009765625 11.98999977111816
487.1199951171875 354.489990234375 13.51000022888184
496.1099853515625 352.25 11.52000045776367
486.8200073242188 355.25 13.42000007629395
490.25 354.4200134277344 12.8100004196167
490.8500061035156 354.25 12.60999965667725
487.3800048828125 355.1099853515625 13.26000022888184
491.1700134277344 354.1799926757812 11.4399995803833
487.9500122070312 355.010009765625 13.06999969482422
491.8299865722656 354.010009765625 11.68000030517578
493.6700134277344 353.5400085449219 12.36999988555908
493.0499877929688 353.739990234375 12.13000011444092
488.5700073242188 354.8200073242188 13.10000038146973
495.3900146484375 353.1499938964844 12.11999988555908
497.0400085449219 352.739990234375 11.47999954223633
492.3999938964844 353.8699951171875 11.90999984741211
498.1300048828125 352.4700012207031 11.07999992370605
499.25 352.1600036621094 10.59000015258789
495.8599853515625 353.010009765625 11.89999961853027
490.5799865722656 354.3599853515625 11.21000003814697
