84.58000183105469 241.3000030517578 10.27999973297119
90.83999633789062 242.8500061035156 11.96000003814697
89.55000305175781 242.5200042724609 11.35000038146973
92.38999938964844 243.2400054931641 10.92000007629395
94.45999908447266 243.8000030517578 9.520000457763672
88.23999786376953 242.1999969482422 10.4399995803833
91.36000061035156 242.9900054931641 11.59000015258789
91.84999847412109 243.1199951171875 11.25
87.01000213623047 241.8800048828125 10.44999980926514
94.65000152587891 243.8800048828125 7.610000133514404
88.87000274658203 242.3500061035156 10.94999980926514
97 244.4299926757812 7.130000114440918
87.56999969482422 242.0399932861328 10.28999996185303
98.08999633789062 244.7200012207031 6.789999961853027
93.97000122070312 243.6699981689453 9.920000076293945
92.88999938964844 243.3699951171875 10.5600004196167
90.19000244140625 242.7100067138672 11.8100004196167
95.84999847412109 244.1699981689453 7.199999809265137
95.23999786376953 244 7.389999866485596
96.41000366210938 244.3200073242188 7.170000076293945
93.41000366210938 243.5200042724609 10.23999977111816
97.5 244.6000061035156 7
83.22000122070312 240.9499969482422 9.460000038146973
85 240.7700042724609 10.36999988555908
86.75 241.2299957275391 10.06999969482422
89.23999786376953 241.8399963378906 10.90999984741211
89.94000244140625 242.0099945068359 11.38000011444092
87.90000152587891 241.5 10.01000022888184
84.36000061035156 240.6100006103516 9.960000038146973
92.26999664306641 242.6100006103516 11.19999980926514
88.52999877929688 241.6499938964844 10.48999977111816
93.83000183105469 243.0099945068359 10.15999984741211
92.83000183105469 242.7200012207031 10.82999992370605
94.83000183105469 243.2700042724609 9.510000228881836
91.77999877929688 242.4499969482422 11.53999996185303
85.58999633789062 240.9499969482422 10.3100004196167
87.25 241.3300018310547 9.989999771118164
93.30999755859375 242.8500061035156 10.48999977111816
90.66999816894531 242.1900024414062 11.93000030517578
96.73000335693359 243.7799987792969 6.949999809265137
94.31999969482422 243.1199951171875 9.810000419616699
91.18000030517578 242.3200073242188 11.9399995803833
86.12000274658203 241.0500030517578 10.22000026702881
95.58999633789062 243.4900054931641 7.369999885559082
96.18000030517578 243.6100006103516 7.119999885559082
95.05000305175781 243.3200073242188 7.599999904632568
97.87999725341797 244.0599975585938 6.760000228881836
97.23000335693359 243.8699951171875 6.880000114440918
83.65000152587891 240.4799957275391 9.5
93.05999755859375 242.25 10.82999992370605
94.12000274658203 242.5200042724609 10.14999961853027
94.29000091552734 242.5800018310547 7.980000019073486
94.63999938964844 242.6600036621094 9.779999732971191
97.05999755859375 243.2899932861328 6.909999847412109
95.37999725341797 242.8699951171875 7.610000133514404
92.55999755859375 242.1199951171875 11.1899995803833
95.18000030517578 242.7799987792969 9.5
96.54000091552734 243.1699981689453 7.110000133514404
95.97000122070312 243.0299987792969 7.360000133514404
92.05000305175781 242 11.55000019073486
91.55000305175781 241.8699951171875 11.85999965667725
90.88999938964844 241.7200012207031 11.86999988555908
93.55999755859375 242.3999938964844 10.5
94.84999847412109 242.7299957275391 7.820000171661377
86.40000152587891 240.6100006103516 9.829999923706055
85.22000122070312 240.3000030517578 10.0600004196167
88.26999664306641 241.0599975585938 10.10000038146973
88.94999694824219 241.2299957275391 10.52999973297119
84.56999969482422 240.1199951171875 9.930000305175781
89.61000061035156 241.3699951171875 11
85.84999847412109 240.4799957275391 9.970000267028809
87.58999633789062 240.9100036621094 9.699999809265137
83.91000366210938 240 9.489999771118164
90.26000213623047 241.5299987792969 11.42000007629395
86.95999908447266 240.7599945068359 9.729999542236328
85.56999969482422 239.8099975585938 9.640000343322754
87.26000213623047 240.2200012207031 9.439999580383301
84.36000061035156 239.5200042724609 9.569999694824219
88.58999633789062 240.5399932861328 10.13000011444092
86.68000030517578 240.0700073242188 9.479999542236328
87.94999694824219 240.4100036621094 9.680000305175781
89.97000122070312 240.8699951171875 11.0600004196167
92.5 241.5200042724609 11.4399995803833
93.5 241.7599945068359 10.73999977111816
93.47000122070312 241.7899932861328 7.869999885559082
90.65000152587891 241.0500030517578 11.47999954223633
92.97000122070312 241.6900024414062 7.940000057220459
91.31999969482422 241.1999969482422 11.93000030517578
94.05000305175781 241.9400024414062 7.809999942779541
94.58999633789062 242.0899963378906 7.730000019073486
95.73000335693359 242.3600006103516 7.590000152587891
86.12000274658203 239.9299926757812 9.529999732971191
96.83000183105469 242.6600036621094 7.099999904632568
86.86000061035156 240.1499938964844 7.460000038146973
92.41999816894531 241.5599975585938 8.189999580383301
92.98000335693359 241.6699981689453 11.13000011444092
85.01999664306641 239.6600036621094 9.729999542236328
95.23999786376953 242.2599945068359 7.679999828338623
89.22000122070312 240.7200012207031 10.53999996185303
96.33000183105469 242.5200042724609 7.349999904632568
91.93000030517578 241.3800048828125 11.81999969482422
97.37000274658203 242.7799987792969 6.889999866485596
84.62999725341797 238.8500061035156 9.409999847412109
86.01999664306641 239.2299957275391 7.340000152587891
87.26999664306641 239.5399932861328 7.360000133514404
87.68000030517578 239.6199951171875 9.420000076293945
89.66999816894531 240.1000061035156 10.61999988555908
84.75 238.9100036621094 6.989999771118164
88.33999633789062 239.7799987792969 9.729999542236328
90.95999908447266 240.4100036621094 11.43000030517578
90.31999969482422 240.2799987792969 11.02999973297119
86.61000061035156 239.3699951171875 7.300000190734863
91.5 240.5899963378906 8.159999847412109
90.25 240.3000030517578 7.960000038146973
92.62999725341797 240.8999938964844 8.029999732971191
95.51000213623047 241.6300048828125 7.380000114440918
94.88999938964844 241.4700012207031 7.46999979019165
97.26999664306641 242.0599975585938 7.070000171661377
85.26999664306641 239.0099945068359 9.369999885559082
94.37999725341797 241.3399963378906 7.5
97.81999969482422 242.1999969482422 6.829999923706055
96.09999847412109 241.7799987792969 7.289999961853027
93.20999908447266 241.0099945068359 7.940000057220459
90.93000030517578 240.4400024414062 8.140000343322754
96.70999908447266 241.9299926757812 7.230000019073486
89.04000091552734 239.9400024414062 10.15999984741211
92.09999847412109 240.7400054931641 8.069999694824219
93.77999877929688 241.1699981689453 7.730000019073486
85.44000244140625 239.1100006103516 7.28000020980835
97.51000213623047 241.4600067138672 6.889999866485596
98.15000152587891 241.6100006103516 6.78000020980835
84.54000091552734 238.1900024414062 6.820000171661377
85.73999786376953 238.4900054931641 7.110000133514404
88 239.0399932861328 9.399999618530273
88.62999725341797 239.1999969482422 9.680000305175781
89.29000091552734 239.3600006103516 10.05000019073486
86.34999847412109 238.6300048828125 7.059999942779541
89.44999694824219 239.4299926757812 7.840000152587891
88.23000335693359 239.1399993896484 7.730000019073486
88.87000274658203 239.2599945068359 7.880000114440918
92.48999786376953 240.1600036621094 7.78000020980835
85.16000366210938 238.3600006103516 6.940000057220459
95.26999664306641 240.8699951171875 7.25
87.58999633789062 238.9499969482422 7.349999904632568
93.62000274658203 240.4499969482422 7.650000095367432
94.69000244140625 240.7100067138672 7.5
90.62999725341797 239.7299957275391 7.849999904632568
91.87000274658203 240.0399932861328 7.880000114440918
86.95999908447266 238.8099975585938 7.090000152587891
94.16999816894531 240.5899963378906 7.590000152587891
93.01999664306641 240.3300018310547 7.71999979019165
95.80999755859375 241.0099945068359 7.099999904632568
96.94999694824219 241.2899932861328 6.960000038146973
91.30999755859375 239.8899993896484 7.960000038146973
90.05000305175781 239.5500030517578 7.78000020980835
96.41999816894531 241.1600036621094 6.980000019073486
88.70999908447266 238.6300048828125 7.710000038146973
89.29000091552734 238.7799987792969 7.659999847412109
89.83000183105469 238.9199981689453 7.599999904632568
85.56999969482422 237.8500061035156 6.900000095367432
91.58999633789062 239.3200073242188 7.690000057220459
86.75 238.1300048828125 6.900000095367432
84.87999725341797 237.6900024414062 6.809999942779541
93.90000152587891 239.9400024414062 7.409999847412109
90.41999816894531 239.0599975585938 7.630000114440918
86.12000274658203 237.9900054931641 6.849999904632568
94.48999786376953 240.0899963378906 7.329999923706055
91.02999877929688 239.1799926757812 7.75
95.65000152587891 240.3800048828125 7.199999809265137
96.80000305175781 240.6699981689453 6.800000190734863
93.29000091552734 239.75 7.489999771118164
92.20999908447266 239.5 7.619999885559082
87.38999938964844 238.2899932861328 7.179999828338623
92.75 239.6199951171875 7.539999961853027
88.06999969482422 238.4900054931641 7.5
95.09999847412109 240.2299957275391 7.260000228881836
87.13999938964844 237.6199951171875 6.960000038146973
90.23999786376953 238.3899993896484 7.429999828338623
91.48000335693359 238.6799926757812 7.429999828338623
88.44000244140625 237.8999938964844 7.489999771118164
90.86000061035156 238.5200042724609 7.519999980926514
89.61000061035156 238.1900024414062 7.380000114440918
87.83000183105469 237.7799987792969 7.21999979019165
92.65000152587891 238.9900054931641 7.349999904632568
94.30999755859375 239.3699951171875 7.150000095367432
93.76999664306641 239.2299957275391 7.179999828338623
95.47000122070312 239.6600036621094 7.010000228881836
92.05000305175781 238.8099975585938 7.369999885559082
94.87000274658203 239.5399932861328 7.050000190734863
93.22000122070312 239.1199951171875 7.260000228881836
89.01000213623047 238.0700073242188 7.409999847412109
96.62999725341797 239.9499969482422 6.880000114440918
96.05999755859375 239.8200073242188 6.900000095367432
88.26999664306641 237.1600036621094 7.210000038146973
89.38999938964844 237.4100036621094 7.159999847412109
91.19999694824219 237.8600006103516 7.260000228881836
92.86000061035156 238.3200073242188 7.039999961853027
94.04000091552734 238.5899963378906 6.889999866485596
89.97000122070312 237.5500030517578 7.170000076293945
94.65000152587891 238.7299957275391 6.849999904632568
88.83000183105469 237.3000030517578 7.210000038146973
95.22000122070312 238.8800048828125 6.840000152587891
92.34999847412109 238.1499938964844 7.130000114440918
90.58000183105469 237.7400054931641 7.320000171661377
93.44999694824219 238.4700012207031 7
91.72000122070312 238.0200042724609 7.170000076293945
86.93000030517578 236.8300018310547 6.809999942779541
87.63999938964844 237.0099945068359 7.039999961853027
88.48999786376953 236.5800018310547 7.050000190734863
90.23999786376953 237.0200042724609 7.110000133514404
91.44999694824219 237.3200073242188 7
93.19999694824219 237.7599945068359 6.789999961853027
90.86000061035156 237.1600036621094 7.010000228881836
92.02999877929688 237.4700012207031 6.920000076293945
88.98999786376953 236.6699981689453 6.940000057220459
87.83999633789062 236.3999938964844 6.960000038146973
89.62999725341797 236.8399963378906 6.900000095367432
92.61000061035156 237.5899963378906 6.820000171661377
87.58999633789062 235.75 6.789999961853027
88.16000366210938 235.8999938964844 6.840000152587891
91.06999969482422 236.6300048828125 6.809999942779541
90.48999786376953 236.4700012207031 6.829999923706055
89.90000152587891 236.3099975585938 6.889999866485596
91.66999816894531 236.7799987792969 6.829999923706055
88.76999664306641 236.0399932861328 6.75
91.73999786376953 236.8500061035156 6.800000190734863
88.87000274658203 236.1600036621094 6.809999942779541
90.33000183105469 236.4900054931641 6.900000095367432
91.05000305175781 236.6699981689453 6.829999923706055
88.16000366210938 235.9900054931641 6.840000152587891
89.62999725341797 236.3300018310547 6.909999847412109
94.02999877929688 238.2299957275391 6.789999961853027
93.37999725341797 238.0599975585938 6.840000152587891
92.01999664306641 237.75 6.989999771118164
88.44000244140625 236.8699951171875 7.119999885559082
91.33000183105469 237.5599975585938 7.039999961853027
90.65000152587891 237.4199981689453 7.119999885559082
87.65000152587891 236.6699981689453 6.920000076293945
89.13999938964844 237.0299987792969 7.019999980926514
89.83999633789062 237.1900024414062 6.96999979019165
92.72000122070312 237.8899993896484 6.949999809265137
94.30999755859375 238.9799957275391 6.980000019073486
93.58999633789062 238.8000030517578 7.070000171661377
94.98999786376953 239.1600036621094 6.840000152587891
91.63999938964844 238.3200073242188 7.28000020980835
90.26000213623047 238 7.300000190734863
87.25 237.2299957275391 6.880000114440918
91.01999664306641 238.1799926757812 7.329999923706055
89.51000213623047 237.8300018310547 7.21999979019165
88.12000274658203 237.4499969482422 7.260000228881836
92.94999694824219 238.6399993896484 7.130000114440918
88.80999755859375 237.6300048828125 7.28000020980835
95.69999694824219 239.3200073242188 6.849999904632568
96.37000274658203 239.5 6.760000228881836
96.02999877929688 240.0200042724609 6.989999771118164
92.65000152587891 239.2100067138672 7.380000114440918
91.98999786376953 239.0200042724609 7.480000019073486
93.97000122070312 239.5099945068359 7.210000038146973
93.34999847412109 239.3899993896484 7.340000152587891
89.76000213623047 238.5 7.400000095367432
88.31999969482422 238.1399993896484 7.460000038146973
96.65000152587891 240.1799926757812 6.920000076293945
86.66000366210938 237.7200012207031 6.880000114440918
90.62000274658203 238.6799926757812 7.53000020980835
91.26999664306641 238.8399963378906 7.559999942779541
85.95999908447266 237.5099945068359 6.820000171661377
94.69999694824219 239.7100067138672 7.139999866485596
85.26000213623047 237.3500061035156 6.789999961853027
87.48000335693359 237.9199981689453 7.079999923706055
89.11000061035156 238.3399963378906 7.5
96.05999755859375 240.6699981689453 7.03000020980835
95.5 240.5 7.300000190734863
94.80000305175781 240.3699951171875 7.369999885559082
90.79000091552734 239.3699951171875 7.800000190734863
94.09999847412109 240.1600036621094 7.420000076293945
92.73999786376953 239.8200073242188 7.610000133514404
93.41000366210938 240.0299987792969 7.559999942779541
92.16000366210938 239.6999969482422 7.690000057220459
96.69000244140625 240.8000030517578 6.829999923706055
86.81999969482422 238.3500061035156 6.980000019073486
91.47000122070312 239.5399932861328 7.789999961853027
88.58000183105469 238.7899932861328 7.739999771118164
87.70999908447266 238.6100006103516 7.360000133514404
86.09999847412109 238.1900024414062 6.880000114440918
89.94000244140625 239.1600036621094 7.630000114440918
85.33999633789062 237.9900054931641 6.949999809265137
89.34999847412109 238.9900054931641 7.690000057220459
97.44999694824219 241.7299957275391 6.989999771118164
95.51000213623047 241.25 7.210000038146973
93.62000274658203 240.7700042724609 7.75
92.97000122070312 240.6100006103516 7.820000171661377
92.34999847412109 240.4499969482422 7.940000057220459
91.62999725341797 240.3099975585938 8.010000228881836
94.33000183105469 240.9400024414062 7.599999904632568
94.86000061035156 241.0899963378906 7.389999866485596
90.13999938964844 239.9400024414062 7.900000095367432
96.16000366210938 241.3899993896484 7.139999866485596
88.97000122070312 239.6499938964844 9.960000038146973
86.83999633789062 239.0800018310547 7.039999961853027
90.06999969482422 239.9199981689453 10.65999984741211
88.01999664306641 239.4299926757812 9.489999771118164
89.44999694824219 239.7200012207031 7.980000019073486
85.52999877929688 238.75 7.159999847412109
98.06999969482422 241.8800048828125 6.820000171661377
84.70999908447266 238.5399932861328 6.880000114440918
96.83000183105469 241.5500030517578 7.019999980926514
90.87999725341797 240.0899963378906 7.980000019073486
88.68000030517578 239.5599975585938 7.860000133514404
86.25 238.9400024414062 7.179999828338623
97.63999938964844 242.3899993896484 6.889999866485596
93.08000183105469 241.3099975585938 7.989999771118164
92.20999908447266 241.1300048828125 11.73999977111816
91.83000183105469 240.9900054931641 8.189999580383301
95.72000122070312 241.9299926757812 7.420000076293945
90.37000274658203 240.6000061035156 8.039999961853027
95.08999633789062 241.7700042724609 7.489999771118164
89.65000152587891 240.4499969482422 8.109999656677246
91.51999664306641 240.9499969482422 11.85999965667725
89.40000152587891 240.3899993896484 10.55000019073486
97.08999633789062 242.25 7.150000095367432
85.34999847412109 239.3699951171875 9.460000038146973
86.51999664306641 239.6600036621094 7.340000152587891
84.87999725341797 239.2200012207031 7.110000133514404
92.47000122070312 241.1300048828125 8.130000114440918
90.51999664306641 240.6900024414062 11.23999977111816
91.13999938964844 240.8300018310547 8.279999732971191
93.70999908447266 241.4299926757812 7.710000038146973
84.65000152587891 239.1999969482422 9.569999694824219
85.81999969482422 239.4900054931641 7.409999847412109
94.37999725341797 241.6199951171875 7.570000171661377
86 239.5299987792969 9.430000305175781
88.41999816894531 240.1399993896484 9.819999694824219
96.41999816894531 242.1100006103516 7.320000171661377
87.55000305175781 239.9499969482422 9.539999961853027
96.51999664306641 242.6900024414062 7.25
97.63999938964844 242.9600067138672 6.760000228881836
97.12000274658203 242.8600006103516 6.989999771118164
95.94000244140625 242.5599975585938 7.480000019073486
93.36000061035156 241.9600067138672 10.84000015258789
92.12000274658203 241.6199951171875 8.260000228881836
94.05999755859375 242.1199951171875 7.880000114440918
95.34999847412109 242.4100036621094 7.690000057220459
93.86000061035156 242.1100006103516 10.5
92.80000305175781 241.8300018310547 11.19999980926514
92.22000122070312 241.6900024414062 11.55000019073486
87.63999938964844 240.5500030517578 9.529999732971191
89.75 241.1000061035156 10.92000007629395
93.33999633789062 241.9299926757812 7.900000095367432
90.90000152587891 241.3899993896484 11.6899995803833
94.66999816894531 242.2400054931641 7.789999961853027
92.69000244140625 241.75 8.050000190734863
86.31999969482422 240.1999969482422 9.590000152587891
86.95999908447266 240.3500061035156 9.449999809265137
85.69000244140625 240.0500030517578 9.720000267028809
85 239.8999938964844 9.850000381469727
84.12999725341797 239.6900024414062 9.479999542236328
88.66000366210938 240.7799987792969 10.1899995803833
91.70999908447266 241.5899963378906 11.90999984741211
94.55000305175781 248.2299957275391 10.30000019073486
91.73000335693359 247.5 10.4399995803833
84.26000213623047 245.6699981689453 9.579999923706055
94.01999664306641 248.0700073242188 10.64999961853027
85.15000152587891 245.8800048828125 9.909999847412109
93.37000274658203 247.9100036621094 10.72999954223633
80.76999664306641 244.7599945068359 6.929999828338623
81.62000274658203 244.9499969482422 7.079999923706055
83.30000305175781 245.3699951171875 7.590000152587891
92.55999755859375 247.7200012207031 10.61999988555908
82.45999908447266 245.1900024414062 7.46999979019165
91.01999664306641 247.3200073242188 10.39999961853027
88.30999755859375 246.6699981689453 11.98999977111816
89.48000335693359 246.9499969482422 11.39999961853027
86.19000244140625 246.1300048828125 10.5600004196167
87.20999908447266 246.3899993896484 11.3100004196167
90.52999877929688 247.2299957275391 10.76000022888184
88.87999725341797 246.8000030517578 11.8100004196167
89.98000335693359 247.0899963378906 11.05000019073486
95.33000183105469 248.3800048828125 7.440000057220459
95.12000274658203 248.3500061035156 9.920000076293945
95.69999694824219 248.4900054931641 9.569999694824219
95.75 248.4700012207031 6.880000114440918
81.73999786376953 245.7599945068359 7.099999904632568
82.5 245.9600067138672 7.210000038146973
84.27999877929688 246.4499969482422 9.569999694824219
80.90000152587891 245.5599975585938 6.900000095367432
85.33000183105469 246.6799926757812 10.23999977111816
95.72000122070312 249.2400054931641 6.739999771118164
95.09999847412109 249.1000061035156 7.03000020980835
94.54000091552734 248.9900054931641 10.05000019073486
92.48999786376953 248.4799957275391 10.14999961853027
95.55999755859375 249.2100067138672 9.439999580383301
91.05000305175781 248.1199951171875 10.13000011444092
95.02999877929688 249.1199951171875 9.710000038146973
86.31999969482422 246.9700012207031 10.9399995803833
88.30999755859375 247.4400024414062 11.96000003814697
90.48999786376953 248.0099945068359 10.48999977111816
87.45999908447266 247.2400054931641 11.63000011444092
93.22000122070312 248.6499938964844 10.27000045776367
89.94000244140625 247.8300018310547 10.85000038146973
89.40000152587891 247.7299957275391 11.19999980926514
94.83999633789062 249.0399932861328 7.929999828338623
94 248.8300018310547 10.42000007629395
91.61000061035156 248.25 9.989999771118164
88.86000061035156 247.5899963378906 11.56999969482422
83.80999755859375 247 9.5
82.55000305175781 246.6399993896484 6.949999809265137
81.06999969482422 246.2899932861328 6.849999904632568
80.30000305175781 246.0899963378906 6.840000152587891
85.94999694824219 247.5599975585938 10.89999961853027
81.76000213623047 246.4600067138672 6.909999847412109
84.90000152587891 247.2899932861328 10.1899995803833
92.45999908447266 249.1499938964844 9.739999771118164
90.5 248.6600036621094 10.26000022888184
91.58999633789062 248.9199981689453 9.600000381469727
89.47000122070312 248.4199981689453 10.90999984741211
88.95999908447266 248.2899932861328 11.28999996185303
86.90000152587891 247.7899932861328 11.53999996185303
90.01999664306641 248.5399932861328 10.60999965667725
87.87999725341797 248.0399932861328 11.97999954223633
91.01999664306641 248.8300018310547 9.909999847412109
88.40000152587891 248.1600036621094 11.63000011444092
93.25 249.3300018310547 9.930000305175781
94.58999633789062 249.6699981689453 9.800000190734863
95.18000030517578 249.8399963378906 9.439999580383301
94.47000122070312 249.6600036621094 7.96999979019165
94.02999877929688 249.5599975585938 10.03999996185303
95.29000091552734 249.8099975585938 6.769999980926514
87.36000061035156 248.5599975585938 12
86.26000213623047 248.2799987792969 11.27999973297119
94.70999908447266 249.6900024414062 7.070000171661377
89.56999969482422 249.0700073242188 10.65999984741211
88.48000335693359 248.8500061035156 11.39000034332275
90.12999725341797 249.2100067138672 10.27000045776367
85.26000213623047 248.0200042724609 10.64000034332275
88.98999786376953 248.9600067138672 11.02000045776367
87.95999908447266 248.6999969482422 11.71000003814697
84.18000030517578 247.75 9.920000076293945
94.29000091552734 250.2200012207031 7.25
91.87000274658203 249.6399993896484 9.439999580383301
91.69000244140625 249.6000061035156 7.760000228881836
91.15000152587891 249.4600067138672 9.590000152587891
94.65000152587891 250.3399963378906 9.510000228881836
94.77999877929688 250.3099975585938 6.889999866485596
91.04000091552734 249.4199981689453 7.730000019073486
90.62999725341797 249.3600006103516 9.960000038146973
93.33999633789062 250.0099945068359 9.550000190734863
94.02999877929688 250.1900024414062 9.680000305175781
92.55000305175781 249.7799987792969 9.479999542236328
88.51999664306641 249.5599975585938 11.14000034332275
87.94999694824219 249.3800048828125 11.51000022888184
89.01000213623047 249.6799926757812 10.78999996185303
82.16000366210938 247.8800048828125 6.920000076293945
89.51999664306641 249.7700042724609 10.40999984741211
85.72000122070312 248.8500061035156 11.21000003814697
86.73000335693359 249.1100006103516 11.85999965667725
83.66999816894531 248.2700042724609 7.119999885559082
83 248.1300048828125 7.110000133514404
87.41000366210938 249.2899932861328 11.82999992370605
89.87999725341797 250.6100006103516 7.920000076293945
90.33999633789062 250.7100067138672 7.369999885559082
90.63999938964844 250.8099975585938 9.430000305175781
85.23999786376953 249.4400024414062 7.110000133514404
89.58000183105469 250.5899963378906 10.13000011444092
82.88999938964844 248.8899993896484 6.840000152587891
88.45999908447266 250.3300018310547 10.90999984741211
84.58999633789062 249.2899932861328 7.340000152587891
87.94000244140625 250.1999969482422 11.19999980926514
82.18000030517578 248.7100067138672 6.78000020980835
86.65000152587891 249.7899932861328 7.170000076293945
90.11000061035156 250.6900024414062 9.789999961853027
83.70999908447266 249.0599975585938 7.039999961853027
89.01999664306641 250.4199981689453 10.52999973297119
85.98000335693359 249.6499938964844 7.090000152587891
93.09999847412109 250.6199951171875 7.429999828338623
94.05000305175781 250.8999938964844 9.409999847412109
91.73000335693359 250.3000030517578 7.590000152587891
93.69999694824219 250.7599945068359 7.170000076293945
91.13999938964844 250.1900024414062 9.409999847412109
90.38999938964844 249.9799957275391 7.849999904632568
90.56999969482422 250.0099945068359 9.770000457763672
92.44999694824219 250.4600067138672 7.639999866485596
90.04000091552734 249.9299926757812 10.10999965667725
90.94000244140625 250.1100006103516 7.46999979019165
94.30000305175781 250.8999938964844 6.960000038146973
92.47000122070312 251.25 7.389999866485596
91.77999877929688 251.0599975585938 7.340000152587891
94.23000335693359 251.7100067138672 6.78000020980835
93.69000244140625 251.5399932861328 7
93.09999847412109 251.3899993896484 7.289999961853027
90.95999908447266 250.8600006103516 7.210000038146973
91.02999877929688 251.5500030517578 6.989999771118164
93.83000183105469 252.2299957275391 6.860000133514404
89.58999633789062 251.2200012207031 10.01000022888184
87.45999908447266 250.6699981689453 7.119999885559082
90.37000274658203 251.3899993896484 7.21999979019165
90.08000183105469 251.3500061035156 9.609999656677246
85.98999786376953 250.3000030517578 6.900000095367432
89.70999908447266 251.2200012207031 7.369999885559082
92.51999664306641 251.9600067138672 7.190000057220459
88.94000244140625 251.0500030517578 7.239999771118164
86.72000122070312 250.4799957275391 6.96999979019165
93.23000335693359 252.0899963378906 7.079999923706055
91.73000335693359 251.7200012207031 7.099999904632568
85.30999755859375 250.1300048828125 6.929999828338623
88.26999664306641 250.8500061035156 7.289999961853027
83.16999816894531 249.5899963378906 7.019999980926514
84.02999877929688 249.8300018310547 7.239999771118164
84.68000030517578 249.9799957275391 7.190000057220459
91.84999847412109 252.3500061035156 6.880000114440918
91.12000274658203 252.1600036621094 6.869999885559082
89.08999633789062 251.6600036621094 7.119999885559082
93.22000122070312 252.6999969482422 6.920000076293945
87.76999664306641 251.3300018310547 7.210000038146973
85.80999755859375 250.8399963378906 6.25
84.76999664306641 250.5899963378906 7.039999961853027
83.23000335693359 250.1999969482422 6.929999828338623
84.01999664306641 250.4400024414062 7.050000190734863
82.48999786376953 250.0200042724609 6.860000133514404
85.33999633789062 250.75 6.670000076293945
86.80999755859375 251.1100006103516 6.840000152587891
89.84999847412109 251.8600006103516 7.150000095367432
90.48999786376953 252.0099945068359 7.070000171661377
92.55999755859375 252.5500030517578 6.960000038146973
88.48999786376953 251.5299987792969 7.329999923706055
89.76999664306641 252.5299987792969 6.869999885559082
93.33000183105469 253.3800048828125 6.809999942779541
90.55000305175781 252.7100067138672 6.920000076293945
87.76999664306641 252.0099945068359 7.25
85.70999908447266 251.5200042724609 5.880000114440918
84.73999786376953 251.2899932861328 6.820000171661377
86.97000122070312 251.8200073242188 7.019999980926514
84.05999755859375 251.0899963378906 6.809999942779541
89.05999755859375 252.3500061035156 6.889999866485596
83.33999633789062 250.9400024414062 6.869999885559082
88.40000152587891 252.1699981689453 7.199999809265137
85.23000335693359 251.3699951171875 6.320000171661377
87.08999633789062 252.6399993896484 6.880000114440918
86.37000274658203 252.4499969482422 6.809999942779541
87.87999725341797 252.8000030517578 7.010000228881836
88.51000213623047 252.9700012207031 6.920000076293945
87.83000183105469 253.4600067138672 6.860000133514404
88.51000213623047 253.6499938964844 6.630000114440918
95.81999969482422 247.8200073242188 7.110000133514404
95.55000305175781 247.7400054931641 8
96.34999847412109 247.9600067138672 6.800000190734863
96.25 247.9600067138672 9.489999771118164
95.70999908447266 247.8000030517578 9.779999732971191
93.58000183105469 247.3200073242188 11.14000034332275
94.12000274658203 247.4400024414062 10.80000019073486
90.65000152587891 246.5899963378906 10.92000007629395
92.08999633789062 246.9199981689453 10.90999984741211
88.06999969482422 245.9600067138672 11.56999969482422
94.69999694824219 247.5500030517578 10.47000026702881
85.01000213623047 245.1600036621094 9.630000114440918
91.26999664306641 246.75 10.77000045776367
92.79000091552734 247.1199951171875 11.0600004196167
81.55000305175781 244.2700042724609 6.840000152587891
95.18000030517578 247.6699981689453 10.13000011444092
86.94000244140625 245.6399993896484 10.78999996185303
89.54000091552734 246.3200073242188 11.59000015258789
83.51999664306641 244.7799987792969 9.470000267028809
84.25 244.9799957275391 9.489999771118164
90.04000091552734 246.4100036621094 11.27999973297119
89 246.1900024414062 11.97000026702881
82.44999694824219 244.4799957275391 7.28000020980835
83.36000061035156 244.6999969482422 7.690000057220459
85.95999908447266 245.3899993896484 10.14999961853027
96.36000061035156 247.3200073242188 6.929999828338623
95.73000335693359 247.2200012207031 9.960000038146973
91.98000335693359 246.3099975585938 11.17000007629395
90.58999633789062 245.9600067138672 11.10999965667725
95.98999786376953 247.2400054931641 7.599999904632568
90.05000305175781 245.8399963378906 11.44999980926514
94.01000213623047 246.8200073242188 10.88000011444092
91.25 246.1199951171875 11.10000038146973
92.66999816894531 246.4799957275391 11.10999965667725
86.73000335693359 244.9799957275391 10.43000030517578
84.22000122070312 244.3699951171875 9.800000190734863
87.76000213623047 245.2599945068359 11.14000034332275
88.87999725341797 245.5200042724609 11.9399995803833
95.16000366210938 247.0700073242188 10.34000015258789
85.83000183105469 244.7799987792969 10.11999988555908
93.27999877929688 246.6100006103516 10.97999954223633
81.88999938964844 243.7899932861328 9.449999809265137
94.59999847412109 246.9600067138672 10.67000007629395
89.45999908447266 245.7100067138672 11.85000038146973
85.05999755859375 244.5599975585938 9.930000305175781
96.26999664306641 247.3300018310547 9.619999885559082
82.66000366210938 243.9700012207031 9.5
83.45999908447266 244.1600036621094 9.640000343322754
96.19000244140625 246.6300048828125 9.930000305175781
96.68000030517578 246.75 9.590000152587891
91.70999908447266 245.5700073242188 10.85000038146973
90.5 245.2700042724609 11.36999988555908
94.98000335693359 246.3399963378906 10.22000026702881
91.06999969482422 245.4100036621094 11.03999996185303
96.80999755859375 246.7899932861328 6.900000095367432
96.37000274658203 246.6799926757812 7.449999809265137
93.66999816894531 246.0099945068359 10.52999973297119
94.30000305175781 246.1699981689453 10.39999961853027
86.56999969482422 244.2899932861328 10.61999988555908
83.45999908447266 243.4799957275391 10.02999973297119
84.30000305175781 243.6900024414062 10.18000030517578
89.41000366210938 244.9799957275391 12
88.30000305175781 244.7299957275391 11.30000019073486
85.05999755859375 243.8999938964844 10.31999969482422
93 245.8500061035156 10.65999984741211
87.30000305175781 244.4799957275391 10.77999973297119
92.41000366210938 245.7299957275391 10.76000022888184
95.59999847412109 246.5 10.14000034332275
82.66999816894531 243.2700042724609 9.819999694824219
89.98000335693359 245.1499938964844 11.71000003814697
85.76999664306641 244.0599975585938 10.4399995803833
84.37999725341797 242.9600067138672 10.60000038146973
83.30999755859375 242.6799926757812 10
85.15000152587891 243.1300048828125 10.84000015258789
85.94999694824219 243.3500061035156 10.9399995803833
82.33000183105469 242.4499969482422 9.520000457763672
96.27999877929688 245.8800048828125 7.289999961853027
96.66999816894531 245.9799957275391 9.550000190734863
96.83000183105469 245.9900054931641 7.010000228881836
92.62000274658203 245.0099945068359 10.27000045776367
91.05999755859375 244.6399993896484 11.27999973297119
93.31999969482422 245.1499938964844 10.17000007629395
88.16000366210938 243.8899993896484 11.18000030517578
94.69999694824219 245.5200042724609 9.869999885559082
90.52999877929688 244.5099945068359 11.60999965667725
89.16000366210938 244.1399993896484 11.65999984741211
97.27999877929688 246.1399993896484 9.399999618530273
95.31999969482422 245.6799926757812 9.810000419616699
94.01000213623047 245.3200073242188 10.03999996185303
86.77999877929688 243.5700073242188 11.0600004196167
95.95999908447266 245.8399963378906 9.649999618530273
87.48000335693359 243.7200012207031 11.19999980926514
89.98999786376953 244.3600006103516 11.97999954223633
92.08999633789062 244.8999938964844 10.59000015258789
91.61000061035156 244.75 10.90999984741211
94.5 244.7799987792969 9.479999542236328
92.79000091552734 244.3500061035156 10.35999965667725
90.65000152587891 243.8600006103516 11.84000015258789
94.33000183105469 244.6999969482422 7.679999828338623
93.88999938964844 244.6300048828125 9.670000076293945
91.69999694824219 244.0800018310547 11.11999988555908
88.83999633789062 243.3899993896484 11.18000030517578
87.94000244140625 243.1699981689453 10.73999977111816
86.01000213623047 242.7100067138672 11.14999961853027
95.15000152587891 244.9600067138672 9.439999580383301
84.19999694824219 242.2200012207031 10.34000015258789
92.26999664306641 244.2200012207031 10.68000030517578
87.25 243.0099945068359 10.88000011444092
85.30000305175781 242.5099945068359 11.05000019073486
91.16999816894531 243.9600067138672 11.4399995803833
89.95999908447266 243.6999969482422 11.88000011444092
93.30000305175781 244.4700012207031 10.03999996185303
83.22000122070312 241.9799957275391 9.630000114440918
86.66000366210938 242.8300018310547 11.02000045776367
97.45999908447266 245.4600067138672 6.900000095367432
96.26000213623047 245.1799926757812 7.420000076293945
96.83000183105469 245.3300018310547 7.170000076293945
95.62999725341797 245.0200042724609 7.539999961853027
95.83000183105469 245.1000061035156 9.399999618530273
94.98999786376953 244.8600006103516 7.639999866485596
96.91000366210938 244.7700042724609 7.239999771118164
95.51000213623047 244.3899993896484 7.349999904632568
94.30000305175781 244.1000061035156 7.769999980926514
98.09999847412109 245.0200042724609 6.800000190734863
92.76000213623047 243.75 10.60000038146973
94.87999725341797 244.2700042724609 7.559999942779541
91.73999786376953 243.5 11.3100004196167
90.65000152587891 243.25 12.01000022888184
92.20999908447266 243.6300048828125 10.92000007629395
97.48000335693359 244.8999938964844 7.019999980926514
85.05999755859375 241.8699951171875 10.6899995803833
89.76000213623047 243.0500030517578 11.60999965667725
82.98000335693359 241.3399963378906 9.529999732971191
85.81999969482422 242.0500030517578 10.78999996185303
83.97000122070312 241.5800018310547 9.920000076293945
87.76999664306641 242.5099945068359 10.47000026702881
87.16999816894531 242.3699951171875 10.57999992370605
88.68000030517578 242.7400054931641 10.86999988555908
91.18000030517578 243.4100036621094 11.63000011444092
96.18000030517578 244.5899963378906 7.260000228881836
86.48000335693359 242.1999969482422 10.71000003814697
93.26999664306641 243.8899993896484 10.27000045776367
94.40000152587891 244.1499938964844 9.510000228881836
93.81999969482422 244.0399932861328 9.869999885559082
97.94000244140625 244.3600006103516 6.829999923706055
97.25 244.1999969482422 6.920000076293945
94.87999725341797 243.6199951171875 7.639999866485596
95.43000030517578 243.75 7.409999847412109
94.98000335693359 243.6699981689453 9.359999656677246
94.29000091552734 243.5 7.889999866485596
95.98999786376953 243.9299926757812 7.190000057220459
94.41999816894531 243.5299987792969 9.710000038146973
91.18000030517578 242.75 11.82999992370605
93.87999725341797 243.4100036621094 10.02999973297119
88.27999877929688 242.0200042724609 10.35000038146973
87.5 241.8099975585938 10.15999984741211
92.87999725341797 243.1900024414062 10.76000022888184
96.61000061035156 244.0500030517578 6.989999771118164
85.61000061035156 241.3500061035156 10.51000022888184
90.48000335693359 242.5800018310547 11.86999988555908
93.33000183105469 243.3000030517578 10.39999961853027
86.25 241.5200042724609 10.39000034332275
92.30000305175781 243.0399932861328 11.10000038146973
83.75 240.8899993896484 9.619999885559082
86.87000274658203 241.6699981689453 10.23999977111816
84.79000091552734 241.1799926757812 10.31999969482422
91.69000244140625 242.9199981689453 11.47999954223633
89.41000366210938 242.3300018310547 11.11999988555908
97.19999694824219 243.4700012207031 6.829999923706055
94.95999908447266 242.9600067138672 9.560000419616699
94.38999938964844 242.8600006103516 9.989999771118164
93.83999633789062 242.6900024414062 10.3100004196167
96.01999664306641 243.2200012207031 7.329999923706055
92.80000305175781 242.4400024414062 10.97999954223633
96.63999938964844 243.3600006103516 7.050000190734863
93.29000091552734 242.6000061035156 10.68000030517578
94.23000335693359 242.75 8.100000381469727
87.29000091552734 241.1000061035156 9.810000419616699
89.16000366210938 241.5299987792969 10.8100004196167
85.30999755859375 240.5700073242188 10.19999980926514
91.73000335693359 242.2100067138672 11.69999980926514
92.26000213623047 242.3399963378906 11.32999992370605
88.13999938964844 241.2799987792969 10.11999988555908
91.18000030517578 242.0599975585938 12.01000022888184
86.62999725341797 240.8899993896484 9.970000267028809
94.86000061035156 242.9400024414062 7.829999923706055
85.91999816894531 240.7599945068359 10.0600004196167
95.40000152587891 243.0399932861328 7.619999885559082
84.44999694824219 240.3699951171875 9.890000343322754
83.5 240.1100006103516 9.529999732971191
90.26000213623047 241.8399963378906 11.5
97.98999786376953 241.9499969482422 6.800000190734863
97.41000366210938 241.9900054931641 7.079999923706055
97.05000305175781 240.4499969482422 6.800000190734863
96.87999725341797 239.8800048828125 7.03000020980835
97.23999786376953 241.2299957275391 6.860000133514404
98.09999847412109 244.6600036621094 6.849999904632568
97.55999755859375 242.5800018310547 6.829999923706055
96.55999755859375 241.3200073242188 6.989999771118164
96.36000061035156 240.6600036621094 6.980000019073486
97.26999664306641 244.1199951171875 6.880000114440918
97.61000061035156 245.4799957275391 6.909999847412109
97.09999847412109 243.4299926757812 6.860000133514404
96.75 242.1499938964844 7.269999980926514
96.18000030517578 239.9100036621094 6.900000095367432
96.94999694824219 242.8300018310547 7.059999942779541
97.43000030517578 244.8399963378906 7.050000190734863
95.31999969482422 239.2899932861328 6.889999866485596
95.69000244140625 240.7799987792969 7.179999828338623
96.20999908447266 242.8800048828125 7.329999923706055
96.38999938964844 243.5500030517578 7.170000076293945
96.72000122070312 244.8899993896484 7.210000038146973
95.51000213623047 240.0800018310547 7.130000114440918
95.81999969482422 241.4600067138672 7.190000057220459
97.12999725341797 246.6399993896484 9.380000114440918
96.02999877929688 242.2599945068359 7.510000228881836
96.52999877929688 244.1300048828125 7.059999942779541
97.02999877929688 246.1900024414062 6.929999828338623
97.16999816894531 246.8000030517578 6.730000019073486
96.88999938964844 245.5800018310547 7.099999904632568
96.91999816894531 245.8999938964844 9.510000228881836
94.48999786376953 238.6699981689453 6.920000076293945
94.66000366210938 239.3699951171875 6.980000019073486
95.43000030517578 242.4600067138672 7.690000057220459
95.05000305175781 240.9400024414062 7.349999904632568
95.93000030517578 244.4299926757812 7.230000019073486
95.22000122070312 241.6900024414062 7.380000114440918
95.76000213623047 243.75 7.309999942779541
96.16999816894531 245.4600067138672 9.460000038146973
96.43000030517578 246.4400024414062 7.179999828338623
96.65000152587891 247.4299926757812 9.399999618530273
96.48999786376953 246.8800048828125 9.590000152587891
96.58999633789062 246.9600067138672 6.869999885559082
94.87999725341797 240.1900024414062 7.260000228881836
96.36000061035156 246.2899932861328 9.760000228881836
95.58000183105469 243.1399993896484 7.460000038146973
94.16000366210938 239.6199951171875 7.21999979019165
94.91999816894531 242.7700042724609 9.710000038146973
94.73000335693359 241.7400054931641 7.570000171661377
94.90000152587891 242.5899963378906 7.849999904632568
94.51999664306641 241.0800018310547 7.539999961853027
95.80999755859375 246.3300018310547 9.970000267028809
96.31999969482422 248.1900024414062 9.420000076293945
95.05000305175781 243.3000030517578 9.390000343322754
95.20999908447266 243.7599945068359 7.46999979019165
94.37999725341797 240.3500061035156 7.389999866485596
96.23000335693359 247.6999969482422 6.880000114440918
96.08999633789062 247.1399993896484 7.110000133514404
95.62000274658203 245.4199981689453 9.539999961853027
95.97000122070312 246.9700012207031 9.920000076293945
95.06999969482422 243.1900024414062 7.670000076293945
96.11000061035156 247.5200042724609 9.579999923706055
93.98000335693359 238.75 6.949999809265137
93.51000213623047 239.6000061035156 7.309999942779541
94.13999938964844 242.3399963378906 10.26000022888184
93.33999633789062 238.8099975585938 7.050000190734863
93.70999908447266 240.4100036621094 7.610000133514404
94.77999877929688 244.7899932861328 9.489999771118164
93.88999938964844 241.1499938964844 7.710000038146973
95.22000122070312 246.6100006103516 10.3100004196167
94.45999908447266 243.3200073242188 7.860000133514404
94.59999847412109 243.9499969482422 7.630000114440918
94.48000335693359 243.5099945068359 9.689999580383301
94.98999786376953 245.6499938964844 9.819999694824219
95.54000091552734 247.7599945068359 9.869999885559082
95.75 248.4299926757812 6.929999828338623
93.15000152587891 238.0399932861328 6.829999923706055
95.83000183105469 248.8800048828125 9.430000305175781
95.58000183105469 247.8399963378906 7.21999979019165
95.66000366210938 248.2899932861328 9.619999885559082
95.91000366210938 249.0500030517578 6.760000228881836
95.37000274658203 247.1999969482422 10.14000034332275
94.27999877929688 242.9100036621094 9.939999580383301
94.62000274658203 244.0500030517578 9.399999618530273
92.86000061035156 239.8300018310547 7.590000152587891
92.41000366210938 238.1100006103516 7.050000190734863
94.65000152587891 247.2899932861328 10.47999954223633
94.29000091552734 245.7400054931641 10.11999988555908
93.79000091552734 243.6900024414062 10.0600004196167
93.05000305175781 240.5899963378906 7.710000038146973
95.12000274658203 249.0399932861328 9.680000305175781
94.08000183105469 244.9100036621094 9.699999809265137
93.90000152587891 244.1699981689453 9.789999961853027
92.61000061035156 238.9700012207031 7.329999923706055
93.36000061035156 242.0099945068359 10.82999992370605
95.05999755859375 248.5700073242188 7.199999809265137
95.34999847412109 249.7899932861328 6.730000019073486
94.98000335693359 248.4299926757812 9.930000305175781
93.65000152587891 243.1199951171875 10.28999996185303
93.47000122070312 242.5899963378906 10.52999973297119
95.19999694824219 249.1900024414062 6.949999809265137
94.80999755859375 247.9100036621094 10.27000045776367
92.23999786376953 237.3200073242188 6.940000057220459
95.27999877929688 249.5800018310547 9.439999580383301
94.51999664306641 246.6900024414062 10.64999961853027
91.77999877929688 238.2899932861328 7.239999771118164
92.01000213623047 239.1999969482422 7.510000228881836
92.84999847412109 242.7599945068359 10.86999988555908
93.12000274658203 243.8899993896484 10.27999973297119
93 243.3200073242188 10.55000019073486
93.70999908447266 246.1300048828125 10.51000022888184
92.54000091552734 241.6300048828125 11.44999980926514
92.72000122070312 242.25 11.09000015258789
91.58000183105469 237.5200042724609 6.980000019073486
93.88999938964844 247.0700073242188 10.98999977111816
94.22000122070312 248.1799926757812 10.48999977111816
94.48000335693359 249.2799987792969 9.939999580383301
94.80999755859375 250.4600067138672 9.409999847412109
94.33000183105469 248.7599945068359 10.21000003814697
94.55999755859375 249.4299926757812 7.239999771118164
94.86000061035156 250.6000061035156 6.809999942779541
94.65000152587891 249.8300018310547 9.649999618530273
93.47000122070312 245.1699981689453 10
93.30999755859375 244.5200042724609 10.02999973297119
94.73000335693359 249.9900054931641 6.949999809265137
94.05999755859375 247.6399993896484 10.71000003814697
91.05000305175781 237.5500030517578 7.130000114440918
92.02999877929688 241.7200012207031 11.71000003814697
92.33999633789062 242.9199981689453 11.07999992370605
93.31999969482422 247 11.15999984741211
92.48000335693359 243.4600067138672 10.85999965667725
90.80999755859375 236.6699981689453 6.869999885559082
93.65000152587891 248.1499938964844 10.73999977111816
92.18000030517578 242.3399963378906 11.35999965667725
91.20999908447266 238.3600006103516 7.369999885559082
91.88999938964844 241.1799926757812 11.97000026702881
93.94999694824219 249.2799987792969 10.1899995803833
93.12000274658203 246.1799926757812 10.77999973297119
94.19999694824219 250.1100006103516 7.230000019073486
94.48000335693359 251.3500061035156 6.820000171661377
92.91999816894531 245.2100067138672 10.28999996185303
94.11000061035156 249.8999938964844 9.869999885559082
92.62000274658203 244.0099945068359 10.55000019073486
93.48999786376953 247.6699981689453 10.98999977111816
94.23999786376953 250.4299926757812 9.609999656677246
94.33999633789062 250.6499938964844 6.989999771118164
92.73999786376953 244.5500030517578 10.31999969482422
93.77999877929688 248.7400054931641 10.47000026702881
94.37000274658203 251.0700073242188 9.359999656677246
91.66999816894531 243.0500030517578 11.39000034332275
91.40000152587891 241.9199981689453 11.97000026702881
91.98999786376953 244.1399993896484 10.93000030517578
92.98999786376953 248.25 10.51000022888184
91.55999755859375 242.4700012207031 11.72000026702881
92.51999664306641 246.3300018310547 11.02999973297119
92.11000061035156 244.7599945068359 10.61999988555908
93.30000305175781 249.3000030517578 9.939999580383301
92.87000274658203 247.6199951171875 10.81999969482422
91.86000061035156 243.6300048828125 11.14000034332275
93.70999908447266 250.75 7.210000038146973
92.30000305175781 245.4299926757812 10.60999965667725
94.01000213623047 251.9299926757812 6.769999980926514
93.58000183105469 250.3999938964844 9.430000305175781
93.13999938964844 248.8099975585938 10.26000022888184
92.69000244140625 247.0200042724609 11.03999996185303
93.41999816894531 249.8500061035156 9.699999809265137
93.87999725341797 251.3899993896484 6.949999809265137
93.37999725341797 249.6199951171875 7.679999828338623
93.55999755859375 250.1799926757812 7.349999904632568
90.20999908447266 236.8999938964844 7.070000171661377
90.61000061035156 238.4600067138672 7.480000019073486
90.38999938964844 237.6999969482422 7.289999961853027
91.23000335693359 241.1399993896484 11.76000022888184
90.05000305175781 236.1499938964844 6.880000114440918
89.87999725341797 238.3600006103516 7.320000171661377
89.47000122070312 236.8200073242188 6.909999847412109
91.66000366210938 245.6100006103516 10.89000034332275
91.84999847412109 246.3999938964844 11.14999961853027
91.31999969482422 244.4199981689453 11.17000007629395
91.45999908447266 244.9700012207031 10.92000007629395
91.08000183105469 243.3200073242188 11.77000045776367
92.41000366210938 248.6799926757812 10.06999969482422
92.01000213623047 246.9799957275391 10.89000034332275
92.30999755859375 248.1199951171875 10.3100004196167
