495.9700012207031 298.9500122070312 10.94999980926514
487.3800048828125 301.1199951171875 10.35999965667725
489.5599975585938 300.5899963378906 10.46000003814697
490.1400146484375 300.4599914550781 10.27000045776367
486.6700134277344 301.3299865722656 10.27000045776367
485.8200073242188 301.5199890136719 10
490.9100036621094 300.260009765625 10.27999973297119
488.1900024414062 300.9200134277344 10.44999980926514
496.6400146484375 298.1700134277344 11.35000038146973
498.8399963378906 297.5799865722656 11.57999992370605
498.1099853515625 297.760009765625 11.53999996185303
489.2799987792969 299.9800109863281 10.63000011444092
499.5400085449219 297.4299926757812 11.67000007629395
493 299.0799865722656 10.88000011444092
486.3699951171875 300.7300109863281 10.1899995803833
488.0199890136719 300.3299865722656 10.73999977111816
493.739990234375 298.8800048828125 10.92000007629395
490.6900024414062 299.6400146484375 10.56999969482422
487.2999877929688 300.5199890136719 10.63000011444092
495.1499938964844 298.510009765625 11.14000034332275
494.4500122070312 298.6700134277344 11.0600004196167
489.9599914550781 299.8399963378906 10.52999973297119
492.1900024414062 299.25 10.72999954223633
488.7099914550781 300.1300048828125 10.78999996185303
491.5199890136719 299.4200134277344 10.67000007629395
497.4400024414062 297.9299926757812 11.46000003814697
495.9299926757812 298.2999877929688 11.23999977111816
495.739990234375 297.6799926757812 11.64999961853027
497.9500122070312 297.0799865722656 11.85000038146973
496.4800109863281 297.4800109863281 11.68000030517578
494.1700134277344 298.0499877929688 11.39999961853027
491.3299865722656 298.7699890136719 11.0600004196167
489.1300048828125 299.2900085449219 10.82999992370605
489.8299865722656 299.1400146484375 10.85999965667725
498.7200012207031 296.9200134277344 11.92000007629395
494.9700012207031 297.8699951171875 11.47999954223633
488.5 299.4800109863281 10.97000026702881
486.8599853515625 299.8599853515625 10.44999980926514
490.5700073242188 298.9400024414062 10.92000007629395
493.4700012207031 298.2000122070312 11.28999996185303
499.4599914550781 296.739990234375 12
492.0400085449219 298.5700073242188 11.09000015258789
487.8500061035156 299.6300048828125 10.89999961853027
485.9100036621094 300.1199951171875 9.960000038146973
492.7300109863281 298.4200134277344 11.23999977111816
497.1900024414062 297.2799987792969 11.72000026702881
494.7799987792969 297.260009765625 11.77000045776367
496.2900085449219 296.9299926757812 11.97999954223633
491.8099975585938 298 11.39999961853027
495.5 297.1199951171875 11.81999969482422
490.3500061035156 298.3800048828125 11.18000030517578
488.6799926757812 298.7999877929688 10.77000045776367
489.5599975585938 298.5700073242188 11.14000034332275
487.2099914550781 299.1700134277344 10.60999965667725
492.6000061035156 297.8200073242188 11.47999954223633
493.3200073242188 297.6300048828125 11.59000015258789
491.0899963378906 298.2300109863281 11.35000038146973
488.010009765625 298.989990234375 10.76000022888184
494.0499877929688 297.4800109863281 11.68000030517578
486.3200073242188 299.3800048828125 10.17000007629395
498.3900146484375 296.3699951171875 12.18000030517578
499.0700073242188 296.1900024414062 12.30000019073486
497.6600036621094 296.5700073242188 12.14000034332275
496.9800109863281 296.7200012207031 12.01000022888184
499.8399963378906 296.0199890136719 12.38000011444092
497.6300048828125 296.0700073242188 12.38000011444092
496.1000061035156 296.4500122070312 12.18000030517578
499.7099914550781 295.5400085449219 12.48999977111816
499.0400085449219 295.7200012207031 12.48999977111816
492.3699951171875 297.3900146484375 11.72000026702881
496.8599853515625 296.25 12.30000019073486
491.6799926757812 297.5899963378906 11.60000038146973
494.6499938964844 296.8500061035156 12.02999973297119
493.0700073242188 297.2099914550781 11.77000045776367
498.3299865722656 295.8999938964844 12.44999980926514
493.8699951171875 297.0400085449219 11.89999961853027
490.260009765625 297.9100036621094 11.47999954223633
486.9800109863281 298.7300109863281 10.44999980926514
487.7000122070312 298.5899963378906 10.56999969482422
490.9500122070312 297.75 11.52999973297119
495.3599853515625 296.6400146484375 12.09000015258789
489.3200073242188 298.1799926757812 11.02000045776367
486.1199951171875 298.9500122070312 10.06999969482422
488.4400024414062 298.3900146484375 10.63000011444092
500.010009765625 294.8900146484375 12.15999984741211
499.3099975585938 295.0599975585938 12.25
495.9400024414062 295.8900146484375 12.42000007629395
496.6199951171875 295.739990234375 12.52000045776367
493.739990234375 296.4299926757812 12.18000030517578
495.2300109863281 296.0700073242188 12.39000034332275
492.2699890136719 296.7999877929688 12.02999973297119
498.6300048828125 295.239990234375 12.28999996185303
493.0199890136719 296.6300048828125 12.06999969482422
486.489990234375 298.25 10.22999954223633
489.8500061035156 297.4200134277344 11.26000022888184
497.9200134277344 295.3800048828125 12.44999980926514
490.760009765625 297.1799926757812 11.77999973297119
491.5799865722656 296.9800109863281 11.90999984741211
488.9700012207031 297.6600036621094 10.85000038146973
488.0400085449219 297.8900146484375 10.35999965667725
487.260009765625 298.0899963378906 10.34000015258789
497.2900085449219 295.5700073242188 12.48999977111816
494.4700012207031 296.2799987792969 12.26000022888184
499.5599975585938 294.260009765625 11.89000034332275
498.239990234375 294.6199951171875 12.06999969482422
494.3099975585938 295.6000061035156 12.52999973297119
495.6300048828125 295.260009765625 12.42000007629395
493.5400085449219 295.7999877929688 12.51000022888184
494.9100036621094 295.4700012207031 12.47000026702881
498.8800048828125 294.4500122070312 11.97999954223633
492.0199890136719 296.1799926757812 12.31999969482422
497.5400085449219 294.7999877929688 12.13000011444092
490.2900085449219 296.6000061035156 11.52999973297119
486.8399963378906 297.4800109863281 10.02000045776367
496.9400024414062 294.9299926757812 12.22000026702881
488.5799865722656 297.0299987792969 10.65999984741211
489.4400024414062 296.8299865722656 11.09000015258789
491.2099914550781 296.3699951171875 12
486.1799926757812 297.6300048828125 10.06999969482422
492.7699890136719 296.0199890136719 12.39999961853027
496.3099975585938 295.1199951171875 12.30000019073486
487.6499938964844 297.260009765625 10.21000003814697
499.7300109863281 293.5599975585938 11.56999969482422
499.0599975585938 293.7200012207031 11.64000034332275
497.0199890136719 294.2699890136719 11.86999988555908
496.3599853515625 294.4299926757812 11.94999980926514
492.510009765625 295.4100036621094 12.44999980926514
495.0899963378906 294.760009765625 12.13000011444092
489.9500122070312 296.0299987792969 11.35000038146973
493.1600036621094 295.2699890136719 12.39999961853027
488.0700073242188 296.5299987792969 10.44999980926514
497.75 294.0599975585938 11.82999992370605
495.7300109863281 294.5799865722656 12.03999996185303
493.8399963378906 295.0499877929688 12.27000045776367
494.4500122070312 294.8900146484375 12.22000026702881
490.8099975585938 295.8299865722656 11.77999973297119
491.6799926757812 295.6199951171875 12.25
487.25 296.7300109863281 10.07999992370605
489.0199890136719 296.260009765625 10.88000011444092
498.4100036621094 293.9200134277344 11.6899995803833
499.3399963378906 293.1199951171875 11.30000019073486
498.0799865722656 293.4599914550781 11.4399995803833
499.9599914550781 292.9400024414062 11.22999954223633
496.1000061035156 293.9599914550781 11.6899995803833
495.4200134277344 294.1000061035156 11.8100004196167
497.3699951171875 293.6300048828125 11.52999973297119
498.7000122070312 293.2699890136719 11.38000011444092
494.1000061035156 294.4299926757812 11.94999980926514
496.760009765625 293.7699890136719 11.63000011444092
492.7900085449219 294.7900085449219 12.14000034332275
494.8399963378906 294.2799987792969 11.85999965667725
488.6600036621094 295.7999877929688 10.6899995803833
489.4700012207031 295.6199951171875 11.13000011444092
492.1300048828125 294.9299926757812 12.22000026702881
487.75 296.0299987792969 10.28999996185303
493.4700012207031 294.6300048828125 12.02000045776367
491.2999877929688 295.1499938964844 12.02999973297119
486.9500122070312 296.239990234375 9.989999771118164
490.3699951171875 295.3699951171875 11.53999996185303
499.6199951171875 292.3900146484375 10.94999980926514
498.9599914550781 292.5599975585938 11
495.6300048828125 293.4100036621094 11.42000007629395
496.3200073242188 293.2799987792969 11.35999965667725
491.0700073242188 294.6099853515625 11.93000030517578
490.1199951171875 294.8399963378906 11.39999961853027
497.6400146484375 292.8999938964844 11.23999977111816
493.0499877929688 294.1000061035156 11.78999996185303
489.239990234375 295.0599975585938 11.02999973297119
487.4299926757812 295.4599914550781 10.14999961853027
492.4299926757812 294.25 11.82999992370605
488.3699951171875 295.239990234375 10.52000045776367
498.3200073242188 292.739990234375 11.0600004196167
494.9400024414062 293.5899963378906 11.55000019073486
493.6700134277344 293.9299926757812 11.71000003814697
491.739990234375 294.3900146484375 11.94999980926514
494.3299865722656 293.739990234375 11.60999965667725
497 293.0599975585938 11.27999973297119
499.7300109863281 291.6400146484375 10.5600004196167
498.4200134277344 292 10.72000026702881
499.0899963378906 291.8399963378906 10.60999965667725
497.8099975585938 292.1300048828125 10.82999992370605
491.2900085449219 293.7900085449219 11.64000034332275
491.9400024414062 293.6499938964844 11.53999996185303
496.5400085449219 292.4599914550781 10.9399995803833
495.2099914550781 292.7900085449219 11.14999961853027
487.8200073242188 294.6400146484375 10.32999992370605
493.9299926757812 293.1499938964844 11.27999973297119
490.5799865722656 293.9599914550781 11.68000030517578
489.6499938964844 294.2300109863281 11.18000030517578
497.1700134277344 292.2900085449219 10.92000007629395
488.6900024414062 294.4400024414062 10.69999980926514
494.5299987792969 292.989990234375 11.21000003814697
493.2999877929688 293.2799987792969 11.38000011444092
492.5899963378906 293.4599914550781 11.46000003814697
495.8800048828125 292.6600036621094 11.0600004196167
486.9700012207031 294.8900146484375 9.979999542236328
497.989990234375 291.4100036621094 10.47000026702881
496.6900024414062 291.739990234375 10.60999965667725
498.6600036621094 291.2300109863281 10.40999984741211
493.3299865722656 292.5899963378906 11.0600004196167
499.2999877929688 291.0799865722656 10.26000022888184
491.4299926757812 293.0799865722656 11.27999973297119
494.7000122070312 292.239990234375 10.88000011444092
492.6499938964844 292.7799987792969 11.14000034332275
497.3699951171875 291.5599975585938 10.5600004196167
489.2300109863281 293.6099853515625 11.03999996185303
490.8099975585938 293.2300109863281 11.34000015258789
488.25 293.8800048828125 10.52000045776367
495.3699951171875 292.0799865722656 10.78999996185303
492.0400085449219 292.9200134277344 11.1899995803833
499.9500122070312 290.9400024414062 10.14999961853027
487.4100036621094 294.0899963378906 10.11999988555908
493.989990234375 292.4200134277344 10.94999980926514
496.0199890136719 291.9299926757812 10.65999984741211
490.1000061035156 293.3999938964844 11.47999954223633
496.8999938964844 291.1099853515625 10.31999969482422
492.9700012207031 292.0899963378906 10.77000045776367
496.2699890136719 291.239990234375 10.38000011444092
494.3299865722656 291.760009765625 10.60999965667725
491.7200012207031 292.3900146484375 10.96000003814697
498.8900146484375 290.5700073242188 10.02000045776367
497.510009765625 290.9400024414062 10.18000030517578
493.7000122070312 291.8900146484375 10.69999980926514
491.1000061035156 292.5799865722656 11.03999996185303
488.8099975585938 293.1400146484375 10.82999992370605
495.6199951171875 291.3900146484375 10.47000026702881
490.3999938964844 292.7300109863281 11.21000003814697
489.7799987792969 292.8800048828125 11.27000045776367
487 293.5799865722656 9.979999542236328
492.3599853515625 292.25 10.84000015258789
499.5499877929688 290.3999938964844 9.960000038146973
498.1799926757812 290.7799987792969 10.11999988555908
487.9200134277344 293.3399963378906 10.38000011444092
495.0499877929688 291.5899963378906 10.57999992370605
497.2000122070312 290.2799987792969 9.890000343322754
495.9599914550781 290.5799865722656 10.01000022888184
495.239990234375 290.7799987792969 10.11999988555908
493.9400024414062 291.0899963378906 10.3100004196167
492.5599975585938 291.4599914550781 10.44999980926514
491.9100036621094 291.6000061035156 10.61999988555908
493.2699890136719 291.2699890136719 10.35000038146973
494.6000061035156 290.9599914550781 10.22000026702881
496.5599975585938 290.4500122070312 9.989999771118164
491.3699951171875 291.7799987792969 10.76000022888184
487.6700134277344 292.6600036621094 10.23999977111816
489.5 292.2300109863281 11.11999988555908
490.7699890136719 291.8999938964844 11.03999996185303
488.5400085449219 292.4500122070312 10.69999980926514
490.1900024414062 292.0700073242188 11.27999973297119
488.9700012207031 291.5700073242188 10.88000011444092
488.0899963378906 291.760009765625 10.47000026702881
487.2200012207031 292.010009765625 10.02000045776367
493.4700012207031 290.4500122070312 9.989999771118164
491.6400146484375 290.8699951171875 10.63000011444092
492.239990234375 290.760009765625 10.35999965667725
492.7900085449219 290.5700073242188 10.09000015258789
494.0700073242188 290.2699890136719 9.869999885559082
489.8999938964844 291.3200073242188 11.35999965667725
490.5599975585938 291.1600036621094 11.14999961853027
491.0700073242188 291.0400085449219 10.88000011444092
491.8599853515625 290.1199951171875 10.43000030517578
489.3699951171875 290.7300109863281 11.13000011444092
490.2000122070312 290.5499877929688 11.34000015258789
490.7099914550781 290.3999938964844 11.07999992370605
487.6300048828125 291.2000122070312 10.26000022888184
488.5 290.9400024414062 10.67000007629395
491.2900085449219 290.239990234375 10.78999996185303
492.4500122070312 289.9700012207031 10.18000030517578
491.4599914550781 289.6300048828125 10.15999984741211
490.8999938964844 289.7300109863281 10.43000030517578
489.1199951171875 290.2200012207031 10.92000007629395
490.3699951171875 289.8999938964844 10.75
487.1799926757812 290.7000122070312 10.03999996185303
489.9200134277344 289.989990234375 11.25
488.1600036621094 290.4700012207031 10.47000026702881
486.9700012207031 290.0400085449219 9.939999580383301
499.5799865722656 293.9500122070312 11.77000045776367
498.989990234375 293.8299865722656 11.64000034332275
497.7900085449219 293.5299987792969 11.5
498.3500061035156 293.6499938964844 11.59000015258789
496.5 293.2099914550781 11.3100004196167
495.2099914550781 292.8699951171875 11.22999954223633
493.3099975585938 292.3900146484375 10.94999980926514
494.5599975585938 292.7000122070312 11.10000038146973
492.1099853515625 292.0899963378906 10.8100004196167
490.739990234375 291.760009765625 10.97999954223633
489.989990234375 291.5799865722656 11.38000011444092
488.8599853515625 291.2900085449219 10.89999961853027
488.3200073242188 291.1499938964844 10.63000011444092
489.3699951171875 291.4500122070312 11.11999988555908
493.9599914550781 292.5799865722656 11.01000022888184
492.7300109863281 292.25 10.89999961853027
487.7699890136719 291.010009765625 10.35999965667725
487.1600036621094 290.8900146484375 10.0600004196167
491.5400085449219 291.9599914550781 10.69999980926514
495.8399963378906 293.0700073242188 11.28999996185303
497.0799865722656 293.3599853515625 11.40999984741211
499.6400146484375 294.6600036621094 12.03999996185303
498.989990234375 294.4599914550781 12.02999973297119
498.3599853515625 294.3099975585938 11.89000034332275
494.739990234375 293.4299926757812 11.46000003814697
497.7799987792969 294.1600036621094 11.82999992370605
495.989990234375 293.739990234375 11.60000038146973
497.1400146484375 294.0299987792969 11.75
495.3099975585938 293.5499877929688 11.5
492.8900146484375 292.9400024414062 11.18000030517578
490.2099914550781 292.2900085449219 11.23999977111816
492.239990234375 292.7799987792969 11.11999988555908
488.9700012207031 291.9800109863281 10.92000007629395
496.5499877929688 293.8500061035156 11.6899995803833
493.510009765625 293.1300048828125 11.30000019073486
489.5599975585938 292.1199951171875 11.1899995803833
494.0700073242188 293.239990234375 11.35999965667725
487.9100036621094 291.739990234375 10.42000007629395
490.9599914550781 292.489990234375 11.01000022888184
486.8500061035156 291.4299926757812 9.890000343322754
491.6000061035156 292.6400146484375 11.05000019073486
488.4599914550781 291.8399963378906 10.65999984741211
487.3800048828125 291.5700073242188 10.14000034332275
495.4400024414062 294.3500061035156 11.89999961853027
499.2099914550781 295.2799987792969 12.35000038146973
493.489990234375 293.8399963378906 11.64999961853027
494.7699890136719 294.1799926757812 11.80000019073486
491.7000122070312 293.4100036621094 11.40999984741211
499.7699890136719 295.4299926757812 12.42000007629395
494.1700134277344 294.0199890136719 11.73999977111816
492.9299926757812 293.6900024414062 11.56999969482422
489.260009765625 292.7900085449219 11.07999992370605
492.2699890136719 293.5299987792969 11.52000045776367
488.2099914550781 292.5299987792969 10.55000019073486
496.0499877929688 294.4700012207031 11.9399995803833
496.7200012207031 294.6600036621094 12.07999992370605
498.5199890136719 295.0799865722656 12.3100004196167
497.9700012207031 294.9700012207031 12.22000026702881
491.0799865722656 293.260009765625 11.35000038146973
490.489990234375 293.0700073242188 11.31999969482422
497.2999877929688 294.8099975585938 12.14000034332275
489.7900085449219 292.9500122070312 11.34000015258789
487.5799865722656 292.3599853515625 10.27999973297119
488.3900146484375 293.2000122070312 10.61999988555908
487.8200073242188 293.0400085449219 10.38000011444092
488.7099914550781 292.6400146484375 10.80000019073486
487.2999877929688 292.9200134277344 10.13000011444092
487.0299987792969 292.2099914550781 10.01000022888184
486.75 292.7999877929688 9.859999656677246
499.4100036621094 295.9599914550781 12.39999961853027
498.7200012207031 295.7699890136719 12.5
498.0199890136719 295.5899963378906 12.53999996185303
496.7999877929688 295.2799987792969 12.40999984741211
496.2200012207031 295.1400146484375 12.32999992370605
497.4500122070312 295.4700012207031 12.4399995803833
494.3900146484375 294.6799926757812 12.09000015258789
494.9800109863281 294.8299865722656 12.18000030517578
493.1499938964844 294.3800048828125 11.90999984741211
490.6700134277344 293.75 11.64000034332275
488.8699951171875 293.3399963378906 10.92000007629395
492.5599975585938 294.25 11.85000038146973
491.8999938964844 294.0799865722656 11.77000045776367
495.6300048828125 294.989990234375 12.23999977111816
490.0299987792969 293.5899963378906 11.44999980926514
493.7200012207031 294.5299987792969 12
489.4700012207031 293.4800109863281 11.21000003814697
491.2300109863281 293.9299926757812 11.68000030517578
492.5400085449219 294.8200073242188 12.18000030517578
491.3699951171875 294.5400085449219 12.02999973297119
491.9599914550781 294.7000122070312 12.06999969482422
489.739990234375 294.1300048828125 11.27999973297119
490.8099975585938 294.3800048828125 11.85000038146973
493.1900024414062 294.9800109863281 12.19999980926514
489.1099853515625 293.9800109863281 11
490.25 294.260009765625 11.52999973297119
487.5299987792969 293.5499877929688 10.18000030517578
493.7900085449219 295.1400146484375 12.3100004196167
486.9299926757812 293.3900146484375 9.899999618530273
488.6300048828125 293.8500061035156 10.73999977111816
488.0499877929688 293.6799926757812 10.52000045776367
497.739990234375 296.1199951171875 12.34000015258789
497.1099853515625 295.9500122070312 12.42000007629395
499.1199951171875 296.4800109863281 12.14999961853027
495.0899963378906 295.4599914550781 12.46000003814697
494.4599914550781 295.2900085449219 12.40999984741211
498.6600036621094 297.010009765625 11.88000011444092
499.3399963378906 297.1700134277344 11.80000019073486
499.8200073242188 296.6499938964844 12.11999988555908
495.7000122070312 295.6300048828125 12.52999973297119
497.9500122070312 296.8299865722656 11.93000030517578
498.4500122070312 296.2799987792969 12.23999977111816
496.4100036621094 295.7999877929688 12.47000026702881
497.3200073242188 296.6900024414062 12.02999973297119
494.6199951171875 296.0400085449219 12.43000030517578
493.239990234375 295.6799926757812 12.51000022888184
492.0199890136719 295.3699951171875 12.4399995803833
491.4200134277344 295.2200012207031 12.15999984741211
493.9299926757812 295.8399963378906 12.47000026702881
489.1900024414062 294.6400146484375 11.0600004196167
487.5899963378906 294.239990234375 10.22999954223633
490.8900146484375 295.0700073242188 11.89999961853027
487.0400085449219 294.1099853515625 9.949999809265137
492.6400146484375 295.5499877929688 12.5
488.6400146484375 294.5 10.77000045776367
490.3299865722656 294.9400024414062 11.60999965667725
489.7999877929688 294.7999877929688 11.31999969482422
488.1199951171875 294.3900146484375 10.48999977111816
496.6099853515625 296.5 12.14000034332275
495.9700012207031 296.3299865722656 12.26000022888184
495.2999877929688 296.1799926757812 12.28999996185303
499.6600036621094 298.0799865722656 11.38000011444092
498.2999877929688 297.7000122070312 11.57999992370605
494.9400024414062 296.8800048828125 11.94999980926514
495.5700073242188 297.0400085449219 11.88000011444092
496.2900085449219 297.2099914550781 11.8100004196167
491.0199890136719 295.8999938964844 11.96000003814697
494.1900024414062 296.6900024414062 12.0600004196167
492.1300048828125 296.1900024414062 12.3100004196167
493.5299987792969 296.5299987792969 12.10999965667725
488.2999877929688 295.2099914550781 10.59000015258789
490.489990234375 295.7699890136719 11.6899995803833
488.8399963378906 295.3399963378906 10.86999988555908
487.7699890136719 295.0799865722656 10.35000038146973
497.6900024414062 297.5799865722656 11.68000030517578
489.3800048828125 295.4800109863281 11.13000011444092
487.1900024414062 294.9299926757812 10.03999996185303
489.9200134277344 295.6499938964844 11.42000007629395
492.7999877929688 296.3599853515625 12.22999954223633
491.5299987792969 296.0599975585938 12.17000007629395
497.010009765625 297.3999938964844 11.6899995803833
499.0199890136719 297.9200134277344 11.47000026702881
489.0299987792969 296.0899963378906 10.93000030517578
486.8699951171875 295.5299987792969 9.869999885559082
488.4200134277344 295.9299926757812 10.65999984741211
487.3800048828125 295.6700134277344 10.14999961853027
487.9200134277344 295.7900085449219 10.42000007629395
498.7000122070312 298.489990234375 11.15999984741211
493.9500122070312 297.3299865722656 11.75
496.6400146484375 297.9599914550781 11.46000003814697
498 298.2999877929688 11.23999977111816
491.25 296.6300048828125 12.06999969482422
491.9200134277344 296.8299865722656 11.97999954223633
495.3500061035156 297.6600036621094 11.5600004196167
493.2799987792969 297.1600036621094 11.78999996185303
499.4299926757812 298.6700134277344 11.03999996185303
497.2999877929688 298.1199951171875 11.38000011444092
490.1600036621094 296.3599853515625 11.55000019073486
492.6000061035156 297 11.93000030517578
494.5899963378906 297.5 11.69999980926514
496.0199890136719 297.8399963378906 11.48999977111816
489.5499877929688 296.239990234375 11.22000026702881
490.6900024414062 296.5 11.77000045776367
499.1700134277344 299.2300109863281 10.81999969482422
496.4500122070312 298.5599975585938 11.11999988555908
499.7799987792969 299.3900146484375 10.72000026702881
493.6199951171875 297.8699951171875 11.46000003814697
494.3099975585938 298.0199890136719 11.39000034332275
495.7000122070312 298.3399963378906 11.26000022888184
492.25 297.5299987792969 11.65999984741211
490.3999938964844 297.0299987792969 11.64000034332275
492.8999938964844 297.6600036621094 11.59000015258789
498.4500122070312 299.0299987792969 10.85000038146973
487.6700134277344 296.3500061035156 10.27000045776367
495.0700073242188 298.2200012207031 11.3100004196167
497.1000061035156 298.7000122070312 11.05000019073486
490.9500122070312 297.1799926757812 11.82999992370605
497.8099975585938 298.8999938964844 10.98999977111816
487.1000061035156 296.2000122070312 9.960000038146973
489.25 296.7900085449219 11.11999988555908
488.1700134277344 296.4700012207031 10.5600004196167
491.5799865722656 297.3399963378906 11.72999954223633
488.739990234375 296.6099853515625 10.81999969482422
489.8099975585938 296.9200134277344 11.34000015258789
497.3399963378906 299.4200134277344 10.69999980926514
493.260009765625 298.4700012207031 11.21000003814697
496.0400085449219 299.1300048828125 10.82999992370605
492.6099853515625 298.2699890136719 11.22999954223633
496.6799926757812 299.260009765625 10.77000045776367
494 298.6400146484375 11.10000038146973
498.6000061035156 299.7699890136719 10.71000003814697
495.3299865722656 298.9299926757812 10.94999980926514
492.1300048828125 298.9700012207031 10.92000007629395
493.489990234375 299.3299865722656 10.76000022888184
494.2300109863281 299.5 10.73999977111816
492.8500061035156 299.1600036621094 10.82999992370605
488.4100036621094 298.0599975585938 10.64000034332275
489.4800109863281 298.3099975585938 11.18000030517578
486.0599975585938 297.4700012207031 10.01000022888184
497.9800109863281 299.6199951171875 10.57999992370605
487.8999938964844 297.9299926757812 10.39999961853027
490.8099975585938 298.6799926757812 11.11999988555908
499.3099975585938 299.9200134277344 10.65999984741211
486.6799926757812 297.6099853515625 10.09000015258789
490.1900024414062 298.4800109863281 11.19999980926514
491.489990234375 298.8099975585938 11
494.6400146484375 298.760009765625 11.05000019073486
490.5400085449219 297.75 11.53999996185303
488.9400024414062 298.2000122070312 10.97000026702881
491.9599914550781 298.1400146484375 11.34000015258789
487.7200012207031 297.0400085449219 10.31999969482422
489.9299926757812 297.6000061035156 11.44999980926514
491.2699890136719 297.9700012207031 11.44999980926514
487.2000122070312 296.9100036621094 10.02000045776367
487.3299865722656 297.7799987792969 10.18000030517578
489.3599853515625 297.489990234375 11.13000011444092
488.2200012207031 297.2000122070312 10.57999992370605
488.8200073242188 297.3099975585938 10.89000034332275
498.2200012207031 300.4700012207031 10.5
497.6799926757812 300.3500061035156 10.23999977111816
498.7900085449219 300.6000061035156 10.8100004196167
496.2900085449219 299.989990234375 10.42000007629395
494.8999938964844 299.6400146484375 10.71000003814697
499.4800109863281 300.7799987792969 10.59000015258789
495.6400146484375 299.8399963378906 10.47999954223633
497.0400085449219 300.2000122070312 10.35999965667725
497.7699890136719 301.0799865722656 10.3100004196167
497.2300109863281 300.9500122070312 10.0600004196167
496.6400146484375 300.7999877929688 10.01000022888184
498.3299865722656 301.239990234375 10.61999988555908
495.1799926757812 300.4500122070312 10.51000022888184
494.3900146484375 300.25 10.82999992370605
493.2099914550781 300 10.4399995803833
492.5799865722656 299.8099975585938 10.5
493.8399963378906 300.1199951171875 10.57999992370605
489.8699951171875 299.1400146484375 10.78999996185303
485.6900024414062 298.0899963378906 9.859999656677246
487.8999938964844 298.6900024414062 10.61999988555908
491.8900146484375 299.6400146484375 10.60000038146973
490.5199890136719 299.3200073242188 10.73999977111816
495.9200134277344 300.6600036621094 10.14999961853027
491.2099914550781 299.4599914550781 10.72000026702881
487.2999877929688 298.5 10.51000022888184
486.4800109863281 298.260009765625 7.710000038146973
486.1900024414062 298.2300109863281 10.13000011444092
489.1300048828125 298.989990234375 10.98999977111816
486.3800048828125 298.25 6.03000020980835
486.7200012207031 298.3500061035156 10.42000007629395
488.5 298.8299865722656 10.73999977111816
488.7699890136719 299.5499877929688 10.78999996185303
488.0299987792969 299.3699951171875 10.97999954223633
489.489990234375 299.75 10.55000019073486
486.3800048828125 298.9500122070312 10.22000026702881
486.9700012207031 299.1000061035156 10.51000022888184
485.8200073242188 298.8299865722656 9.909999847412109
487.4800109863281 299.2200012207031 10.81999969482422
486.5899963378906 298.989990234375 7.820000171661377
486.489990234375 298.9400024414062 6.46999979019165
494.010009765625 300.8399963378906 10.64000034332275
491.8800048828125 300.3500061035156 11.15999984741211
491.5199890136719 300.2200012207031 10.34000015258789
492.3599853515625 300.4800109863281 11.40999984741211
493.4200134277344 300.7200012207031 10.35000038146973
490.2200012207031 299.9200134277344 10.47999954223633
490.8699951171875 300.0700073242188 10.36999988555908
491.760009765625 300.989990234375 10.31999969482422
494.6300048828125 301 10.77999973297119
492.7300109863281 301.1900024414062 7.710000038146973
491.260009765625 300.8200073242188 10
495.3999938964844 301.1799926757812 10.40999984741211
489.010009765625 300.2799987792969 10.64999961853027
486.510009765625 299.6499938964844 10.34000015258789
488.239990234375 300.1199951171875 10.85999965667725
487.0899963378906 299.8200073242188 10.57999992370605
490.510009765625 300.6400146484375 10.09000015258789
489.8399963378906 300.489990234375 10.26000022888184
492.5899963378906 301.1600036621094 9.920000076293945
486.3999938964844 299.5899963378906 7.21999979019165
486.0299987792969 299.5599975585938 10.09000015258789
487.5899963378906 299.9200134277344 10.86999988555908
493.4599914550781 301.3599853515625 7.599999904632568
493.1099853515625 301.3099975585938 10.15999984741211
494.0299987792969 301.489990234375 7.619999885559082
492.3599853515625 301.8299865722656 7.429999828338623
493.0299987792969 302.010009765625 7.329999923706055
491.7000122070312 301.6600036621094 7.590000152587891
489.3699951171875 301.1199951171875 10.32999992370605
486.8099975585938 300.489990234375 10.39000034332275
485.6799926757812 300.2000122070312 9.859999656677246
490.1000061035156 301.3200073242188 10.10000038146973
486.2000122070312 300.3399963378906 10.14999961853027
487.3299865722656 300.6199951171875 10.60000038146973
488.7000122070312 300.989990234375 10.42000007629395
488.0400085449219 300.7799987792969 10.55000019073486
486.3999938964844 300.3500061035156 6.010000228881836
486.4800109863281 300.3699951171875 7.679999828338623
493.7000122070312 302.1700134277344 7.260000228881836
490.489990234375 302.0400085449219 9.920000076293945
490.8999938964844 302.1400146484375 7.179999828338623
488.4599914550781 301.5400085449219 10.10000038146973
487.75 301.3900146484375 10.23999977111816
489.1199951171875 301.7300109863281 10.0600004196167
492.2099914550781 302.4500122070312 7.170000076293945
491.5 302.25 7.210000038146973
489.8399963378906 301.8900146484375 9.949999809265137
487.0899963378906 301.2200012207031 10.27999973297119
486.4800109863281 301.0499877929688 10.22999954223633
486.4100036621094 300.9599914550781 5.199999809265137
486.4299926757812 301.0199890136719 6.889999866485596
485.9599914550781 300.9500122070312 10.02999973297119
488.1700134277344 302.0899963378906 9.930000305175781
489.8500061035156 302.4700012207031 7.260000228881836
486.2000122070312 301.6199951171875 10.09000015258789
487.5700073242188 301.9400024414062 9.909999847412109
486.8999938964844 301.7699890136719 9.989999771118164
485.6300048828125 301.4800109863281 9.880000114440918
500 293.4100036621094 11.44999980926514
499.3599853515625 293.25 11.38000011444092
498.1400146484375 292.9400024414062 11.22000026702881
496.9299926757812 292.6400146484375 11.07999992370605
496.3399963378906 292.5199890136719 10.97000026702881
497.489990234375 292.8200073242188 11.13000011444092
495.7099914550781 292.3399963378906 10.92000007629395
491.9400024414062 291.3999938964844 10.5
494.4200134277344 292.0299987792969 10.75
492.5599975585938 291.5899963378906 10.48999977111816
495.0400085449219 292.2200012207031 10.84000015258789
488.010009765625 290.4700012207031 10.47999954223633
488.5400085449219 290.6000061035156 10.72999954223633
493.8500061035156 291.8999938964844 10.64000034332275
487.4700012207031 290.2900085449219 10.22000026702881
493.2699890136719 291.760009765625 10.57999992370605
490.3399963378906 291.0199890136719 11.21000003814697
486.9500122070312 290.1900024414062 9.920000076293945
489.6199951171875 290.8500061035156 11.27999973297119
498.7300109863281 293.0899963378906 11.27999973297119
489.0799865722656 290.7099914550781 10.97999954223633
491.2000122070312 291.2200012207031 10.77999973297119
499.2000122070312 292.5499877929688 11.01000022888184
496.1400146484375 291.739990234375 10.63000011444092
499.8599853515625 292.7000122070312 11.09000015258789
494.8200073242188 291.4400024414062 10.44999980926514
497.3800048828125 292.0499877929688 10.77000045776367
496.739990234375 291.8999938964844 10.65999984741211
494.1700134277344 291.2799987792969 10.34000015258789
492.3500061035156 290.8299865722656 10.1899995803833
491.5799865722656 290.6400146484375 10.56999969482422
498 292.25 10.84000015258789
489.4299926757812 290.1099853515625 11.14999961853027
498.6600036621094 292.3999938964844 10.94999980926514
495.4500122070312 291.5700073242188 10.5600004196167
488.9299926757812 290 10.69999980926514
490.7699890136719 290.4500122070312 10.97999954223633
490.010009765625 290.2300109863281 11.35999965667725
492.989990234375 290.9599914550781 10.19999980926514
488.5599975585938 289.8800048828125 10.15999984741211
493.5899963378906 291.1099853515625 10.31999969482422
499.6799926757812 291.8500061035156 10.61999988555908
497.8800048828125 291.3900146484375 10.42000007629395
497.25 291.239990234375 10.36999988555908
499.0499877929688 291.6900024414062 10.53999996185303
494.75 290.6000061035156 10.05000019073486
492.9100036621094 290.1600036621094 9.890000343322754
494.1400146484375 290.4500122070312 9.970000267028809
492.0499877929688 289.9299926757812 10.28999996185303
495.3900146484375 290.7799987792969 10.14000034332275
496.6400146484375 291.0599975585938 10.3100004196167
496.010009765625 290.9299926757812 10.1899995803833
493.5700073242188 290.2900085449219 9.890000343322754
491.5299987792969 289.7900085449219 10.01000022888184
490.7300109863281 289.6300048828125 10.34000015258789
498.4200134277344 291.5499877929688 10.51000022888184
498.3500061035156 290.8399963378906 10.15999984741211
499.5700073242188 291.1099853515625 10.34000015258789
496.4700012207031 290.3699951171875 9.899999618530273
498.9700012207031 291 10.23999977111816
497.0799865722656 290.489990234375 10.02000045776367
495.8099975585938 290.2099914550781 9.880000114440918
497.760009765625 290.6900024414062 10.11999988555908
498.7300109863281 290.3099975585938 9.909999847412109
498.1099853515625 290.1300048828125 9.859999656677246
499.3099975585938 290.4400024414062 9.970000267028809
499.9700012207031 290.6199951171875 10.02999973297119
486.7000122070312 302.1499938964844 9.970000267028809
486.1300048828125 301.9800109863281 9.920000076293945
486.3900146484375 301.4100036621094 10.10999965667725
487.5499877929688 301.7000122070312 10.02000045776367
489.2099914550781 302.1400146484375 9.899999618530273
489.5 302.25 7.239999771118164
490.6199951171875 302.5299987792969 7.199999809265137
486.9299926757812 301.5599975585938 10.10999965667725
488.6400146484375 301.9800109863281 9.909999847412109
490.1300048828125 302.4100036621094 7.199999809265137
485.8099975585938 301.2900085449219 9.899999618530273
488.0899963378906 301.8399963378906 9.970000267028809
488.3599853515625 301.3399963378906 10.25
487.1900024414062 301.0799865722656 10.36999988555908
487.8599853515625 301.239990234375 10.28999996185303
488.9400024414062 301.489990234375 10.17000007629395
492.0499877929688 302.2999877929688 7.199999809265137
486.0700073242188 300.7999877929688 10
490.6700134277344 301.9500122070312 9.939999580383301
489.4700012207031 301.6499938964844 10.09000015258789
492.6499938964844 302.4400024414062 7.21999979019165
490.0599975585938 301.760009765625 10.02999973297119
486.6300048828125 300.9200134277344 10.31999969482422
491.489990234375 302.1799926757812 7.25
490.8800048828125 302.0400085449219 7.320000171661377
488.1199951171875 300.6700134277344 10.5600004196167
486.3999938964844 300.260009765625 10.17000007629395
485.8599853515625 300.1000061035156 9.909999847412109
489.8299865722656 301.1199951171875 10.32999992370605
491.25 301.4700012207031 7.659999847412109
492.4500122070312 301.8099975585938 7.489999771118164
493.010009765625 301.9400024414062 7.429999828338623
487.5400085449219 300.5299987792969 10.64999961853027
491.8500061035156 301.6199951171875 7.610000133514404
488.6300048828125 300.7799987792969 10.52999973297119
490.4299926757812 301.260009765625 9.970000267028809
486.9500122070312 300.3699951171875 10.46000003814697
494.1300048828125 302.2300109863281 7.349999904632568
489.2799987792969 300.9599914550781 10.39999961853027
493.5799865722656 302.0499877929688 7.409999847412109
492.7699890136719 301.1199951171875 7.769999980926514
493.3500061035156 301.2699890136719 7.679999828338623
493.8999938964844 301.4299926757812 7.630000114440918
493.1000061035156 301.1700134277344 10.17000007629395
492.5799865722656 301.0700073242188 9.859999656677246
493.6400146484375 301.3099975585938 10.42000007629395
485.7000122070312 299.3399963378906 9.949999809265137
487.3999938964844 299.75 10.71000003814697
486.2900085449219 299.5 10.10000038146973
486.7999877929688 299.6400146484375 10.36999988555908
487.9500122070312 299.8800048828125 10.98999977111816
489.7099914550781 300.3500061035156 10.40999984741211
491.3800048828125 300.739990234375 10.06999969482422
490.2099914550781 300.4800109863281 10.22999954223633
492.0299987792969 300.8999938964844 10.02999973297119
491.8900146484375 300.8699951171875 11.22000026702881
488.510009765625 300.0599975585938 10.88000011444092
492.4500122070312 301.0199890136719 11.23999977111816
489.1000061035156 300.2000122070312 10.75
490.8699951171875 300.6199951171875 10.09000015258789
490.6000061035156 299.9400024414062 10.44999980926514
490.010009765625 299.8099975585938 10.53999996185303
488.8200073242188 299.4700012207031 10.85999965667725
494.0400085449219 300.7699890136719 10.57999992370605
492.2999877929688 300.3599853515625 11.39000034332275
492.9400024414062 300.5400085449219 10.18000030517578
491.7799987792969 300.239990234375 10.35000038146973
495.1600036621094 301.0400085449219 10.59000015258789
489.3999938964844 299.6499938964844 10.64999961853027
496.3699951171875 301.3900146484375 9.960000038146973
495.7699890136719 301.2000122070312 10.27000045776367
493.4800109863281 300.6400146484375 10.31999969482422
494.5499877929688 300.8900146484375 10.85999965667725
491.7099914550781 300.1900024414062 11.21000003814697
491.2000122070312 300.0899963378906 10.39000034332275
486.3299865722656 298.9500122070312 6.369999885559082
486.5899963378906 298.9200134277344 10.28999996185303
492.8599853515625 300.4800109863281 11.43000030517578
487.1099853515625 299.0899963378906 10.5600004196167
488.2200012207031 299.3500061035156 10.97000026702881
486.010009765625 298.8200073242188 10
487.7300109863281 299.2200012207031 10.78999996185303
490.8900146484375 299.4299926757812 10.72000026702881
489.1900024414062 299.010009765625 10.92000007629395
492.6000061035156 299.8500061035156 10.52000045776367
489.7099914550781 299.1199951171875 10.86999988555908
490.2699890136719 299.2900085449219 10.77000045776367
495.4800109863281 300.5499877929688 10.43000030517578
496.1400146484375 300.7200012207031 10.13000011444092
496.7000122070312 300.8900146484375 9.979999542236328
492.010009765625 299.7300109863281 10.60999965667725
493.7799987792969 300.1499938964844 10.47999954223633
493.1700134277344 300 10.44999980926514
497.8200073242188 301.1300048828125 10.27000045776367
494.2999877929688 300.260009765625 10.73999977111816
491.4299926757812 299.5799865722656 10.64999961853027
494.8800048828125 300.4100036621094 10.72000026702881
498.3599853515625 301.2699890136719 10.52999973297119
497.2900085449219 301.010009765625 10.02999973297119
485.7999877929688 298.2099914550781 9.920000076293945
486.3200073242188 298.2999877929688 10.14000034332275
486.8999938964844 298.4700012207031 10.47999954223633
488.0799865722656 298.7200012207031 10.69999980926514
488.6000061035156 298.8599853515625 10.76000022888184
487.4599914550781 298.6000061035156 10.56999969482422
491.2300109863281 298.8900146484375 10.97999954223633
493.5599975585938 299.4700012207031 10.68000030517578
494.0700073242188 299.6199951171875 10.68000030517578
498.6700134277344 300.7200012207031 10.67000007629395
496.3999938964844 300.1600036621094 10.38000011444092
499.2099914550781 300.8500061035156 10.78999996185303
499.8500061035156 301.010009765625 10.5
492.9500122070312 299.2999877929688 10.80000019073486
494.6000061035156 299.739990234375 10.85000038146973
496.9500122070312 300.3299865722656 10.3100004196167
490.6199951171875 298.7099914550781 11.10000038146973
491.8200073242188 299.0400085449219 10.90999984741211
498.0899963378906 300.6000061035156 10.43000030517578
497.5499877929688 300.4500122070312 10.19999980926514
495.2699890136719 299.8999938964844 10.5600004196167
495.8299865722656 300.0199890136719 10.42000007629395
492.4200134277344 299.1700134277344 10.81999969482422
488.3500061035156 298.1600036621094 10.60999965667725
488.8599853515625 298.3200073242188 10.84000015258789
487.8299865722656 298.0299987792969 10.39000034332275
489.4400024414062 298.4200134277344 11.14999961853027
490.0599975585938 298.6099853515625 11.1899995803833
486.1199951171875 297.6199951171875 10
486.6900024414062 297.760009765625 10.15999984741211
487.239990234375 297.8999938964844 10.25
494.8900146484375 299.0899963378906 10.88000011444092
496.7200012207031 299.5499877929688 10.64999961853027
495.5 299.2699890136719 10.77999973297119
496.1099853515625 299.3999938964844 10.69999980926514
498.8999938964844 300.1199951171875 10.81999969482422
493.7099914550781 298.8399963378906 11.02000045776367
497.8599853515625 299.8500061035156 10.5
499.5299987792969 300.25 10.60999965667725
498.3599853515625 299.9500122070312 10.56999969482422
497.2799987792969 299.6799926757812 10.57999992370605
494.3500061035156 298.9599914550781 10.96000003814697
486.3999938964844 297.0499877929688 9.869999885559082
488.1300048828125 297.4299926757812 10.46000003814697
486.9700012207031 297.1900024414062 9.930000305175781
488.6900024414062 297.5599975585938 10.69999980926514
490.8800048828125 298.1000061035156 11.35000038146973
489.760009765625 297.8399963378906 11.22999954223633
492.0499877929688 298.3900146484375 11.22000026702881
493.1600036621094 298.6600036621094 11.06999969482422
492.5599975585938 298.5400085449219 11.17000007629395
489.1799926757812 297.6799926757812 11
491.4200134277344 298.2200012207031 11.35000038146973
487.5700073242188 297.3200073242188 10.19999980926514
490.2300109863281 297.9700012207031 11.46000003814697
488.3299865722656 296.8599853515625 10.57999992370605
488.8800048828125 296.9599914550781 10.8100004196167
491.760009765625 297.6600036621094 11.5600004196167
490.5700073242188 297.3800048828125 11.67000007629395
491.1199951171875 297.5 11.64999961853027
492.3500061035156 297.8099975585938 11.48999977111816
492.9299926757812 297.9700012207031 11.39999961853027
489.4800109863281 297.1300048828125 11.13000011444092
493.4400024414062 298.0799865722656 11.38000011444092
494.0400085449219 298.2300109863281 11.28999996185303
495.75 298.6799926757812 11.10999965667725
499.2000122070312 299.510009765625 10.82999992370605
487.8200073242188 296.7099914550781 10.27999973297119
496.3399963378906 298.8399963378906 11.03999996185303
495.2099914550781 298.5400085449219 11.13000011444092
498.7000122070312 299.4200134277344 10.77999973297119
497.4599914550781 299.0799865722656 10.86999988555908
496.8900146484375 298.9400024414062 10.94999980926514
494.5899963378906 298.3800048828125 11.22000026702881
499.8299865722656 299.6700134277344 10.60999965667725
489.989990234375 297.260009765625 11.40999984741211
498.0700073242188 299.2300109863281 10.78999996185303
487.25 296.5700073242188 10.02999973297119
487.6000061035156 296.0499877929688 10.1899995803833
490.2900085449219 296.7000122070312 11.51000022888184
488.1900024414062 296.1900024414062 10.47999954223633
489.75 296.5599975585938 11.27999973297119
487.0199890136719 295.9400024414062 9.899999618530273
492 297.1300048828125 11.85999965667725
494.9100036621094 297.8500061035156 11.5
492.5599975585938 297.260009765625 11.78999996185303
493.7300109863281 297.5299987792969 11.6899995803833
496.0799865722656 298.1400146484375 11.34000015258789
497.25 298.4299926757812 11.19999980926514
488.6799926757812 296.2999877929688 10.77999973297119
489.260009765625 296.4800109863281 11.03999996185303
491.3900146484375 296.9700012207031 11.93000030517578
497.7900085449219 298.5599975585938 11.10000038146973
496.6900024414062 298.2699890136719 11.3100004196167
499.5299987792969 298.989990234375 10.90999984741211
495.489990234375 298 11.40999984741211
498.9299926757812 298.8599853515625 11.02999973297119
494.2900085449219 297.7099914550781 11.55000019073486
490.8299865722656 296.8200073242188 11.84000015258789
493.1099853515625 297.3900146484375 11.72000026702881
498.3699951171875 298.6900024414062 11.09000015258789
499.8599853515625 298.4200134277344 11.21000003814697
486.8299865722656 295.2000122070312 9.920000076293945
488.9599914550781 295.7200012207031 10.89000034332275
487.3399963378906 295.3299865722656 10.07999992370605
490.1300048828125 296 11.42000007629395
491.2099914550781 296.2699890136719 11.98999977111816
489.5599975585938 295.8900146484375 11.1899995803833
487.9299926757812 295.4599914550781 10.40999984741211
488.4500122070312 295.6199951171875 10.61999988555908
492.3699951171875 296.5799865722656 12.13000011444092
492.9200134277344 296.6799926757812 12.10999965667725
491.75 296.4200134277344 12.21000003814697
497.489990234375 297.8200073242188 11.52000045776367
494.0299987792969 296.9700012207031 11.9399995803833
495.8099975585938 297.4200134277344 11.72000026702881
493.5199890136719 296.8299865722656 11.98999977111816
498.1300048828125 298 11.42000007629395
494.6499938964844 297.1400146484375 11.86999988555908
499.2900085449219 298.2699890136719 11.25
498.6700134277344 298.1400146484375 11.35000038146973
495.2200012207031 297.25 11.81999969482422
496.3500061035156 297.5700073242188 11.60000038146973
490.6199951171875 296.1199951171875 11.71000003814697
496.9299926757812 297.7200012207031 11.60999965667725
497.2799987792969 297.0499877929688 11.90999984741211
497.8200073242188 297.1700134277344 11.84000015258789
496.0899963378906 296.739990234375 12.02000045776367
496.6900024414062 296.9200134277344 11.97000026702881
498.3800048828125 297.3299865722656 11.72999954223633
499.5299987792969 297.6000061035156 11.60000038146973
498.9599914550781 297.4599914550781 11.65999984741211
488.8099975585938 294.989990234375 10.8100004196167
489.2799987792969 295.0799865722656 11.03999996185303
488.2300109863281 294.8500061035156 10.52000045776367
489.8699951171875 295.239990234375 11.32999992370605
493.1499938964844 296.0400085449219 12.44999980926514
490.3500061035156 295.3299865722656 11.5600004196167
487.7000122070312 294.6900024414062 10.22999954223633
495.510009765625 296.6000061035156 12.07999992370605
491.4299926757812 295.5899963378906 12.11999988555908
492.0299987792969 295.739990234375 12.38000011444092
487.1099853515625 294.5499877929688 9.939999580383301
493.739990234375 296.1799926757812 12.35999965667725
494.3699951171875 296.3299865722656 12.25
490.9100036621094 295.5 11.89000034332275
494.8800048828125 296.4400024414062 12.21000003814697
492.5400085449219 295.8900146484375 12.47999954223633
488.3800048828125 294.239990234375 10.63000011444092
490.0499877929688 294.6400146484375 11.40999984741211
492.3099975585938 295.1700134277344 12.31999969482422
