91.97000122070312 304.239990234375 12.8100004196167
96.33000183105469 303.1600036621094 8.600000381469727
81.15000152587891 307.5499877929688 9.470000267028809
83.02999877929688 307.0599975585938 10.56999969482422
82.11000061035156 307.3200073242188 10.06999969482422
84.79000091552734 306.6300048828125 12.65999984741211
85.72000122070312 306.3800048828125 13.17000007629395
83.80999755859375 306.8500061035156 12.10000038146973
90.88999938964844 305.0799865722656 13.46000003814697
88.56999969482422 305.6199951171875 14.69999980926514
89.73000335693359 305.3699951171875 14.02999973297119
87.77999877929688 305.8099975585938 14.46000003814697
90.26999664306641 305.2300109863281 13.76000022888184
92.01999664306641 304.7799987792969 12.76000022888184
89.19999694824219 305.489990234375 14.35999965667725
94.11000061035156 304.260009765625 11.51000022888184
94.79000091552734 304.1300048828125 11.36999988555908
86.80000305175781 306.0700073242188 13.86999988555908
96.58000183105469 303.6700134277344 12.03999996185303
96.79000091552734 303.6199951171875 9.720000267028809
96.80000305175781 303.5799865722656 11.22999954223633
96.80000305175781 303.6600036621094 8.189999580383301
93.01999664306641 304.5299987792969 12.0600004196167
91.47000122070312 304.8999938964844 13.17000007629395
92.55999755859375 304.6700134277344 12.39000034332275
95.43000030517578 303.9400024414062 11.25
93.51000213623047 304.4500122070312 11.59000015258789
85.86000061035156 307 13.23999977111816
84.87000274658203 307.2699890136719 12.64999961853027
87.84999847412109 306.489990234375 14.40999984741211
88.68000030517578 306.2999877929688 14.68000030517578
89.73999786376953 306.0499877929688 14.02000045776367
90.83999633789062 305.7699890136719 13.39999961853027
82.12000274658203 308 10.07999992370605
90.33000183105469 305.8800048828125 13.73999977111816
86.88999938964844 306.739990234375 13.80000019073486
91.97000122070312 305.489990234375 12.84000015258789
94.93000030517578 304.760009765625 11.56999969482422
92.5 305.3399963378906 12.48999977111816
96.63999938964844 304.3099975585938 12.05000019073486
93.05999755859375 305.2300109863281 12.13000011444092
81.11000061035156 308.2300109863281 9.449999809265137
95.51000213623047 304.6300048828125 11.22000026702881
91.43000030517578 305.6400146484375 13.02999973297119
96.83000183105469 304.3099975585938 10.96000003814697
94.33999633789062 304.8999938964844 11.80000019073486
89.20999908447266 306.1499938964844 14.32999992370605
93.70999908447266 305.0499877929688 11.96000003814697
83.84999847412109 307.5599975585938 12.10000038146973
83.05999755859375 307.739990234375 10.52999973297119
96.26999664306641 305.2300109863281 8.279999732971191
96.77999877929688 304.3299865722656 9.539999961853027
96.83000183105469 304.3500061035156 8.140000343322754
84.94999694824219 308.0299987792969 12.6899995803833
82.27999877929688 308.7200012207031 10.14999961853027
86.97000122070312 307.489990234375 13.89000034332275
89.33999633789062 306.8999938964844 14.30000019073486
91.61000061035156 306.3800048828125 13.03999996185303
81.33000183105469 308.9599914550781 9.640000343322754
91.04000091552734 306.510009765625 13.30000019073486
88.75 307.0400085449219 14.60999965667725
93.33000183105469 305.9100036621094 12.32999992370605
93.93000030517578 305.7999877929688 12.14999961853027
90.41999816894531 306.6499938964844 13.6899995803833
96.69999694824219 305.0700073242188 12.11999988555908
92.65000152587891 306.1199951171875 12.39000034332275
92.11000061035156 306.25 12.71000003814697
95.62000274658203 305.3500061035156 11.19999980926514
83.95999908447266 308.2699890136719 12.10999965667725
89.87000274658203 306.7699890136719 13.94999980926514
87.94000244140625 307.25 14.47999954223633
94.98999786376953 305.5 11.52000045776367
96.15000152587891 305.25 10.89000034332275
96.16999816894531 305.2799987792969 9.520000457763672
96.76000213623047 305.0700073242188 10.80000019073486
94.48000335693359 305.6300048828125 11.81999969482422
85.98000335693359 307.7699890136719 13.31999969482422
94.11000061035156 306.5 11.97000026702881
92.20999908447266 306.9400024414062 12.57999992370605
91.69999694824219 307.0799865722656 12.94999980926514
92.80000305175781 306.7999877929688 12.23999977111816
96.37000274658203 305.9200134277344 10.73999977111816
94.69999694824219 306.3500061035156 11.6899995803833
93.36000061035156 306.6900024414062 11.9399995803833
95.26999664306641 306.2099914550781 11.34000015258789
85.43000030517578 308.6400146484375 12.97999954223633
82.61000061035156 309.3800048828125 10.32999992370605
87.38999938964844 308.1600036621094 14.07999992370605
81.68000030517578 309.6300048828125 9.829999923706055
88.90000152587891 307.75 14.36999988555908
89.47000122070312 307.6099853515625 14.1899995803833
88.11000061035156 307.9700012207031 14.26000022888184
96.29000091552734 306 7.789999961853027
91.16000366210938 307.2099914550781 13.23999977111816
86.44000244140625 308.3900146484375 13.60999965667725
90.06999969482422 307.489990234375 13.85000038146973
90.58999633789062 307.3299865722656 13.59000015258789
84.37999725341797 308.9100036621094 12.38000011444092
96.27999877929688 305.9599914550781 9.149999618530273
81.79000091552734 310.25 9.829999923706055
84.51000213623047 309.5299987792969 12.46000003814697
86.48999786376953 308.989990234375 13.59000015258789
88.86000061035156 308.4100036621094 13.97999954223633
85.58999633789062 309.25 13.11999988555908
90.75 307.9400024414062 13.47000026702881
88.04000091552734 308.6400146484375 13.86999988555908
82.61000061035156 310.0400085449219 9.970000267028809
87.26000213623047 308.7999877929688 13.75
92.38999938964844 307.5700073242188 12.51000022888184
92.90000152587891 307.4299926757812 12.15999984741211
94.77999877929688 306.9800109863281 11.60000038146973
90.22000122070312 308.0599975585938 13.82999992370605
95.33999633789062 306.8299865722656 11.32999992370605
91.86000061035156 307.6700134277344 12.82999992370605
93.29000091552734 307.3099975585938 11.59000015258789
96.22000122070312 306.6600036621094 7.320000171661377
96.30000305175781 306.6300048828125 8.869999885559082
91.33999633789062 307.8099975585938 13.13000011444092
89.56999969482422 308.2300109863281 14.03999996185303
95.90000152587891 306.6799926757812 11.01000022888184
96.44000244140625 306.5700073242188 10.71000003814697
94.05000305175781 307.1600036621094 11.64999961853027
94.01000213623047 307.8999938964844 11.22999954223633
96.59999847412109 307.25 10.65999984741211
96.30000305175781 307.3900146484375 7.170000076293945
96.29000091552734 307.3399963378906 8.619999885559082
94.81999969482422 307.6900024414062 11.27999973297119
96.05000305175781 307.3900146484375 10.94999980926514
96.08000183105469 307.3800048828125 9.609999656677246
81.73999786376953 311.0199890136719 9.369999885559082
85.79000091552734 309.9599914550781 13.10000038146973
83.77999877929688 310.4599914550781 12.09000015258789
88.70999908447266 309.1799926757812 13.51000022888184
87.94999694824219 309.3900146484375 13.39000034332275
84.80000305175781 310.1799926757812 12.65999984741211
89.51000213623047 308.9700012207031 13.64999961853027
90.22000122070312 308.8200073242188 13.71000003814697
82.5 310.7900085449219 9.460000038146973
91.37000274658203 308.5199890136719 13.10000038146973
92.45999908447266 308.2900085449219 12.5
91.91999816894531 308.3999938964844 12.80000019073486
86.5 309.75 13.14000034332275
93.23000335693359 308.1000061035156 11.10999965667725
87.27999877929688 309.5899963378906 13.32999992370605
90.84999847412109 308.6799926757812 13.39999961853027
93.01000213623047 308.1199951171875 12.11999988555908
86.31999969482422 310.5799865722656 12.72000026702881
84.87000274658203 310.9400024414062 12.47000026702881
83.91999816894531 311.2200012207031 12.14000034332275
91.51999664306641 309.25 13.05000019073486
91.02999877929688 309.3800048828125 13.31999969482422
92.06999969482422 309.1199951171875 12.71000003814697
92.44000244140625 309.0899963378906 10.57999992370605
93.12000274658203 308.8599853515625 12.06999969482422
90.22000122070312 309.6000061035156 13.31999969482422
93.15000152587891 308.8800048828125 10.60000038146973
94.69000244140625 308.5199890136719 10.84000015258789
85.58000183105469 310.7699890136719 12.64000034332275
93.90000152587891 308.6900024414062 10.75
87.94000244140625 310.1499938964844 13
96.66000366210938 308.0199890136719 10.61999988555908
96.19000244140625 308.1300048828125 9.569999694824219
96.30000305175781 308.1300048828125 6.860000133514404
89.44000244140625 309.8099975585938 13.1899995803833
87.08999633789062 310.3699951171875 12.84000015258789
88.66999816894531 309.9800109863281 13.0600004196167
92.59999847412109 309.0299987792969 12.4399995803833
96.29000091552734 308.1499938964844 8.289999961853027
96.05999755859375 308.1400146484375 10.93000030517578
95.45999908447266 308.3200073242188 10.97000026702881
84.93000030517578 311.6199951171875 12.13000011444092
87.15000152587891 311.0599975585938 12.47999954223633
86.37999725341797 311.260009765625 12.3100004196167
92.77999877929688 309.6900024414062 12.34000015258789
92.51000213623047 309.7900085449219 10.35999965667725
90.19999694824219 310.2900085449219 12.89000034332275
92.19000244140625 309.7900085449219 12.6899995803833
89.40000152587891 310.5299987792969 12.81999969482422
93.19999694824219 309.6099853515625 10.25
91.62999725341797 309.9400024414062 12.97999954223633
93.98000335693359 309.3800048828125 10.36999988555908
95.47000122070312 309.0299987792969 10.56999969482422
94.76000213623047 309.1700134277344 10.48999977111816
96.25 308.8399963378906 10.6899995803833
88.65000152587891 310.7099914550781 12.64999961853027
87.87999725341797 310.8900146484375 12.51000022888184
85.66000366210938 311.4700012207031 12.15999984741211
96.31999969482422 308.8299865722656 7.989999771118164
90.94000244140625 310.1099853515625 13
96.26000213623047 308.8399963378906 9.350000381469727
93.88999938964844 310.0599975585938 9.909999847412109
96.20999908447266 309.4500122070312 10.28999996185303
93.15000152587891 310.239990234375 9.810000419616699
94.63999938964844 309.8299865722656 10.0600004196167
95.37000274658203 309.6799926757812 10.1899995803833
96.29000091552734 309.4800109863281 7.579999923706055
87.87999725341797 311.510009765625 12.10999965667725
87.19999694824219 311.7099914550781 12.07999992370605
91.01000213623047 310.75 12.63000011444092
90.23000335693359 310.9200134277344 12.47000026702881
92.37999725341797 310.4100036621094 12.55000019073486
88.66999816894531 311.3299865722656 12.28999996185303
92.51000213623047 310.3699951171875 9.979999542236328
92.86000061035156 310.2900085449219 12.27000045776367
91.75 310.5400085449219 12.72000026702881
89.48000335693359 311.1099853515625 12.38000011444092
93.02999877929688 310.9500122070312 12.06999969482422
93.22000122070312 310.9700012207031 9.420000076293945
95.47000122070312 310.3800048828125 9.720000267028809
96.31999969482422 310.1499938964844 8.680000305175781
96.18000030517578 310.2000122070312 9.850000381469727
91.69000244140625 311.3099975585938 12.30000019073486
90.16999816894531 311.6600036621094 12.06999969482422
94.76000213623047 310.5400085449219 9.659999847412109
92.51000213623047 311.1000061035156 12.35000038146973
96.30000305175781 310.2000122070312 7.099999904632568
94.01999664306641 310.7699890136719 9.550000190734863
93.26999664306641 311.739990234375 7.78000020980835
94.68000030517578 311.3500061035156 7.710000038146973
96.27999877929688 310.9700012207031 9.390000343322754
93.98000335693359 311.5599975585938 7.75
94.30999755859375 312.1400146484375 7.739999771118164
94.90000152587891 312 7.630000114440918
92.90000152587891 312.510009765625 7.75
93.58999633789062 312.3299865722656 7.75
92.94000244140625 313.0499877929688 7.739999771118164
93.62999725341797 312.8699951171875 7.769999980926514
94.97000122070312 312.5799865722656 7.5
94.38999938964844 312.6799926757812 7.789999961853027
94.48999786376953 313.3299865722656 7.710000038146973
94.98999786376953 313.2099914550781 7.360000133514404
93.63999938964844 313.5599975585938 7.349999904632568
81.69999694824219 311.1199951171875 9.340000152587891
80.97000122070312 310.9299926757812 9.539999961853027
84.04000091552734 311.6700134277344 12.02999973297119
80.83000183105469 310.2000122070312 9.340000152587891
83.94000244140625 310.9800109863281 9.369999885559082
82.56999969482422 310.6300048828125 9.630000114440918
81.94999694824219 310.510009765625 9.760000228881836
83.29000091552734 310.8399963378906 9.460000038146973
83.70999908447266 310.8800048828125 12.05000019073486
86.87000274658203 311.6600036621094 12.09000015258789
81.30000305175781 310.3200073242188 9.680000305175781
86.26000213623047 311.5199890136719 12.09000015258789
93.65000152587891 313.4100036621094 7.690000057220459
92.95999908447266 313.239990234375 7.78000020980835
84.16000366210938 311.0199890136719 12.32999992370605
84.83999633789062 311.1499938964844 12.39999961853027
85.55000305175781 311.3399963378906 12.19999980926514
81.58999633789062 309.5899963378906 9.880000114440918
82.84999847412109 309.8999938964844 10.05000019073486
81.02999877929688 309.4299926757812 9.590000152587891
83.52999877929688 310.0700073242188 9.979999542236328
87.19000244140625 310.9100036621094 12.47999954223633
82.22000122070312 309.7099914550781 10.11999988555908
89.20999908447266 311.4400024414062 12.17000007629395
85.79000091552734 310.5899963378906 12.68000030517578
84.25 310.239990234375 9.890000343322754
90.59999847412109 311.7799987792969 11.98999977111816
85.18000030517578 310.4400024414062 12.80000019073486
89.86000061035156 311.6000061035156 12.09000015258789
94.72000122070312 312.8599853515625 7.840000152587891
84.58000183105469 310.2699890136719 12.60999965667725
88.55000305175781 311.25 12.27000045776367
86.45999908447266 310.7300109863281 12.5600004196167
87.84999847412109 311.0700073242188 12.36999988555908
93.40000152587891 312.5499877929688 7.78000020980835
84.08999633789062 310.1300048828125 12.35999965667725
94.09999847412109 312.7099914550781 7.789999961853027
92.79000091552734 312.3800048828125 7.71999979019165
85.27999877929688 309.7300109863281 13.03999996185303
86.63999938964844 310.0299987792969 12.96000003814697
90.06999969482422 310.8800048828125 12.44999980926514
84.73000335693359 309.5700073242188 12.68000030517578
92.75 311.5499877929688 12.09000015258789
88.05000305175781 310.4100036621094 12.8100004196167
89.41000366210938 310.7200012207031 12.57999992370605
88.73999786376953 310.5700073242188 12.65999984741211
94.31999969482422 312.010009765625 7.690000057220459
92.09999847412109 311.3800048828125 12.21000003814697
87.27999877929688 310.2300109863281 12.93000030517578
90.73999786376953 311.0700073242188 12.38000011444092
91.37000274658203 311.2000122070312 12.32999992370605
85.91999816894531 309.8399963378906 13.10999965667725
81.81999969482422 308.8800048828125 10.01000022888184
81.31999969482422 308.760009765625 9.729999542236328
82.98000335693359 309.1600036621094 10.44999980926514
80.81999969482422 308.6300048828125 9.380000114440918
83.69999694824219 309.3099975585938 12.06999969482422
83.68000030517578 309.3599853515625 10.36999988555908
84.25 309.4599914550781 12.39999961853027
82.38999938964844 309.010009765625 10.3100004196167
81.59999847412109 308.2000122070312 9.869999885559082
81.01999664306641 308.0499877929688 9.550000190734863
84.04000091552734 308.760009765625 12.26000022888184
84.55999755859375 308.8800048828125 12.61999988555908
82.16000366210938 308.2799987792969 10.22000026702881
82.69000244140625 308.4200134277344 10.52999973297119
85.09999847412109 309.010009765625 12.94999980926514
86.86000061035156 309.4400024414062 13.31999969482422
87.51000213623047 309.5700073242188 13.30000019073486
83.94999694824219 308.7200012207031 10.72000026702881
89.56999969482422 310.0899963378906 12.93000030517578
92.38999938964844 310.7900085449219 12.4399995803833
90.26999664306641 310.2900085449219 12.88000011444092
88.23999786376953 309.7699890136719 13.15999984741211
86.11000061035156 309.25 13.4399995803833
85.61000061035156 309.1099853515625 13.1899995803833
83.23000335693359 308.5899963378906 10.78999996185303
88.84999847412109 309.8999938964844 13.09000015258789
91.62999725341797 310.5899963378906 12.64999961853027
90.94000244140625 310.4599914550781 12.78999996185303
94.72000122070312 311.4299926757812 7.829999923706055
81.33999633789062 307.4299926757812 9.75
80.84999847412109 307.3099975585938 9.470000267028809
84.23999786376953 308.1099853515625 12.42000007629395
83.43000030517578 307.9299926757812 11.03999996185303
81.87999725341797 307.6000061035156 10.02999973297119
82.37000274658203 307.6799926757812 10.35999965667725
84.79000091552734 308.239990234375 12.72000026702881
88.51000213623047 309.1799926757812 13.55000019073486
82.94999694824219 307.8399963378906 10.67000007629395
83.76999664306641 308.0199890136719 12.10999965667725
85.33999633789062 308.3900146484375 13.03999996185303
91.98000335693359 310.0499877929688 12.67000007629395
87.75 308.9700012207031 13.63000011444092
87.08000183105469 308.7900085449219 13.72999954223633
94.41000366210938 310.6799926757812 9.510000228881836
90.45999908447266 309.6300048828125 13.19999980926514
91.15000152587891 309.7999877929688 13.13000011444092
92.79000091552734 310.25 12.10999965667725
85.90000152587891 308.510009765625 13.36999988555908
95.08999633789062 310.8500061035156 9.409999847412109
95.68000030517578 310.9800109863281 9.399999618530273
89.80999755859375 309.4800109863281 13.3100004196167
89.11000061035156 309.3399963378906 13.4399995803833
86.37999725341797 308.6199951171875 13.69999980926514
81.65000152587891 306.7300109863281 9.930000305175781
83.30000305175781 307.1199951171875 10.89000034332275
81.13999938964844 306.6199951171875 9.550000190734863
84.18000030517578 307.3399963378906 12.30000019073486
82.23000335693359 306.8900146484375 10.25
83.87000274658203 307.25 11.18000030517578
85.15000152587891 307.5799865722656 12.94999980926514
83.52999877929688 307.1600036621094 12.06999969482422
87.26999664306641 308.0899963378906 14.10999965667725
86.75 307.9400024414062 13.85999965667725
90.01000213623047 308.75 13.76000022888184
89.29000091552734 308.5899963378906 13.86999988555908
84.66000366210938 307.4500122070312 12.64999961853027
85.66000366210938 307.7099914550781 13.25
82.73999786376953 306.989990234375 10.57999992370605
94.69000244140625 309.989990234375 9.949999809265137
88.68000030517578 308.4100036621094 13.92000007629395
91.62999725341797 309.1799926757812 12.85999965667725
94.01999664306641 309.7999877929688 10.0600004196167
90.83000183105469 308.9500122070312 13.30000019073486
87.97000122070312 308.2300109863281 14.0600004196167
95.38999938964844 310.1300048828125 9.829999923706055
96.01999664306641 310.3200073242188 9.770000457763672
92.48999786376953 309.3699951171875 12.36999988555908
86.19999694824219 307.7900085449219 13.57999992370605
81.43000030517578 305.9599914550781 9.760000228881836
80.88999938964844 305.8399963378906 9.470000267028809
82.44000244140625 306.2300109863281 10.39000034332275
83.73999786376953 306.5299987792969 12.14999961853027
84.80000305175781 306.7799987792969 12.75
85.40000152587891 306.8900146484375 13.10999965667725
86.44999694824219 307.1799926757812 13.69999980926514
83 306.3399963378906 10.67000007629395
85.91000366210938 307.0499877929688 13.35999965667725
87.55000305175781 307.4400024414062 14.35999965667725
83.51000213623047 306.4599914550781 11.01000022888184
89.59999847412109 307.9599914550781 14.01000022888184
92.05000305175781 308.5799865722656 12.57999992370605
93.37000274658203 308.9400024414062 10.60999965667725
87.01999664306641 307.2799987792969 14.05000019073486
95.48000335693359 309.4200134277344 10.27000045776367
96.16999816894531 309.5899963378906 10.18000030517578
92.83000183105469 308.75 12.11999988555908
88.18000030517578 307.5700073242188 14.44999980926514
94.76000213623047 309.2900085449219 10.34000015258789
91.16999816894531 308.3500061035156 13.0600004196167
90.41000366210938 308.1300048828125 13.53999996185303
84.33000183105469 306.6600036621094 12.47999954223633
88.91999816894531 307.7799987792969 14.34000015258789
81.91000366210938 306.0799865722656 10.05000019073486
94.12000274658203 309.1199951171875 10.4399995803833
80.66999816894531 305.1300048828125 9.300000190734863
82.80999755859375 305.6400146484375 10.56999969482422
81.72000122070312 305.3900146484375 10.02000045776367
84.70999908447266 306.0899963378906 12.73999977111816
81.12999725341797 305.260009765625 9.630000114440918
85.72000122070312 306.3299865722656 13.23999977111816
87.31999969482422 306.6799926757812 14.23999977111816
84.13999938964844 305.9299926757812 12.43000030517578
82.27999877929688 305.510009765625 10.23999977111816
90.93000030517578 307.5899963378906 13.26000022888184
92.58999633789062 308.0199890136719 12.28999996185303
91.73000335693359 307.8099975585938 12.75
94.48000335693359 308.5199890136719 10.8100004196167
83.90000152587891 305.8800048828125 11.23999977111816
95.76999664306641 308.8200073242188 10.67000007629395
95.11000061035156 308.6799926757812 10.72000026702881
96.41999816894531 308.9800109863281 10.56999969482422
93.73999786376953 308.3200073242188 10.92000007629395
86.79000091552734 306.5899963378906 13.88000011444092
85.22000122070312 306.2099914550781 13
83.63999938964844 305.8299865722656 12.02000045776367
87.87999725341797 306.8099975585938 14.57999992370605
86.18000030517578 306.4500122070312 13.60000038146973
83.33000183105469 305.75 10.89999961853027
90.04000091552734 307.3900146484375 13.77000045776367
88.41000366210938 306.9500122070312 14.71000003814697
89.23999786376953 307.1600036621094 14.22000026702881
82.54000091552734 304.8399963378906 10.42000007629395
83.62999725341797 305.1199951171875 11.10000038146973
82.02999877929688 304.7200012207031 10.11999988555908
81.5 304.6300048828125 9.859999656677246
83.13999938964844 305 10.76000022888184
84.41000366210938 305.2699890136719 12.47999954223633
84.91999816894531 305.4100036621094 12.92000007629395
83.90000152587891 305.1400146484375 12.22999954223633
86.01000213623047 305.6799926757812 13.46000003814697
87.04000091552734 305.9299926757812 14.28999996185303
90.55000305175781 306.7999877929688 13.47999954223633
91.31999969482422 307.010009765625 13.02000045776367
87.66999816894531 306.0599975585938 14.42000007629395
93.19999694824219 307.489990234375 11.5
87.33999633789062 306 13.51000022888184
94.56999969482422 307.8399963378906 11.25
88.23999786376953 306.1900024414062 14.69999980926514
92.19999694824219 307.2200012207031 12.46000003814697
95.26000213623047 307.989990234375 11.11999988555908
85.47000122070312 305.5499877929688 13.28999996185303
93.93000030517578 307.6400146484375 11.32999992370605
92.97000122070312 307.3900146484375 12.17000007629395
80.97000122070312 304.489990234375 9.539999961853027
89.01000213623047 306.3999938964844 14.30000019073486
86.54000091552734 305.7900085449219 13.73999977111816
96.06999969482422 308.1799926757812 10.78999996185303
89.79000091552734 306.5700073242188 13.9399995803833
89.33999633789062 305.7000122070312 14.1899995803833
93.52999877929688 306.7699890136719 11.84000015258789
95.01000213623047 307.1600036621094 11.40999984741211
90.20999908447266 305.9299926757812 13.6899995803833
96.51000213623047 307.5400085449219 10.71000003814697
95.75 307.3299865722656 10.98999977111816
94.26000213623047 306.9800109863281 11.76000022888184
91.04000091552734 306.1799926757812 13.18000030517578
91.86000061035156 306.3599853515625 12.71000003814697
92.70999908447266 306.5700073242188 12.22000026702881
80.76000213623047 303.6700134277344 9.340000152587891
81.26999664306641 303.7900085449219 9.680000305175781
82.37999725341797 304.0400085449219 10.32999992370605
84.27999877929688 304.4800109863281 12.43000030517578
83.45999908447266 304.2900085449219 10.97000026702881
81.52999877929688 303.8800048828125 7.059999942779541
81.76000213623047 303.9299926757812 10.03999996185303
82.87000274658203 304.1900024414062 10.60999965667725
83.73000335693359 304.3699951171875 12.02999973297119
84.79000091552734 304.6000061035156 12.72000026702881
85.31999969482422 304.7200012207031 13.03999996185303
85.79000091552734 304.8500061035156 13.3100004196167
88.56999969482422 305.510009765625 14.67000007629395
86.33000183105469 305.010009765625 13.64000034332275
87.41999816894531 305.239990234375 14.1899995803833
87.29000091552734 305.239990234375 12.85999965667725
87.93000030517578 305.3599853515625 14.64000034332275
86.83000183105469 305.1199951171875 14.0600004196167
81.51000213623047 303.2200012207031 9.850000381469727
82.05999755859375 303.3500061035156 10.18000030517578
82.56999969482422 303.4700012207031 10.44999980926514
80.97000122070312 303.0899963378906 9.550000190734863
83.12000274658203 303.6000061035156 10.8100004196167
84.93000030517578 304 12.81999969482422
83.87999725341797 303.7699890136719 12.21000003814697
84.40000152587891 303.8699951171875 12.52999973297119
85.44999694824219 304.1499938964844 13.10999965667725
86.02999877929688 304.25 13.51000022888184
83.58999633789062 303.7000122070312 11.03999996185303
88.26999664306641 304.8099975585938 14.69999980926514
87.12000274658203 304.5199890136719 14.10000038146973
94.45999908447266 306.3800048828125 11.69999980926514
92.90000152587891 305.9700012207031 12.31999969482422
87.66999816894531 304.6700134277344 14.39999961853027
95.19000244140625 306.5499877929688 11.30000019073486
91.33000183105469 305.6099853515625 13.02000045776367
90.51000213623047 305.3900146484375 13.5
86.56999969482422 304.4200134277344 13.78999996185303
89.77999877929688 305.1799926757812 13.89999961853027
81.37999725341797 303.1900024414062 6.699999809265137
93.61000061035156 306.1499938964844 12.14000034332275
92.19999694824219 305.7999877929688 12.47000026702881
88.95999908447266 305 14.35000038146973
96.08000183105469 306.7900085449219 10.77999973297119
80.83999633789062 302.4800109863281 7.179999828338623
81.5 302.6199951171875 7.159999847412109
82.87000274658203 302.9100036621094 10.64000034332275
80.72000122070312 302.4200134277344 9.369999885559082
81.76999664306641 302.6499938964844 10.01000022888184
81.19999694824219 302.510009765625 9.680000305175781
82.34999847412109 302.8200073242188 10.31999969482422
85.76999664306641 303.5899963378906 13.35999965667725
86.90000152587891 303.8999938964844 13.9399995803833
84.22000122070312 303.2300109863281 12.42000007629395
87.37000274658203 303.9700012207031 14.23999977111816
86.30000305175781 303.7200012207031 13.60000038146973
83.41000366210938 303.0400085449219 10.96000003814697
89.30000305175781 304.4500122070312 14.25
83.73000335693359 303.1300048828125 11.97999954223633
90.16999816894531 304.6799926757812 13.68000030517578
92.68000030517578 305.3200073242188 12.22999954223633
84.76000213623047 303.3599853515625 12.69999980926514
88.01000213623047 304.1700134277344 14.4399995803833
85.25 303.4700012207031 13.02999973297119
90.95999908447266 304.8699951171875 13.4399995803833
94.95999908447266 305.8900146484375 11.40999984741211
91.80000305175781 305.1099853515625 12.76000022888184
95.70999908447266 306.0899963378906 11
96.44999694824219 306.3099975585938 10.67000007629395
94.09999847412109 305.7000122070312 11.94999980926514
88.56999969482422 304.2799987792969 14.46000003814697
93.33000183105469 305.510009765625 12.19999980926514
82.63999938964844 302.1900024414062 10.53999996185303
82.13999938964844 302.0599975585938 10.19999980926514
81.48000335693359 301.9500122070312 6.869999885559082
81.06999969482422 301.8200073242188 9.619999885559082
86.09999847412109 303 13.55000019073486
85.56999969482422 302.8800048828125 13.25
85.05000305175781 302.75 12.89999961853027
84.54000091552734 302.6199951171875 12.56999969482422
83.19999694824219 302.2999877929688 10.82999992370605
83.98000335693359 302.4700012207031 12.28999996185303
81.62000274658203 301.9100036621094 9.909999847412109
91.51000213623047 304.3099975585938 12.9399995803833
89.95999908447266 303.9400024414062 13.77999973297119
90.70999908447266 304.1199951171875 13.39999961853027
93.91000366210938 304.9100036621094 11.84000015258789
83.72000122070312 302.4400024414062 11.14999961853027
93.19999694824219 304.739990234375 11.82999992370605
88.61000061035156 303.6099853515625 14.0600004196167
86.69000244140625 303.1400146484375 13.72000026702881
87.97000122070312 303.4700012207031 13.92000007629395
96.20999908447266 305.489990234375 10.77000045776367
87.33999633789062 303.2799987792969 13.81999969482422
80.56999969482422 301.6700134277344 9.340000152587891
94.58000183105469 305.1099853515625 11.64999961853027
92.38999938964844 304.5400085449219 12.40999984741211
95.37999725341797 305.2999877929688 11.15999984741211
89.23000335693359 303.7300109863281 14.10000038146973
80.94999694824219 300.9400024414062 9.470000267028809
81.41000366210938 301.0599975585938 9.819999694824219
85 301.8800048828125 12.81999969482422
83.66000366210938 301.5899963378906 11.05000019073486
86.12000274658203 302.1499938964844 13.15999984741211
84.44999694824219 301.7799987792969 12.5600004196167
82.55000305175781 301.3099975585938 10.51000022888184
87.90000152587891 302.6199951171875 13.46000003814697
89.16999816894531 302.8999938964844 13.63000011444092
89.75 303.0400085449219 13.73999977111816
90.48999786376953 303.25 13.5
91.34999847412109 303.4700012207031 13
94.55999755859375 304.2799987792969 11.47999954223633
95.26999664306641 304.4599914550781 11.26000022888184
92.16000366210938 303.6600036621094 12.52999973297119
88.55999755859375 302.75 13.5600004196167
96.23000335693359 304.6700134277344 12.05000019073486
83.09999847412109 301.4599914550781 10.75
93.01000213623047 303.8599853515625 12.0600004196167
87.33999633789062 302.4500122070312 13.39000034332275
86.73000335693359 302.3200073242188 13.27999973297119
85.5 302 13.10999965667725
83.87999725341797 301.6499938964844 12.25
81.23000335693359 301.0199890136719 6.960000038146973
93.91000366210938 304.1199951171875 11.39999961853027
95.98000335693359 304.6400146484375 11.02999973297119
96.81999969482422 304.8099975585938 12.17000007629395
82.01999664306641 301.2099914550781 10.15999984741211
80.80000305175781 300.1400146484375 9.390000343322754
83.38999938964844 300.7999877929688 10.96000003814697
82.36000061035156 300.5400085449219 10.31999969482422
82.83999633789062 300.6400146484375 10.60000038146973
84.19000244140625 300.9700012207031 12.39000034332275
87.86000061035156 301.8699951171875 12.98999977111816
89.73999786376953 302.3299865722656 13.35000038146973
85.33000183105469 301.260009765625 12.64999961853027
81.55999755859375 300.3999938964844 7.110000133514404
90.29000091552734 302.4599914550781 13.57999992370605
87.22000122070312 301.6900024414062 12.86999988555908
81.29000091552734 300.260009765625 9.729999542236328
92.70999908447266 303.0799865722656 12.17000007629395
81.76999664306641 300.3699951171875 10.05000019073486
94.37999725341797 303.4700012207031 11.02999973297119
89.16999816894531 302.1600036621094 13.18000030517578
95.04000091552734 303.6700134277344 11.14000034332275
83.65000152587891 300.8099975585938 12.01000022888184
91.83000183105469 302.8500061035156 12.68000030517578
96.61000061035156 304.0199890136719 12.06999969482422
93.76000213623047 303.3299865722656 10.93000030517578
85.98999786376953 301.3999938964844 12.72000026702881
84.76999664306641 301.0899963378906 12.52999973297119
86.66999816894531 301.5700073242188 12.81999969482422
91.01000213623047 302.6499938964844 13.14000034332275
88.47000122070312 302.0199890136719 13.07999992370605
95.65000152587891 303.7799987792969 11.03999996185303
96.05999755859375 303.8800048828125 11.80000019073486
84.19999694824219 300.2900085449219 12.02999973297119
83.83000183105469 300.25 11.25
86.55999755859375 300.8999938964844 12.43000030517578
85.41999816894531 300.6099853515625 12.26000022888184
84.80999755859375 300.4400024414062 12.22000026702881
87.80999755859375 301.2099914550781 12.60999965667725
88.98999786376953 301.5 12.93000030517578
90.79000091552734 301.9299926757812 13.31999969482422
90.08999633789062 301.75 13.44999980926514
94.41000366210938 302.8699951171875 10.65999984741211
95.70999908447266 303.1700134277344 10.77999973297119
96.5 303.3500061035156 12.05000019073486
87.22000122070312 301.0599975585938 12.53999996185303
92.48000335693359 302.3500061035156 12.34000015258789
96.09999847412109 303.2799987792969 11.27999973297119
86 300.7300109863281 12.42000007629395
93.75 302.7000122070312 10.53999996185303
89.55999755859375 301.6099853515625 13.14999961853027
95.02999877929688 303.010009765625 10.72999954223633
88.41000366210938 301.3299865722656 12.72999954223633
91.63999938964844 302.1199951171875 12.8100004196167
80.58000183105469 299.4700012207031 9.300000190734863
82.13999938964844 299.8399963378906 10.26000022888184
81.47000122070312 299.7000122070312 6.800000190734863
82.76999664306641 299.9800109863281 10.5600004196167
83.23999786376953 300.0700073242188 10.89999961853027
81.08000183105469 299.6000061035156 9.649999618530273
81.63999938964844 299.7200012207031 9.970000267028809
82.08999633789062 299.1499938964844 10.22000026702881
85.76000213623047 300.0199890136719 10.80000019073486
84.94999694824219 299.8299865722656 11.27000045776367
82.62000274658203 299.2699890136719 10.52999973297119
81.45999908447266 299 6.639999866485596
83.16999816894531 299.3599853515625 10.80000019073486
84.20999908447266 299.6099853515625 11.46000003814697
81.61000061035156 299.010009765625 9.930000305175781
87.30000305175781 300.4200134277344 10.18000030517578
90.02999877929688 301.0199890136719 13.47999954223633
92.33000183105469 301.6300048828125 12.44999980926514
81.05999755859375 298.8699951171875 9.590000152587891
87.81999969482422 300.5 12.23999977111816
88.91999816894531 300.7900085449219 12.85999965667725
86.56999969482422 300.2200012207031 12.06999969482422
86.58000183105469 300.2300109863281 10.28999996185303
96.20999908447266 302.6099853515625 10.47999954223633
88.41999816894531 300.6400146484375 12.52000045776367
95.62999725341797 302.4700012207031 10.39999961853027
93.80000305175781 302.0299987792969 10.18000030517578
91.51999664306641 301.4200134277344 12.88000011444092
87.25 300.3900146484375 12.10999965667725
89.55000305175781 300.8999938964844 13.18000030517578
93.05999755859375 301.7799987792969 12.14999961853027
90.69999694824219 301.1900024414062 13.39000034332275
95.01000213623047 302.2999877929688 10.32999992370605
83.72000122070312 299.5 11.14000034332275
94.40000152587891 302.1499938964844 10.1899995803833
88 299.7999877929688 9.789999961853027
89.93000030517578 300.2300109863281 13.39999961853027
88.61000061035156 299.9100036621094 9.939999580383301
92.26999664306641 300.7799987792969 12.52000045776367
92.98999786376953 301.010009765625 12.13000011444092
89.44000244140625 300.0799865722656 13.13000011444092
90.51999664306641 300.3699951171875 13.47000026702881
95.81999969482422 301.7000122070312 10
93.90000152587891 301.2200012207031 9.710000038146973
87.34999847412109 299.6099853515625 9.899999618530273
96.36000061035156 301.8599853515625 10.14000034332275
89.26000213623047 300.1000061035156 9.979999542236328
88.87000274658203 299.9500122070312 12.76000022888184
95.15000152587891 301.5700073242188 9.899999618530273
94.51999664306641 301.3800048828125 9.779999732971191
89.65000152587891 300.1799926757812 10.5600004196167
91.43000030517578 300.6099853515625 12.97000026702881
88.31999969482422 299.8399963378906 12.5
82.59999847412109 298.4599914550781 10.51000022888184
81.98999786376953 298.3200073242188 10.14000034332275
85.75 299.2099914550781 10.82999992370605
84.91999816894531 299.0199890136719 11.28999996185303
86.54000091552734 299.4299926757812 10.35000038146973
83.12000274658203 298.5499877929688 10.8100004196167
83.65000152587891 298.6900024414062 11.09000015258789
84.22000122070312 298.8099975585938 11.4399995803833
88.69000244140625 299.239990234375 9.449999809265137
84.69000244140625 298.2300109863281 11.46000003814697
85.52999877929688 298.3999938964844 10.94999980926514
86.37000274658203 298.6099853515625 10.42000007629395
92.41000366210938 300.1099853515625 9.909999847412109
91.16999816894531 299.8399963378906 9.810000419616699
89.91000366210938 299.5299987792969 9.649999618530273
92.86000061035156 300.2300109863281 12.06999969482422
91.79000091552734 299.9599914550781 9.909999847412109
95.13999938964844 300.7900085449219 9.390000343322754
91.34999847412109 299.8399963378906 12.85000038146973
88.01000213623047 299.0400085449219 9.479999542236328
92.94000244140625 300.239990234375 10.28999996185303
94.56999969482422 300.6600036621094 9.310000419616699
90.55000305175781 299.7000122070312 9.729999542236328
89.26999664306641 299.3399963378906 9.520000457763672
96.37999725341797 301.1000061035156 9.630000114440918
87.15000152587891 298.8399963378906 9.920000076293945
92.11000061035156 300.010009765625 12.52000045776367
95.81999969482422 300.9800109863281 9.520000457763672
87.88999938964844 298.3599853515625 9.529999732971191
91.23000335693359 299.1499938964844 9.409999847412109
91.80000305175781 299.2999877929688 9.489999771118164
92.38999938964844 299.4299926757812 9.619999885559082
92.18000030517578 299.4100036621094 6.78000020980835
90.58000183105469 299.010009765625 9.270000457763672
93.01000213623047 299.6099853515625 9.770000457763672
83.94000244140625 311.5599975585938 12.11999988555908
81.87999725341797 311.0299987792969 9.359999656677246
85.05999755859375 311.8500061035156 12.05000019073486
82.40000152587891 311.1499938964844 9.329999923706055
81.29000091552734 310.8599853515625 9.5
84.47000122070312 311.739990234375 12.06999969482422
94.26999664306641 313.4599914550781 7.670000076293945
93.62999725341797 313.2999877929688 7.809999942779541
93.08000183105469 313.1600036621094 7.789999961853027
84.18000030517578 311.010009765625 12.3100004196167
83.23000335693359 310.739990234375 9.569999694824219
85.94999694824219 311.4700012207031 12.17000007629395
82.04000091552734 310.4599914550781 9.699999809265137
85.34999847412109 311.2999877929688 12.3100004196167
84.76999664306641 311.1700134277344 12.39999961853027
80.94000244140625 310.1600036621094 9.399999618530273
83.68000030517578 310.9100036621094 12.06999969482422
83.84999847412109 310.8800048828125 9.470000267028809
82.65000152587891 310.6000061035156 9.689999580383301
81.51000213623047 310.3299865722656 9.739999771118164
87.06999969482422 311.7699890136719 12.09000015258789
86.44000244140625 311.6000061035156 12.05000019073486
92.87000274658203 312.3999938964844 7.75
93.44999694824219 312.5599975585938 7.739999771118164
94.51999664306641 312.8200073242188 7.769999980926514
89.12999725341797 311.5299987792969 12.13000011444092
89.75 311.7000122070312 12.03999996185303
87.38999938964844 311.1199951171875 12.39999961853027
86.77999877929688 310.9500122070312 12.47999954223633
85.65000152587891 310.6900024414062 12.65999984741211
88.51000213623047 311.3800048828125 12.23999977111816
85.05999755859375 310.5299987792969 12.69999980926514
83.58000183105469 310.1199951171875 9.930000305175781
83.01000213623047 309.9800109863281 10.02999973297119
81.37999725341797 309.5899963378906 9.710000038146973
86.15000152587891 310.8200073242188 12.60999965667725
80.80000305175781 309.4400024414062 9.380000114440918
84.56999969482422 310.4200134277344 12.5
84 310.25 12.18000030517578
88 311.25 12.27000045776367
93.98000335693359 312.7200012207031 7.789999961853027
81.88999938964844 309.6799926757812 10
82.43000030517578 309.8299865722656 10.09000015258789
94.45999908447266 312.1499938964844 7.769999980926514
93.87999725341797 312.010009765625 7.75
91.79000091552734 311.5499877929688 12.14999961853027
90.08000183105469 311.1400146484375 12.42000007629395
90.58999633789062 311.25 12.31999969482422
92.73999786376953 311.7200012207031 7.639999866485596
91.19999694824219 311.4299926757812 12.21000003814697
87.79000091552734 310.5599975585938 12.72999954223633
93.29000091552734 311.8800048828125 7.75
92.40000152587891 311.7000122070312 12.07999992370605
88.93000030517578 310.8800048828125 12.59000015258789
89.51000213623047 311 12.47000026702881
88.37999725341797 310.6900024414062 12.6899995803833
85.51999664306641 310.0299987792969 13.09000015258789
84.93000030517578 309.8800048828125 12.81999969482422
86.08000183105469 310.1400146484375 12.96000003814697
83.83000183105469 309.5899963378906 12.07999992370605
84.37999725341797 309.739990234375 12.44999980926514
83.41000366210938 309.4299926757812 10.32999992370605
82.25 309.1600036621094 10.18000030517578
87.25 310.4500122070312 12.82999992370605
82.80999755859375 309.2999877929688 10.39999961853027
81.66999816894531 309 9.899999618530273
81.15000152587891 308.8900146484375 9.579999923706055
86.63999938964844 310.2699890136719 12.90999984741211
92.16000366210938 311.1000061035156 12.48999977111816
93.62999725341797 311.3699951171875 7.690000057220459
94.19000244140625 311.5199890136719 7.739999771118164
91.62000274658203 310.9700012207031 12.5600004196167
90.98999786376953 310.7799987792969 12.63000011444092
94.77999877929688 311.6799926757812 7.739999771118164
90.41999816894531 310.6700134277344 12.71000003814697
82.08999633789062 308.5499877929688 10.0600004196167
83.75 308.9800109863281 10.6899995803833
83.62000274658203 308.9700012207031 12.0600004196167
81.55000305175781 308.3900146484375 9.819999694824219
82.61000061035156 308.6600036621094 10.42000007629395
81 308.2699890136719 9.409999847412109
83.16999816894531 308.8099975585938 10.69999980926514
84.18000030517578 309.1099853515625 12.32999992370605
92.77999877929688 311.25 12.23999977111816
89.31999969482422 310.3900146484375 12.85000038146973
88.68000030517578 310.2099914550781 12.98999977111816
86.33999633789062 309.6400146484375 13.27000045776367
85.77999877929688 309.489990234375 13.25
85.26000213623047 309.3699951171875 12.93000030517578
87.51000213623047 309.9500122070312 13.11999988555908
84.75 309.2300109863281 12.60999965667725
86.94999694824219 309.7799987792969 13.22000026702881
92.5 310.5599975585938 12.5
94.48000335693359 311.0199890136719 9.359999656677246
93.05999755859375 310.739990234375 12.10000038146973
89.88999938964844 310.510009765625 12.77999973297119
91.25 310.25 12.94999980926514
93.87999725341797 310.8900146484375 9.420000076293945
90.66000366210938 310.1400146484375 12.97000026702881
94.98999786376953 311.1700134277344 9.359999656677246
89.56999969482422 309.8500061035156 13.14999961853027
88.16000366210938 310.1000061035156 13.02000045776367
90.12999725341797 309.9800109863281 13.0600004196167
88.48000335693359 309.5700073242188 13.31999969482422
88.98000335693359 309.7300109863281 13.23999977111816
91.90000152587891 310.4100036621094 12.84000015258789
93.26000213623047 310.7099914550781 9.600000381469727
87.84999847412109 309.4100036621094 13.42000007629395
86.66999816894531 309.1600036621094 13.59000015258789
85.66000366210938 308.8900146484375 13.14999961853027
84.51000213623047 308.5899963378906 12.5
87.33000183105469 309.2900085449219 13.44999980926514
82.90000152587891 308.1700134277344 10.55000019073486
81.26000213623047 307.7300109863281 9.659999847412109
83.48000335693359 308.2900085449219 10.89000034332275
81.81999969482422 307.8699951171875 9.960000038146973
80.77999877929688 307.6300048828125 9.439999580383301
86.15000152587891 309.0299987792969 13.52000045776367
82.30000305175781 308.0199890136719 10.23999977111816
84 308.4599914550781 12.1899995803833
85.08000183105469 308.7099914550781 12.82999992370605
96.48000335693359 310.8699951171875 9.420000076293945
93.58999633789062 310.1600036621094 9.869999885559082
94.13999938964844 310.260009765625 9.819999694824219
95.87000274658203 310.6900024414062 9.579999923706055
92.84999847412109 310.010009765625 12.17000007629395
90.47000122070312 309.4299926757812 13.36999988555908
89.94000244140625 309.2799987792969 13.47999954223633
91.68000030517578 309.7000122070312 12.89000034332275
88.19000244140625 308.8299865722656 13.76000022888184
95.26999664306641 310.5799865722656 9.699999809265137
92.25 309.8299865722656 12.60000038146973
91.05999755859375 309.5400085449219 13.27999973297119
94.69999694824219 310.4100036621094 9.779999732971191
89.36000061035156 309.1499938964844 13.56999969482422
88.73999786376953 309 13.64999961853027
87.58999633789062 308.7000122070312 13.8100004196167
86.97000122070312 308.5599975585938 13.90999984741211
83.27999877929688 307.6000061035156 10.80000019073486
86.41000366210938 308.4200134277344 13.61999988555908
83.75 307.7099914550781 12.01000022888184
82.73000335693359 307.4500122070312 10.47000026702881
84.31999969482422 307.8599853515625 12.35999965667725
81.08000183105469 307.0400085449219 9.539999961853027
84.83000183105469 307.9800109863281 12.71000003814697
85.37000274658203 308.1300048828125 13.02000045776367
85.91000366210938 308.2799987792969 13.30000019073486
82.18000030517578 307.3200073242188 10.18000030517578
90.23000335693359 308.75 13.77999973297119
81.62999725341797 307.1900024414062 9.869999885559082
89.12000274658203 308.489990234375 13.94999980926514
84.68000030517578 307.3500061035156 12.61999988555908
86.30000305175781 307.7799987792969 13.56999969482422
88.54000091552734 308.3699951171875 14
87.40000152587891 308.0499877929688 14.19999980926514
84.12999725341797 307.2099914550781 12.3100004196167
85.20999908447266 307.5 12.90999984741211
85.81999969482422 307.6700134277344 13.23999977111816
86.83000183105469 307.9500122070312 13.89000034332275
87.95999908447266 308.2300109863281 14.07999992370605
89.66000366210938 308.6099853515625 13.88000011444092
95.69000244140625 310.0899963378906 9.939999580383301
94.55000305175781 309.8200073242188 10.07999992370605
90.80999755859375 308.9299926757812 13.44999980926514
93.33999633789062 309.5299987792969 10.3100004196167
95.15000152587891 309.9299926757812 10.05000019073486
96.29000091552734 310.2099914550781 9.869999885559082
92.65000152587891 309.3699951171875 12.34000015258789
83.05999755859375 306.9299926757812 10.64999961853027
93.97000122070312 309.6499938964844 10.17000007629395
82.51000213623047 306.7900085449219 10.32999992370605
83.65000152587891 307.1000061035156 11.01000022888184
81.44999694824219 306.510009765625 9.720000267028809
80.88999938964844 306.3699951171875 9.380000114440918
81.93000030517578 306.6600036621094 10.03999996185303
93.23999786376953 309.510009765625 12.09000015258789
92.01999664306641 309.1900024414062 12.72000026702881
91.41999816894531 309.0499877929688 13.09000015258789
95.91000366210938 309.5700073242188 10.27000045776367
94.76999664306641 309.2900085449219 10.39999961853027
92.37999725341797 308.75 12.5600004196167
96.51999664306641 309.7200012207031 10.1899995803833
91.83000183105469 308.6099853515625 12.85000038146973
95.30000305175781 309.4500122070312 10.35999965667725
93 308.8699951171875 12.14000034332275
89.98999786376953 308.1700134277344 13.93000030517578
87.63999938964844 307.5899963378906 14.32999992370605
94.20999908447266 309.1400146484375 10.52000045776367
85.98999786376953 307.1400146484375 13.39000034332275
93.66000366210938 309.0299987792969 10.53999996185303
88.77999877929688 307.8500061035156 14.31999969482422
83.84999847412109 306.5899963378906 12.09000015258789
85.48999786376953 307.0299987792969 13.0600004196167
82.26000213623047 306.1900024414062 10.19999980926514
89.40000152587891 308.0400085449219 14.22000026702881
81.75 306.0599975585938 9.909999847412109
84.94999694824219 306.8699951171875 12.77999973297119
88.26000213623047 307.7200012207031 14.43000030517578
87.08999633789062 307.4500122070312 14.01000022888184
90.62000274658203 308.3200073242188 13.56999969482422
83.37999725341797 306.4500122070312 10.85999965667725
84.43000030517578 306.75 12.4399995803833
86.5 307.260009765625 13.6899995803833
82.86000061035156 306.3299865722656 10.52999973297119
81.16999816894531 305.9200134277344 9.630000114440918
91.15000152587891 308.4200134277344 13.18000030517578
