183.6699981689453 212.7100067138672 10.46000003814697
177.9700012207031 214.1399993896484 6.820000171661377
189.0099945068359 211.3099975585938 7.150000095367432
188.1499938964844 210.8099975585938 6.96999979019165
186.4100036621094 211.2799987792969 7.119999885559082
186.9799957275391 211.1300048828125 7.050000190734863
187.5700073242188 210.9600067138672 7.039999961853027
189.2200012207031 210.5700073242188 6.849999904632568
185.8699951171875 211.4199981689453 7.170000076293945
190.3200073242188 210.2599945068359 6.690000057220459
189.8200073242188 210.4199981689453 6.730000019073486
183.4100036621094 212.0899963378906 10.43000030517578
185.0299987792969 211.6399993896484 9.590000152587891
183.9299926757812 211.9499969482422 10.32999992370605
180.4100036621094 212.8000030517578 9.850000381469727
185.5899963378906 211.5099945068359 9.409999847412109
179.2100067138672 213.1399993896484 9.640000343322754
181 212.6900024414062 9.729999542236328
181.5 212.5299987792969 9.659999847412109
182.1000061035156 212.4100036621094 9.609999656677246
184.5 211.7700042724609 9.989999771118164
185.3000030517578 211.5599975585938 7.239999771118164
182.6999969482422 212.2299957275391 9.970000267028809
177.6600036621094 213.4900054931641 6.760000228881836
188.7200012207031 210.6799926757812 6.880000114440918
178.3200073242188 213.3000030517578 6.96999979019165
179.9100036621094 212.9400024414062 9.939999580383301
186.6000061035156 210.4799957275391 6.820000171661377
185.4799957275391 210.7400054931641 6.920000076293945
187.1999969482422 210.3200073242188 6.71999979019165
186.0599975585938 210.5899963378906 6.829999923706055
184.3899993896484 211.0099945068359 7.03000020980835
187.8500061035156 210.1600036621094 6.670000076293945
181.2799987792969 211.8300018310547 9.390000343322754
181.5299987792969 211.7299957275391 7.329999923706055
182.4600067138672 211.5700073242188 9.829999923706055
180.9799957275391 211.8699951171875 7.090000152587891
179.7299957275391 212.2299957275391 6.809999942779541
180.6699981689453 211.9900054931641 9.409999847412109
180.3200073242188 212.0299987792969 6.840000152587891
178.3600006103516 212.5599975585938 9.659999847412109
179.5399932861328 212.2700042724609 9.550000190734863
182.0800018310547 211.6000061035156 7.230000019073486
183.1100006103516 211.3800048828125 10.1899995803833
181.8600006103516 211.7100067138672 9.460000038146973
184.9299926757812 210.8999938964844 6.989999771118164
183.8200073242188 211.1499938964844 7.079999923706055
177.9799957275391 212.6300048828125 6.840000152587891
182.7100067138672 211.4700012207031 7.150000095367432
183.2299957275391 211.3300018310547 7.159999847412109
178.5700073242188 212.4900054931641 6.900000095367432
180.0899963378906 212.1399993896484 9.439999580383301
178.9499969482422 212.4600067138672 9.489999771118164
178.8500061035156 211.7299957275391 6.730000019073486
177.7100067138672 212.0200042724609 6.760000228881836
178.0800018310547 211.9499969482422 9.579999923706055
178.2599945068359 211.8999938964844 6.75
183.5200042724609 210.5800018310547 6.860000133514404
182.9199981689453 210.7299957275391 6.889999866485596
180.0099945068359 211.4400024414062 6.730000019073486
184.6600036621094 210.2599945068359 6.739999771118164
182.3500061035156 210.8800048828125 6.960000038146973
185.2100067138672 210.1399993896484 6.679999828338623
180.5899963378906 211.3000030517578 6.909999847412109
181.1900024414062 211.1799926757812 7.130000114440918
184.0200042724609 210.4199981689453 6.800000190734863
181.6900024414062 211.0099945068359 7.059999942779541
182.0800018310547 210.3399963378906 6.710000038146973
180.3699951171875 210.7700042724609 6.840000152587891
182.7100067138672 210.2200012207031 6.730000019073486
181.5700073242188 210.5 6.78000020980835
180.9600067138672 210.6399993896484 6.869999885559082
180.0800018310547 210.1699981689453 6.730000019073486
180.2799987792969 210.3500061035156 6.800000190734863
180.9100036621094 210.1900024414062 6.739999771118164
181.5700073242188 210.6000061035156 6.880000114440918
182.8200073242188 210.2899932861328 6.75
183.4600067138672 210.1199951171875 6.760000228881836
180.1600036621094 210.9199981689453 6.809999942779541
180.9400024414062 210.75 6.920000076293945
182.1799926757812 210.4400024414062 6.769999980926514
177.9199981689453 212.1600036621094 9.630000114440918
179.3899993896484 211.8300018310547 6.71999979019165
180.0599975585938 211.6699981689453 6.849999904632568
178.6499938964844 212.0099945068359 6.75
178.5 211.9900054931641 9.430000305175781
184.7799987792969 210.4600067138672 6.800000190734863
182.1600036621094 211.1000061035156 7.079999923706055
180.8300018310547 211.4700012207031 6.980000019073486
183.4900054931641 210.7599945068359 6.949999809265137
178.0500030517578 212.1399993896484 6.789999961853027
185.4400024414062 210.3000030517578 6.730000019073486
184.1300048828125 210.6399993896484 6.840000152587891
181.5200042724609 211.2899932861328 7.159999847412109
182.8099975585938 210.9400024414062 6.96999979019165
177.7700042724609 212.9600067138672 9.510000228881836
179.1799926757812 212.6300048828125 9.569999694824219
180.5299987792969 212.2899932861328 9.529999732971191
179.9199981689453 212.4499969482422 9.619999885559082
180.8300018310547 212.2599945068359 6.880000114440918
180.1399993896484 212.4199981689453 6.900000095367432
178.5800018310547 212.7599945068359 9.710000038146973
182.3399963378906 211.8800048828125 7.360000133514404
182.8200073242188 211.7200012207031 9.989999771118164
183.5599975585938 211.5399932861328 7.210000038146973
184.8999938964844 211.2299957275391 7.119999885559082
181.8899993896484 211.9600067138672 9.510000228881836
186.7599945068359 210.7700042724609 6.929999828338623
185.5399932861328 211.0399932861328 7.019999980926514
181.2299957275391 212.1000061035156 9.420000076293945
184.1399993896484 211.3800048828125 10.18000030517578
184.2799987792969 211.3999938964844 7.210000038146973
186.1799926757812 210.9100036621094 6.96999979019165
188.7100067138672 210.2700042724609 6.71999979019165
187.4400024414062 210.6000061035156 6.869999885559082
183.6499938964844 211.4799957275391 10.48999977111816
188.1199951171875 210.3999938964844 6.75
182.9600067138672 211.6799926757812 7.309999942779541
185.2100067138672 211.1300048828125 9.399999618530273
180.7299957275391 212.9700012207031 9.970000267028809
182.7400054931641 212.4600067138672 9.909999847412109
184.2400054931641 212.0599975585938 10.19999980926514
185.3099975585938 211.8000030517578 9.550000190734863
183.6799926757812 212.2200012207031 10.47000026702881
186.6399993896484 211.4499969482422 9.409999847412109
185.9499969482422 211.6399993896484 9.409999847412109
182 212.6300048828125 9.699999809265137
185.7700042724609 211.6999969482422 7.320000171661377
179.2400054931641 213.3600006103516 9.569999694824219
184.7599945068359 211.9299926757812 9.909999847412109
186.3899993896484 211.5500030517578 7.25
189.5299987792969 210.7599945068359 6.940000057220459
180.1100006103516 213.1100006103516 10.03999996185303
187.6600036621094 211.2599945068359 7.110000133514404
187 211.3899993896484 7.170000076293945
181.3800048828125 212.8000030517578 9.850000381469727
188.8999938964844 210.9199981689453 6.980000019073486
188.2700042724609 211.0899963378906 7.03000020980835
190.8399963378906 210.4799957275391 6.760000228881836
185.1199951171875 211.8899993896484 7.329999923706055
190.1999969482422 210.6199951171875 6.849999904632568
180.1300048828125 213.7299957275391 10.19999980926514
180.8699951171875 213.5399932861328 10.3100004196167
182.1499938964844 213.2299957275391 10.14000034332275
179.1699981689453 213.9499969482422 9.529999732971191
177.3600006103516 214.4499969482422 6.71999979019165
185.9900054931641 212.2400054931641 9.800000190734863
187.8600006103516 211.7700042724609 9.510000228881836
186.6100006103516 212.1000061035156 9.649999618530273
185.3500061035156 212.3999938964844 9.909999847412109
187.1999969482422 211.9499969482422 9.569999694824219
184.7200012207031 212.5899963378906 10
189.6499938964844 211.3600006103516 7.159999847412109
182.8200073242188 213.0700073242188 10.06999969482422
183.5899963378906 212.8600006103516 10.51000022888184
190.2700042724609 211.2299957275391 7.010000228881836
189.2200012207031 211.4400024414062 9.470000267028809
184.1699981689453 212.6999969482422 10.23999977111816
188.3300018310547 211.6799926757812 7.329999923706055
194.1100006103516 210.25 6.769999980926514
188.5299987792969 211.6000061035156 9.439999580383301
187.6900024414062 211.8800048828125 7.349999904632568
190.8200073242188 211.0700073242188 6.760000228881836
181.5500030517578 213.3699951171875 10.23999977111816
188.9700012207031 211.5200042724609 7.239999771118164
179.0599975585938 214.6699981689453 9.449999809265137
182.1699981689453 213.8699951171875 10.59000015258789
183.5599975585938 213.5200042724609 10.52999973297119
182.8300018310547 213.7200012207031 10.44999980926514
179.9299926757812 214.4499969482422 9.989999771118164
177.2200012207031 215.1799926757812 6.75
186.7400054931641 212.75 10.07999992370605
181.5899963378906 214.0500030517578 10.64999961853027
184.2100067138672 213.3600006103516 10.55000019073486
188.5599975585938 212.2700042724609 9.779999732971191
187.3500061035156 212.5800018310547 9.979999542236328
189.0299987792969 212.2200012207031 7.730000019073486
184.8699951171875 213.2299957275391 10.39000034332275
189.5599975585938 212.0500030517578 7.309999942779541
190.1300048828125 211.9400024414062 7.070000171661377
180.9100036621094 214.1799926757812 10.64999961853027
194.1300048828125 210.9199981689453 6.900000095367432
189.2400054931641 212.1399993896484 9.670000076293945
190.6799926757812 211.7799987792969 6.869999885559082
186.1699981689453 212.8800048828125 10.15999984741211
185.5 213.0500030517578 10.28999996185303
195.4700012207031 210.5800018310547 6.860000133514404
196.0899963378906 210.4299926757812 6.78000020980835
196.6999969482422 210.3099975585938 6.739999771118164
194.8500061035156 210.7700042724609 6.900000095367432
187.9299926757812 212.4600067138672 9.869999885559082
189.7700042724609 211.9799957275391 9.470000267028809
192.0099945068359 211.4400024414062 6.730000019073486
197.3300018310547 210.1499938964844 6.670000076293945
191.3300018310547 211.6499938964844 6.78000020980835
177.1799926757812 215.9199981689453 6.78000020980835
179.9400024414062 215.2100067138672 9.989999771118164
184.3099975585938 214.1100006103516 10.93000030517578
183.5399932861328 214.2599945068359 10.85999965667725
180.8699951171875 214.9600067138672 10.68000030517578
185.5800018310547 213.7599945068359 10.80000019073486
182.9299926757812 214.4299926757812 10.92000007629395
181.7200012207031 214.7400054931641 11.13000011444092
189.1799926757812 212.8899993896484 9.800000190734863
184.9199981689453 213.9499969482422 10.86999988555908
186.1900024414062 213.6100006103516 10.67000007629395
177.9499969482422 215.7200012207031 6.960000038146973
178.9900054931641 215.4199981689453 9.479999542236328
189.0399932861328 212.9600067138672 7.730000019073486
189.5500030517578 212.8300018310547 7.320000171661377
187.3999938964844 213.3300018310547 10.44999980926514
190.1600036621094 212.6600036621094 7.170000076293945
182.3399963378906 214.6000061035156 11.02000045776367
195.4199981689453 211.3600006103516 7.150000095367432
186.7599945068359 213.4600067138672 10.59000015258789
191.3800048828125 212.3399963378906 7.099999904632568
194.6499938964844 211.5399932861328 6.829999923706055
198.0299987792969 210.6900024414062 6.880000114440918
188.0700073242188 213.1399993896484 10.32999992370605
188.6300048828125 213 10.14999961853027
198.7100067138672 210.5200042724609 6.829999923706055
196.1000061035156 211.1900024414062 7.090000152587891
199.3300018310547 210.3600006103516 6.760000228881836
190.7899932861328 212.5 7.110000133514404
199.9900054931641 210.1999969482422 6.690000057220459
192.6399993896484 212.0599975585938 6.940000057220459
193.3099975585938 211.8999938964844 6.880000114440918
196.7200012207031 211 7.070000171661377
197.3800048828125 210.8399963378906 7
200.6199951171875 210.0399932861328 6.760000228881836
192.0500030517578 212.2100067138672 7
189.6999969482422 212.7599945068359 9.439999580383301
193.9299926757812 211.7299957275391 6.809999942779541
186.4499969482422 214.2599945068359 11.09000015258789
187.6000061035156 213.9600067138672 10.85999965667725
188.1499938964844 213.8399963378906 10.52000045776367
187.0500030517578 214.1000061035156 11.02000045776367
190.8699951171875 213.2100067138672 7.409999847412109
188.6699981689453 213.7299957275391 10.17000007629395
189.75 213.4600067138672 9.460000038146973
195.2100067138672 212.1100006103516 9.590000152587891
191.5500030517578 213.0200042724609 7.369999885559082
189.6199951171875 213.5399932861328 7.590000152587891
190.2200012207031 213.3600006103516 7.46999979019165
189.1900024414062 213.5899963378906 9.840000152587891
196.8200073242188 211.6999969482422 7.300000190734863
192.8300018310547 212.6900024414062 7.230000019073486
198.0899963378906 211.3699951171875 7.139999866485596
198.4499969482422 211.2899932861328 9.529999732971191
197.4799957275391 211.5399932861328 7.210000038146973
197.0500030517578 211.6199951171875 9.420000076293945
189.0700073242188 213.6300048828125 7.889999866485596
200.0299987792969 210.8899993896484 7.019999980926514
201.3600006103516 210.5599975585938 6.880000114440918
199.0099945068359 211.1300048828125 9.380000114440918
200.6699981689453 210.7299957275391 6.909999847412109
197.7100067138672 211.4600067138672 9.420000076293945
201.9700012207031 210.4100036621094 6.809999942779541
194.1199951171875 212.3999938964844 7.019999980926514
199.7400054931641 210.9299926757812 9.5
203.3200073242188 210.0899963378906 6.659999847412109
199.3899993896484 211.0599975585938 7.059999942779541
202.6199951171875 210.25 6.710000038146973
195.8099975585938 211.9299926757812 9.479999542236328
192.1399993896484 212.8899993896484 7.260000228881836
196.4299926757812 211.8000030517578 9.399999618530273
198.8000030517578 211.2299957275391 7.079999923706055
196.2299957275391 211.8899993896484 7.369999885559082
193.4799957275391 212.5700073242188 7.159999847412109
201.4100036621094 211.1499938964844 10.44999980926514
199.1000061035156 211.7599945068359 9.600000381469727
200.5399932861328 211.3999938964844 9.829999923706055
202.4499969482422 210.9100036621094 9.920000076293945
201.9900054931641 211.0500030517578 7.03000020980835
200.7200012207031 211.3600006103516 7.159999847412109
204.5099945068359 210.4100036621094 6.78000020980835
201.3500061035156 211.2200012207031 7.070000171661377
202.6000061035156 210.8999938964844 7
201.9600067138672 211 10.31999969482422
203.8800048828125 210.5800018310547 6.840000152587891
198.3899993896484 211.9499969482422 9.579999923706055
203.0700073242188 210.7599945068359 9.619999885559082
199.8200073242188 211.5599975585938 9.640000343322754
197.7299957275391 212.0700073242188 9.680000305175781
203.2899932861328 210.7200012207031 6.909999847412109
205.1300048828125 210.25 6.630000114440918
178.9900054931641 216.1699981689453 9.460000038146973
177.2100067138672 216.6600036621094 6.78000020980835
181.6600036621094 215.4499969482422 11.14000034332275
182.5 215.2299957275391 11.5
183.7599945068359 214.9299926757812 11.25
185.1699981689453 214.5700073242188 11.31999969482422
185.8500061035156 214.3999938964844 11.22999954223633
180.7899932861328 215.7200012207031 10.55000019073486
177.9199981689453 216.4600067138672 7
184.4100036621094 214.7899932861328 11.15999984741211
179.9100036621094 215.9400024414062 9.960000038146973
183.1799926757812 215.0800018310547 11.35000038146973
178.9799957275391 216.8099975585938 9.479999542236328
177.1300048828125 217.3000030517578 6.71999979019165
179.8999938964844 216.5700073242188 9.970000267028809
182.5200042724609 215.8600006103516 11.6899995803833
184.4499969482422 215.3999938964844 11.56999969482422
185.8699951171875 215.0500030517578 11.64999961853027
183.8800048828125 215.5299987792969 11.6899995803833
187.0099945068359 214.7299957275391 11.26000022888184
183.2100067138672 215.6799926757812 11.76000022888184
180.7899932861328 216.3399963378906 10.56999969482422
186.4100036621094 214.9100036621094 11.51000022888184
191.5200042724609 213.6699981689453 7.610000133514404
177.9499969482422 217.1000061035156 7.019999980926514
188.6100006103516 214.3399963378906 10.22000026702881
189.6999969482422 214.1000061035156 7.849999904632568
194.1000061035156 213 7.360000133514404
181.6399993896484 216.1100006103516 11.14000034332275
196.4600067138672 212.3800048828125 9.890000343322754
190.9499969482422 213.8200073242188 7.699999809265137
190.3000030517578 213.9600067138672 7.769999980926514
192.2200012207031 213.4799957275391 7.559999942779541
185.1399993896484 215.2299957275391 11.5600004196167
188.0700073242188 214.4799957275391 10.5600004196167
189.1900024414062 214.2200012207031 9.829999923706055
193.5099945068359 213.1900024414062 7.429999828338623
195.6600036621094 212.5899963378906 9.590000152587891
187.6000061035156 214.6300048828125 10.88000011444092
197.1000061035156 212.25 9.739999771118164
192.8000030517578 213.3500061035156 7.489999771118164
189.7200012207031 214.0700073242188 9.510000228881836
178.9199981689453 217.5099945068359 9.489999771118164
180.5800018310547 217.0800018310547 10.40999984741211
179.6999969482422 217.3099975585938 9.829999923706055
184.4700012207031 216.1100006103516 11.52999973297119
182.9600067138672 216.4700012207031 11.25
185.2200012207031 215.9199981689453 11.67000007629395
186.9799957275391 215.4799957275391 11.26000022888184
188.5599975585938 215.0700073242188 10.23999977111816
181.5399932861328 216.8600006103516 10.97000026702881
190.3200073242188 214.6799926757812 9.630000114440918
177.8600006103516 217.8000030517578 6.980000019073486
183.7400054931641 216.2799987792969 11.35999965667725
190.9900054931641 214.5099945068359 9.5
188.0200042724609 215.2299957275391 10.53999996185303
189.1300048828125 214.9299926757812 9.939999580383301
185.9900054931641 215.7100067138672 11.9399995803833
186.4900054931641 215.6000061035156 11.57999992370605
192.2599945068359 214.1699981689453 9.390000343322754
191.6199951171875 214.3300018310547 9.409999847412109
193.6300048828125 213.8399963378906 7.699999809265137
187.5399932861328 215.3600006103516 10.93000030517578
194.2299957275391 213.7100067138672 7.619999885559082
189.6999969482422 214.7899932861328 9.760000228881836
192.2599945068359 214.1999969482422 7.800000190734863
201.2700042724609 211.9100036621094 10.38000011444092
192.9600067138672 214 7.760000228881836
192.9700012207031 214.0200042724609 9.470000267028809
197.2299957275391 212.9100036621094 10.22000026702881
191.6399993896484 214.3699951171875 7.840000152587891
197.8999938964844 212.7700042724609 10.10999965667725
203.0200042724609 211.5 9.619999885559082
182.2700042724609 216.6799926757812 11.17000007629395
195.6799926757812 213.3099975585938 9.529999732971191
204.0500030517578 211.2700042724609 7.119999885559082
198.4700012207031 212.6199951171875 10.02999973297119
201.9499969482422 211.7400054931641 10.30000019073486
203.5800018310547 211.3300018310547 9.340000152587891
203.4600067138672 211.4100036621094 7.179999828338623
204.6100006103516 211.1399993896484 6.940000057220459
202.8600006103516 211.5599975585938 7.460000038146973
205.1100006103516 210.9900054931641 6.650000095367432
200.4700012207031 212.0899963378906 10.06999969482422
196.5899963378906 213.0800018310547 10.17000007629395
202.4600067138672 211.5899963378906 10.01000022888184
179.7100067138672 218.0500030517578 9.859999656677246
199.1399993896484 212.4299926757812 9.909999847412109
176.9100036621094 218.8000030517578 6.5
183.3899993896484 217.1199951171875 10.88000011444092
184.9600067138672 216.7200012207031 11.40999984741211
178.9100036621094 218.2700042724609 9.449999809265137
181.9700012207031 217.4700012207031 10.64000034332275
188.6300048828125 215.8000030517578 10.39000034332275
181.2599945068359 217.6499938964844 10.48999977111816
186.9499969482422 216.2299957275391 11.30000019073486
189.2700042724609 215.6399993896484 10.27999973297119
180.5599975585938 217.8099975585938 10.39999961853027
191.0899963378906 215.1900024414062 9.979999542236328
177.8699951171875 218.5399932861328 6.980000019073486
182.6799926757812 217.2899932861328 10.76000022888184
190.4700012207031 215.3600006103516 10.07999992370605
199.8600006103516 212.25 10.11999988555908
186.4600067138672 216.3500061035156 11.67000007629395
187.4700012207031 216.0700073242188 10.97999954223633
188.0299987792969 215.9700012207031 10.60999965667725
196.5099945068359 213.8200073242188 10.14000034332275
197.3699951171875 213.6399993896484 10.61999988555908
191.6799926757812 215.0299987792969 9.899999618530273
184.1699981689453 216.9499969482422 11.02000045776367
185.8000030517578 216.5200042724609 11.97000026702881
193.6100006103516 214.5599975585938 9.579999923706055
198.0099945068359 213.4400024414062 10.57999992370605
199.3099975585938 213.1199951171875 10.38000011444092
194.1900024414062 214.4400024414062 9.489999771118164
200.6399993896484 212.8200073242188 10.5
202.9299926757812 212.2400054931641 9.680000305175781
194.8200073242188 214.2799987792969 9.439999580383301
203.5200042724609 212.1100006103516 9.479999542236328
204.1600036621094 211.9400024414062 9.420000076293945
201.8800048828125 212.4700012207031 10.36999988555908
195.5500030517578 214.1000061035156 9.489999771118164
201.2299957275391 212.6399993896484 10.40999984741211
203.3300018310547 212.1799926757812 7.360000133514404
192.9400024414062 214.7299957275391 9.659999847412109
199.9499969482422 213 10.31999969482422
202.4100036621094 212.3399963378906 10.01000022888184
204.4900054931641 211.8899993896484 6.940000057220459
194.1999969482422 214.4299926757812 7.889999866485596
189.9100036621094 215.4900054931641 10.1899995803833
202.8399963378906 212.2899932861328 7.75
203.8800048828125 212.0099945068359 7.170000076293945
192.3399963378906 214.8800048828125 9.770000457763672
198.6799926757812 213.3099975585938 10.44999980926514
203.7400054931641 212.7100067138672 9.800000190734863
204.9400024414062 212.3999938964844 9.569999694824219
177.7700042724609 219.2599945068359 6.929999828338623
178.8899993896484 218.9199981689453 9.649999618530273
181.1100006103516 218.3699951171875 10.01000022888184
179.5899963378906 218.7700042724609 9.689999580383301
182.5500030517578 217.9900054931641 10.27000045776367
184.1799926757812 217.5800018310547 10.85000038146973
188.7799987792969 216.4299926757812 10.8100004196167
185.9400024414062 217.1300048828125 11.93000030517578
189.3800048828125 216.2799987792969 10.6899995803833
189.9900054931641 216.1300048828125 10.59000015258789
186.9499969482422 216.8699951171875 11.32999992370605
190.6300048828125 215.9900054931641 10.5
183.3000030517578 217.8000030517578 10.43000030517578
192.5299987792969 215.4900054931641 10.1899995803833
180.3399963378906 218.5599975585938 9.899999618530273
191.8999938964844 215.6600036621094 10.25
187.5299987792969 216.7400054931641 11.02999973297119
191.2799987792969 215.8099975585938 10.35999965667725
185.0800018310547 217.3899993896484 11.4399995803833
198.1499938964844 214.0800018310547 10.97999954223633
188.1000061035156 216.6300048828125 10.89999961853027
194.4400024414062 215.0099945068359 9.859999656677246
193.8200073242188 215.1699981689453 9.930000305175781
201.3899993896484 213.2599945068359 10.6899995803833
201.9100036621094 213.1399993896484 10.36999988555908
200.6799926757812 213.4799957275391 10.68000030517578
195.0399932861328 214.8699951171875 9.770000457763672
202.4700012207031 213 10.0600004196167
193.1699981689453 215.3600006103516 10.03999996185303
195.6799926757812 214.7400054931641 9.670000076293945
199.3999938964844 213.7700042724609 10.76000022888184
200.0299987792969 213.6199951171875 10.65999984741211
186.4700012207031 217.0299987792969 11.64000034332275
198.8300018310547 213.9499969482422 10.89000034332275
197.4100036621094 214.2599945068359 10.69999980926514
181.7599945068359 218.2100067138672 10.13000011444092
179.3600006103516 219.3800048828125 9.430000305175781
180.0200042724609 219.1900024414062 9.489999771118164
177.6399993896484 219.8200073242188 6.849999904632568
180.7299957275391 219.0399932861328 9.579999923706055
181.4799957275391 218.8200073242188 9.720000267028809
184.7400054931641 218.0099945068359 11.28999996185303
182.1699981689453 218.6699981689453 9.840000152587891
185.6999969482422 217.7400054931641 11.84000015258789
196.4600067138672 214.5200042724609 10
183.8800048828125 218.2200012207031 10.65999984741211
187.3899993896484 217.3500061035156 11.01000022888184
186.8899993896484 217.4799957275391 11.35999965667725
182.9900054931641 218.4400024414062 10.10999965667725
190.0599975585938 216.6699981689453 10.96000003814697
178.3000030517578 219.6999969482422 6.849999904632568
188.1000061035156 217.1699981689453 11.05000019073486
188.8200073242188 216.9700012207031 11.11999988555908
190.6499938964844 216.5399932861328 10.85999965667725
186.3300018310547 217.6199951171875 11.72000026702881
203.0899963378906 212.8500061035156 9.899999618530273
191.9299926757812 216.1999969482422 10.68000030517578
196.3200073242188 215.1000061035156 10.06999969482422
194.3899993896484 215.5800018310547 10.27999973297119
191.3000030517578 216.3800048828125 10.78999996185303
189.4700012207031 216.8200073242188 11.0600004196167
197.2599945068359 214.8600006103516 10.64999961853027
199.5 214.3300018310547 11.11999988555908
202.4400024414062 213.5700073242188 10.39000034332275
193.7599945068359 215.7599945068359 10.36999988555908
203.6999969482422 213.25 10.22000026702881
201.2899932861328 213.8800048828125 10.78999996185303
200.1100006103516 214.1499938964844 11.03999996185303
201.8500061035156 213.7200012207031 10.5
195.0099945068359 215.4499969482422 10.14999961853027
195.6699981689453 215.3000030517578 10.07999992370605
204.9499969482422 212.9799957275391 9.949999809265137
200.6900024414062 213.9900054931641 10.97000026702881
204.2599945068359 213.1399993896484 10.06999969482422
193.1999969482422 215.9199981689453 10.48999977111816
203.1199951171875 213.4299926757812 10.28999996185303
198.1900024414062 214.6300048828125 11.23999977111816
198.8800048828125 214.4400024414062 11.25
192.5200042724609 216.0599975585938 10.56999969482422
203.9100036621094 213.8999938964844 10.59000015258789
205.0399932861328 213.6399993896484 10.22000026702881
204.5099945068359 213.7799987792969 10.5
177.6900024414062 220.5399932861328 5.539999961853027
182.1199951171875 219.3600006103516 9.539999961853027
179.6799926757812 220.0299987792969 7.050000190734863
184.8200073242188 218.6699981689453 11.21000003814697
188.5599975585938 217.75 10.57999992370605
180.5700073242188 219.8200073242188 7.440000057220459
187.9199981689453 217.8999938964844 10.68000030517578
190.0200042724609 217.4100036621094 10.89999961853027
187.3600006103516 218.0599975585938 11.02999973297119
190.7599945068359 217.1799926757812 11.0600004196167
183.1000061035156 219.1499938964844 10.07999992370605
189.25 217.5800018310547 10.72999954223633
193.4600067138672 216.5399932861328 10.92000007629395
194.6000061035156 216.2599945068359 10.68000030517578
178.9299926757812 220.1900024414062 6.78000020980835
191.4700012207031 217.0500030517578 11.14999961853027
183.9900054931641 218.9199981689453 10.68000030517578
186.8500061035156 218.1499938964844 11.36999988555908
197.2100067138672 215.6199951171875 10.5600004196167
181.3899993896484 219.5500030517578 9.449999809265137
185.4900054931641 218.5200042724609 11.34000015258789
201.3500061035156 214.5500030517578 11
195.2599945068359 216.0899963378906 10.59000015258789
192.0899963378906 216.8699951171875 11.07999992370605
198.1600036621094 215.3600006103516 11.15999984741211
199.6199951171875 215 11.60999965667725
186.2200012207031 218.3300018310547 11.39999961853027
192.7799987792969 216.6799926757812 11
198.9799957275391 215.1100006103516 11.71000003814697
200.2100067138672 214.8200073242188 11.4399995803833
178.9499969482422 220.9900054931641 6.800000190734863
202.0200042724609 214.3899993896484 10.89000034332275
184.5899963378906 219.5099945068359 10.69999980926514
203.3099975585938 214.0700073242188 10.71000003814697
182.9900054931641 219.8999938964844 10.0600004196167
178.4400024414062 221.1199951171875 5.550000190734863
196.4900054931641 215.75 10.39999961853027
182.0700073242188 220.1199951171875 9.489999771118164
188 218.6300048828125 10.64000034332275
183.8899993896484 219.6999969482422 10.6899995803833
188.5 218.5 10.30000019073486
194.0500030517578 216.3699951171875 10.76000022888184
189.1199951171875 218.3500061035156 10.25
195.8099975585938 215.9600067138672 10.5
180.5700073242188 220.5299987792969 7.460000038146973
193.3899993896484 217.2799987792969 10.98999977111816
185.3099975585938 219.3200073242188 10.8100004196167
189.8500061035156 218.2100067138672 10.38000011444092
200.7899932861328 214.6699981689453 11.17000007629395
202.6900024414062 214.2299957275391 10.77999973297119
186.0399932861328 219.1399993896484 10.94999980926514
196.0299987792969 216.6199951171875 10.93000030517578
192.6999969482422 217.4799957275391 10.88000011444092
191.9499969482422 217.6399993896484 10.73999977111816
196.7799987792969 216.4600067138672 10.88000011444092
199.1699981689453 215.8500061035156 11.94999980926514
186.7799987792969 218.9400024414062 11.0600004196167
194.7599945068359 216.9499969482422 11.07999992370605
179.7899932861328 220.7400054931641 7.139999866485596
190.5 218 10.5
201.6100006103516 215.2200012207031 11.48999977111816
203.9600067138672 214.6399993896484 10.89000034332275
194.1199951171875 217.0899963378906 11.10999965667725
187.4799957275391 218.7899932861328 10.94999980926514
204.5299987792969 214.5 10.52000045776367
191.3000030517578 217.8200073242188 10.60000038146973
197.3600006103516 216.3099975585938 10.76000022888184
202.8800048828125 214.9100036621094 11.27999973297119
200.3800048828125 215.5500030517578 11.65999984741211
202.2100067138672 215.0800018310547 11.39999961853027
198.2799987792969 216.0500030517578 11.31999969482422
195.4799957275391 216.8000030517578 11.05000019073486
200.9499969482422 215.4100036621094 11.59000015258789
205.0899963378906 214.3600006103516 10.19999980926514
203.4600067138672 214.75 11.1899995803833
199.7599945068359 215.6699981689453 11.81999969482422
179.9400024414062 221.4100036621094 7.170000076293945
183.3099975585938 220.5399932861328 10.22999954223633
185.2700042724609 220.0299987792969 10.3100004196167
184.7100067138672 220.1799926757812 10.55000019073486
186.7100067138672 219.6600036621094 10.55000019073486
187.4700012207031 219.4900054931641 10.69999980926514
180.7299957275391 221.2100067138672 7.409999847412109
188.0700073242188 219.3200073242188 10.59000015258789
192 218.3399963378906 10.22999954223633
182.3999938964844 220.7799987792969 9.600000381469727
194.0899963378906 217.8300018310547 10.60000038146973
179.1300048828125 221.6100006103516 6.829999923706055
191.2100067138672 218.5500030517578 10.10000038146973
196.25 217.2700042724609 10.94999980926514
186 219.8300018310547 10.48999977111816
198.3500061035156 216.7200012207031 11.35999965667725
184.1499938964844 220.3000030517578 10.76000022888184
194.7899932861328 217.6499938964844 10.72999954223633
189.1100006103516 219.0599975585938 9.909999847412109
189.8000030517578 218.8899993896484 9.890000343322754
188.5700073242188 219.2200012207031 10.22999954223633
201.9499969482422 215.8200073242188 11.92000007629395
201.2700042724609 215.9900054931641 11.97999954223633
203.1600036621094 215.5200042724609 11.51000022888184
197.6399993896484 216.9199981689453 11.10000038146973
193.4400024414062 218 10.47000026702881
199.2299957275391 216.4900054931641 11.94999980926514
204.1799926757812 215.2799987792969 10.84000015258789
200.0399932861328 216.3000030517578 12.19999980926514
200.6699981689453 216.1600036621094 12.06999969482422
195.4700012207031 217.4900054931641 10.86999988555908
204.6799926757812 215.1600036621094 10.44999980926514
205.1900024414062 215.0599975585938 10.10999965667725
192.7400054931641 218.1499938964844 10.38000011444092
203.6300048828125 215.4100036621094 11.10999965667725
202.5899963378906 215.6900024414062 11.72000026702881
196.8999938964844 217.1199951171875 11.0600004196167
205.6799926757812 215.4900054931641 9.75
190.5 218.75 10.01000022888184
184.6699981689453 220.7299957275391 10.57999992370605
180.5599975585938 221.8399963378906 7.179999828338623
182.1799926757812 221.3899993896484 9.560000419616699
183.0399932861328 221.1499938964844 10.11999988555908
185.7799987792969 220.4600067138672 10.05000019073486
179.8000030517578 222.0200042724609 7.110000133514404
191.6900024414062 219.0200042724609 9.840000152587891
192.3699951171875 218.8399963378906 9.949999809265137
186.5299987792969 220.2799987792969 10.14000034332275
190.9400024414062 219.1799926757812 9.689999580383301
188.5599975585938 219.7700042724609 10.22999954223633
196.0200042724609 217.8999938964844 10.53999996185303
179.0200042724609 222.1799926757812 6.809999942779541
194.5700073242188 218.2599945068359 10.30000019073486
196.7700042724609 217.7100067138672 10.67000007629395
199.2899932861328 217.0700073242188 12
183.9100036621094 220.9600067138672 10.38000011444092
198.3800048828125 217.2899932861328 11.39000034332275
187.9499969482422 219.9400024414062 10.39000034332275
189.5700073242188 219.5200042724609 9.590000152587891
195.25 218.1100006103516 10.42000007629395
187.2899932861328 220.1199951171875 10.27999973297119
193.0500030517578 218.6699981689453 10.05000019073486
197.5099945068359 217.5099945068359 10.85000038146973
193.8300018310547 218.4499969482422 10.14000034332275
201.9600067138672 216.4100036621094 12.25
202.5099945068359 216.25 11.89000034332275
201.3899993896484 216.5299987792969 12.38000011444092
189.0299987792969 219.6399993896484 9.899999618530273
200.4900054931641 217.3899993896484 12.07999992370605
204.6000061035156 215.7400054931641 10.5
203.0099945068359 216.1499938964844 11.53999996185303
199.8399963378906 217.5700073242188 12
201.9499969482422 217.0200042724609 12.27999973297119
203.5599975585938 216.0399932861328 11.23999977111816
204.0299987792969 216.5700073242188 10.92000007629395
205.1000061035156 216.3099975585938 10.23999977111816
204.0599975585938 215.9100036621094 10.86999988555908
201.2200012207031 217.2100067138672 12.18000030517578
204.5099945068359 216.4299926757812 10.52999973297119
203.5 216.6499938964844 11.23999977111816
203 216.7799987792969 11.56999969482422
190.2700042724609 219.3399963378906 9.590000152587891
199.0299987792969 217.7700042724609 11.76000022888184
206.1399993896484 216.0099945068359 9.600000381469727
200.7599945068359 216.7100067138672 12.46000003814697
205.5899963378906 216.1900024414062 9.890000343322754
205.1300048828125 215.6199951171875 10.11999988555908
185.1900024414062 220.6399993896484 10.23999977111816
200.0899963378906 216.8600006103516 12.43000030517578
202.5 216.9199981689453 11.89000034332275
178.9299926757812 222.8899993896484 6.730000019073486
179.6600036621094 222.6699981689453 6.809999942779541
180.3699951171875 222.4900054931641 6.829999923706055
182.8999938964844 221.8200073242188 9.770000457763672
183.6100006103516 221.6600036621094 9.949999809265137
187.5700073242188 220.6600036621094 9.909999847412109
188.3399963378906 220.4700012207031 10.02000045776367
188.9900054931641 220.3000030517578 9.960000038146973
186.8500061035156 220.8600006103516 9.729999542236328
184.5200042724609 221.4100036621094 10.57999992370605
189.5 220.1799926757812 9.600000381469727
190.8000030517578 219.8800048828125 9.390000343322754
190.0899963378906 220.0399932861328 9.369999885559082
191.5 219.6799926757812 9.409999847412109
186.1999969482422 221.0099945068359 9.640000343322754
192.8500061035156 219.3399963378906 9.579999923706055
194.2799987792969 219.0200042724609 9.859999656677246
190.6199951171875 219.9499969482422 7.28000020980835
189.4600067138672 220.2400054931641 7.75
195.6600036621094 218.6300048828125 10.03999996185303
196.4799957275391 218.4700012207031 10.23999977111816
190.0399932861328 220.0599975585938 7.519999980926514
196.2899932861328 219.1699981689453 9.970000267028809
185.6399993896484 221.1499938964844 9.960000038146973
198.1300048828125 218.0299987792969 11.14000034332275
182.1199951171875 222.0200042724609 9.479999542236328
185.1100006103516 221.2700042724609 10.31999969482422
201.6499938964844 217.8099975585938 11.85999965667725
193.5399932861328 219.1699981689453 9.659999847412109
198.7599945068359 218.5399932861328 11.3100004196167
197.2100067138672 218.2700042724609 10.57999992370605
202.8399963378906 217.5099945068359 11.64999961853027
199.4700012207031 218.3699951171875 11.42000007629395
200.2100067138672 218.1999969482422 11.52000045776367
197.2100067138672 218.9700012207031 10.59000015258789
202.3500061035156 217.6300048828125 11.98999977111816
205.5599975585938 216.8800048828125 9.890000343322754
195.4900054931641 219.4100036621094 9.569999694824219
195 218.8099975585938 9.920000076293945
203.3800048828125 217.3800048828125 11.28999996185303
205.0099945068359 216.9900054931641 10.22999954223633
203.9199981689453 217.2799987792969 10.94999980926514
198.0299987792969 218.7200012207031 11.13000011444092
194.6799926757812 219.6000061035156 9.460000038146973
200.8699951171875 218 11.68000030517578
192.1600036621094 219.5399932861328 9.449999809265137
204.4400024414062 217.1300048828125 10.60000038146973
179.9600067138672 223.3000030517578 6.300000190734863
183.5 222.3999938964844 9.909999847412109
186.1300048828125 221.7200012207031 9.609999656677246
186.6699981689453 221.5899963378906 9.390000343322754
180.7599945068359 223.1399993896484 6.710000038146973
186.0899963378906 221.75 7.989999771118164
185.0599975585938 222.0099945068359 10.31999969482422
182.6399993896484 222.6199951171875 9.399999618530273
187.3500061035156 221.4600067138672 9.430000305175781
188.7400054931641 221.1000061035156 9.609999656677246
186.7299957275391 221.5899963378906 7.96999979019165
189.3399963378906 220.9700012207031 7.820000171661377
193.3600006103516 219.9100036621094 9.460000038146973
185.5700073242188 221.8800048828125 9.979999542236328
181.6399993896484 222.8699951171875 7.070000171661377
189.9400024414062 220.8300018310547 7.599999904632568
184.4100036621094 222.1600036621094 10.52999973297119
201.5700073242188 218.5500030517578 11.38000011444092
190.4700012207031 220.6900024414062 7.289999961853027
188.0200042724609 221.25 9.470000267028809
193.9799957275391 219.7599945068359 9.399999618530273
202.2899932861328 218.3399963378906 11.64999961853027
189.9199981689453 220.8000030517578 9.359999656677246
203.9499969482422 217.9199981689453 10.93000030517578
189.4199981689453 220.8999938964844 9.649999618530273
206.0399932861328 217.4100036621094 9.520000457763672
193.1000061035156 220.0200042724609 7.28000020980835
202.9600067138672 218.1999969482422 11.64999961853027
192.4400024414062 220.1600036621094 7.230000019073486
204.9799957275391 217.6900024414062 10.26000022888184
203.4499969482422 218.0700073242188 11.28999996185303
205.9400024414062 217.4600067138672 7.659999847412109
205.3999938964844 217.5899963378906 7.909999847412109
191.7400054931641 220.3699951171875 7.130000114440918
200.8000030517578 218.6999969482422 11.23999977111816
204.4600067138672 217.7899932861328 10.55000019073486
205.5200042724609 217.5700073242188 9.920000076293945
207.6799926757812 217.0299987792969 6.980000019073486
191.0099945068359 220.5299987792969 7.110000133514404
206.4799957275391 217.3399963378906 7.349999904632568
180.9100036621094 223.7599945068359 6.730000019073486
183.8000030517578 223.0200042724609 7.449999809265137
182.4499969482422 223.3399963378906 7.360000133514404
186.0700073242188 222.4299926757812 9.630000114440918
185.9199981689453 222.5 7.78000020980835
183.1699981689453 223.1900024414062 7.360000133514404
186.5899963378906 222.2799987792969 9.350000381469727
181.6699981689453 223.5299987792969 7.079999923706055
187.9199981689453 222 7.619999885559082
190.0200042724609 221.4199981689453 9.310000419616699
190.5299987792969 221.3200073242188 7.28000020980835
189.9900054931641 221.4400024414062 7.550000190734863
186.6900024414062 222.2799987792969 7.820000171661377
189.3699951171875 221.6199951171875 9.350000381469727
193.7200012207031 220.5599975585938 7.090000152587891
185.0399932861328 222.6900024414062 10.34000015258789
195.4100036621094 220.1100006103516 9.470000267028809
197.1000061035156 219.6799926757812 10.47999954223633
187.3600006103516 222.1300048828125 7.809999942779541
198.6000061035156 219.2799987792969 10.82999992370605
188.6499938964844 221.7799987792969 7.670000076293945
192.3399963378906 220.8800048828125 6.920000076293945
189.3699951171875 221.6300048828125 7.760000228881836
184.4199981689453 222.8300018310547 10.47999954223633
193.0700073242188 220.7200012207031 7
196.2299957275391 219.8699951171875 9.890000343322754
194.4700012207031 220.3600006103516 7.119999885559082
199.2899932861328 219.1000061035156 10.94999980926514
197.8999938964844 219.4700012207031 10.75
207.5599975585938 217.6300048828125 6.989999771118164
200.0500030517578 218.8899993896484 11.06999969482422
208.0899963378906 217.5299987792969 6.769999980926514
191.0800018310547 221.1900024414062 7.059999942779541
191.6399993896484 221.0399932861328 6.889999866485596
185.5800018310547 222.5200042724609 10.02000045776367
182.9700012207031 223.8099975585938 7.150000095367432
181.5500030517578 224.1699981689453 6.989999771118164
180.7400054931641 224.3399963378906 6.78000020980835
185.1100006103516 223.2700042724609 7.380000114440918
185.75 223.1000061035156 7.460000038146973
183.6600036621094 223.6399993896484 7.25
186.4100036621094 222.9400024414062 7.539999961853027
190.3399963378906 221.9400024414062 7.380000114440918
182.2400054931641 223.9700012207031 7.099999904632568
189.7700042724609 222.1100006103516 7.590000152587891
187.1100006103516 222.7299957275391 7.630000114440918
192.1000061035156 221.5099945068359 6.630000114440918
193.5899963378906 221.1399993896484 6.860000133514404
184.4400024414062 223.4400024414062 7.329999923706055
188.3999938964844 222.4499969482422 7.409999847412109
196.9199981689453 220.2899932861328 10.14999961853027
190.9400024414062 221.8099975585938 7.130000114440918
198.2700042724609 219.9400024414062 10.42000007629395
192.8200073242188 221.3500061035156 6.769999980926514
201.1999969482422 219.1799926757812 10.98999977111816
195.3399963378906 220.6699981689453 9.449999809265137
191.5299987792969 221.6499938964844 6.860000133514404
187.8300018310547 222.5599975585938 7.659999847412109
199 219.75 10.51000022888184
203.3500061035156 218.6399993896484 11.27999973297119
196.1699981689453 220.4799957275391 9.899999618530273
204.3899993896484 218.3800048828125 10.64999961853027
202.0299987792969 218.9900054931641 11.59000015258789
194.3600006103516 220.9400024414062 7.090000152587891
205.8399963378906 218.0500030517578 7.619999885559082
199.7100067138672 219.5399932861328 10.67000007629395
204.9199981689453 218.2700042724609 10.27000045776367
205.5099945068359 218.1199951171875 9.909999847412109
197.6000061035156 220.1100006103516 10.26000022888184
206.0200042724609 218.0200042724609 9.590000152587891
203.8300018310547 218.5200042724609 10.97999954223633
200.4600067138672 219.3600006103516 10.80000019073486
206.9600067138672 217.8000030517578 7.21999979019165
206.4100036621094 217.9100036621094 7.429999828338623
202.8099975585938 218.7700042724609 11.67000007629395
189.1000061035156 222.2700042724609 7.489999771118164
182.0500030517578 224.7100067138672 6.75
182.7599945068359 224.5700073242188 6.869999885559082
185.5700073242188 223.8600006103516 7.139999866485596
186.2599945068359 223.6699981689453 7.199999809265137
184.1699981689453 224.2100067138672 6.940000057220459
186.9900054931641 223.5099945068359 7.300000190734863
187.6799926757812 223.3099975585938 7.360000133514404
189.7100067138672 222.8300018310547 7.260000228881836
192.0399932861328 222.2299957275391 6.599999904632568
184.7899932861328 224.0200042724609 7.03000020980835
190.9400024414062 222.4900054931641 7.139999866485596
193.4499969482422 221.8600006103516 6.760000228881836
195.8899993896484 221.2200012207031 9.520000457763672
189.0200042724609 222.9900054931641 7.150000095367432
198.8300018310547 220.5 10
196.6000061035156 221.0299987792969 9.640000343322754
199.5500030517578 220.3200073242188 10.10999965667725
183.4799957275391 224.3600006103516 6.909999847412109
188.3999938964844 223.1000061035156 7.409999847412109
198.0500030517578 220.6999969482422 9.859999656677246
201.9700012207031 219.6999969482422 11.19999980926514
202.6600036621094 219.5 11.35999965667725
204.3699951171875 219.1100006103516 10.68000030517578
200.3099975585938 220.1199951171875 10.42000007629395
204.8899993896484 218.9600067138672 10.3100004196167
190.3399963378906 222.6499938964844 7.320000171661377
205.7400054931641 218.7899932861328 7.550000190734863
197.3699951171875 220.8500061035156 9.75
194.2100067138672 221.6600036621094 7.070000171661377
205.4100036621094 218.8500061035156 9.979999542236328
206.9400024414062 218.4700012207031 7.239999771118164
201.1799926757812 219.8699951171875 10.96000003814697
191.4799957275391 222.3399963378906 6.929999828338623
203.8399963378906 219.2400054931641 10.97999954223633
206.3099975585938 218.6499938964844 7.28000020980835
205.8699951171875 218.7400054931641 9.680000305175781
203.2599945068359 219.3399963378906 11.36999988555908
206.4700012207031 218.5700073242188 9.310000419616699
207.5099945068359 218.3300018310547 6.949999809265137
208.1300048828125 218.1799926757812 6.739999771118164
186.0299987792969 224.4400024414062 6.920000076293945
184.6999969482422 224.7899932861328 6.710000038146973
189.4199981689453 223.6199951171875 7
191.4100036621094 223.1199951171875 6.929999828338623
188.1999969482422 223.8999938964844 7.139999866485596
185.3699951171875 224.6100006103516 6.800000190734863
192.0099945068359 222.9700012207031 6.650000095367432
190.1399993896484 223.4199981689453 7
193.4600067138672 222.6100006103516 6.820000171661377
184.0500030517578 224.9799957275391 6.670000076293945
186.7799987792969 224.25 6.980000019073486
196.4400024414062 221.8600006103516 7.670000076293945
190.8500061035156 223.2599945068359 7.090000152587891
197.8099975585938 221.4799957275391 9.399999618530273
195.7400054931641 222.0099945068359 7.650000095367432
188.8699951171875 223.7299957275391 7.230000019073486
195.0399932861328 222.1900024414062 7.420000076293945
187.4600067138672 224.1300048828125 7.070000171661377
197.1000061035156 221.6699981689453 9.390000343322754
194.25 222.3800048828125 7.150000095367432
204.3600006103516 219.8500061035156 10.6899995803833
198.4799957275391 221.2899932861328 9.520000457763672
203.8000030517578 219.9600067138672 11.01000022888184
200.8899993896484 220.6900024414062 10.55000019073486
206.4199981689453 219.3099975585938 9.420000076293945
207.4600067138672 219.0700073242188 7.050000190734863
204.8699951171875 219.7100067138672 10.28999996185303
205.3800048828125 219.5599975585938 10.02999973297119
206.0899963378906 219.4299926757812 6.980000019073486
200.1300048828125 220.8999938964844 10.28999996185303
205.7299957275391 219.5099945068359 7.590000152587891
203.0899963378906 220.1300048828125 10.97999954223633
206.8399963378906 219.2400054931641 7.050000190734863
202.3899993896484 220.3300018310547 10.78999996185303
208.0399932861328 218.9299926757812 6.800000190734863
199.3099975585938 221.1199951171875 9.739999771118164
201.6300048828125 220.5 10.65999984741211
205.9199981689453 219.4799957275391 9.680000305175781
197.1199951171875 221.6900024414062 7.789999961853027
196.3399963378906 222.5500030517578 7.400000095367432
195.7100067138672 222.7200012207031 7.309999942779541
198.6300048828125 221.9700012207031 9.5
200.8200073242188 221.3899993896484 10.0600004196167
