496.2000122070312 445.0199890136719 9.779999732971191
496.7300109863281 442.7000122070312 8.939999580383301
496.4400024414062 443.8599853515625 9.409999847412109
495.4800109863281 443.3200073242188 12.22999954223633
495.6099853515625 442.1499938964844 8.729999542236328
496.5799865722656 443.239990234375 9.140000343322754
495.4500122070312 442.7000122070312 8.970000267028809
498.3500061035156 441.9200134277344 8.670000076293945
496.8599853515625 442.1199951171875 8.720000267028809
495.8099975585938 444.1199951171875 9.439999580383301
496.1799926757812 442.3599853515625 8.819999694824219
495.9100036621094 443.510009765625 9.310000419616699
496.0700073242188 442.9400024414062 9.060000419616699
495.5700073242188 445.3299865722656 11.44999980926514
495.510009765625 445.2799987792969 9.960000038146973
494.510009765625 443.4299926757812 9.229999542236328
495.2200012207031 443.8599853515625 9.449999809265137
495.0799865722656 444.3699951171875 9.619999885559082
495.6700134277344 444.7300109863281 9.699999809265137
494.2300109863281 444.6300048828125 9.689999580383301
494.9599914550781 445 9.810000419616699
494.0899963378906 445.239990234375 9.939999580383301
495.3500061035156 443.2200012207031 9.170000076293945
495.0199890136719 445.0199890136719 11.4399995803833
494.3500061035156 444.0700073242188 9.430000305175781
494.6199951171875 442.9200134277344 9.010000228881836
494.7999877929688 442.2999877929688 8.770000457763672
493.489990234375 442.0400085449219 8.670000076293945
493.3500061035156 442.6400146484375 8.920000076293945
492.9700012207031 444.3900146484375 9.539999961853027
493.0899963378906 443.7900085449219 9.350000381469727
492.8299865722656 444.9800109863281 9.779999732971191
493.25 443.1900024414062 9.119999885559082
494.1900024414062 441.9100036621094 8.699999809265137
493.6400146484375 444.1900024414062 9.5
493.510009765625 444.739990234375 9.739999771118164
493.3999938964844 445.3200073242188 9.939999580383301
493.8999938964844 443.0499877929688 9.100000381469727
494.0499877929688 442.4500122070312 8.880000114440918
493.7699890136719 443.6099853515625 9.270000457763672
491.8599853515625 443.0199890136719 9.039999961853027
491.7200012207031 443.6000061035156 9.279999732971191
491.989990234375 442.4500122070312 8.859999656677246
492.0299987792969 441.7799987792969 5.769999980926514
492.1300048828125 441.8699951171875 8.810000419616699
492.6300048828125 442.8500061035156 9.020000457763672
492.1300048828125 445.1199951171875 9.869999885559082
492.260009765625 444.6099853515625 9.600000381469727
492.489990234375 443.4500122070312 9.229999542236328
492.760009765625 442.2799987792969 8.789999961853027
492.3900146484375 443.9800109863281 9.430000305175781
491.3099975585938 442.5899963378906 8.899999618530273
491.4599914550781 442.0799865722656 8.649999618530273
491.0700073242188 443.739990234375 9.310000419616699
491.6099853515625 444.25 9.539999961853027
490.8099975585938 444.9200134277344 9.729999542236328
491.1700134277344 443.2099914550781 9.100000381469727
491.3200073242188 445.3599853515625 9.960000038146973
490.8999938964844 444.3699951171875 9.579999923706055
491.4400024414062 444.8200073242188 9.739999771118164
490.6600036621094 442.8599853515625 8.930000305175781
490.3800048828125 444.0499877929688 9.430000305175781
490.5 443.4400024414062 9.189999580383301
490.1099853515625 445.1900024414062 9.829999923706055
490.25 444.6700134277344 9.649999618530273
490.7799987792969 442.2799987792969 8.760000228881836
490.1000061035156 441.9100036621094 7.420000076293945
489.9299926757812 443.0899963378906 9.090000152587891
489.75 443.6799926757812 9.260000228881836
489.3999938964844 445.3500061035156 9.869999885559082
490.0700073242188 441.8599853515625 6.510000228881836
490.0199890136719 442.5199890136719 8.850000381469727
490.1499938964844 441.9700012207031 8.720000267028809
489.489990234375 444.7999877929688 9.689999580383301
489.6199951171875 444.2300109863281 9.489999771118164
488.2699890136719 444.010009765625 9.399999618530273
488.6300048828125 442.2699890136719 8.680000305175781
488.0199890136719 445.1199951171875 9.810000419616699
488.5400085449219 442.8500061035156 8.960000038146973
489.0599975585938 443.2900085449219 9.170000076293945
489.239990234375 442.6600036621094 8.899999618530273
488.1300048828125 444.5400085449219 9.640000343322754
488.3800048828125 443.3900146484375 9.189999580383301
488.8200073242188 444.4800109863281 9.560000419616699
489.3599853515625 442.1400146484375 8.689999580383301
489.260009765625 442.0299987792969 6.429999828338623
488.9200134277344 443.8699951171875 9.359999656677246
488.739990234375 441.6300048828125 7.5
488.6900024414062 444.9800109863281 9.779999732971191
488.1300048828125 441.9500122070312 8.689999580383301
488 442.5299987792969 8.840000152587891
487.4599914550781 444.8699951171875 9.720000267028809
488.0299987792969 441.9100036621094 6.400000095367432
488.0899963378906 441.9100036621094 7.539999961853027
487.6099853515625 444.3099975585938 9.479999542236328
487.8699951171875 443.0899963378906 9.100000381469727
487.3200073242188 445.4400024414062 9.960000038146973
487.739990234375 443.7300109863281 9.239999771118164
487.0199890136719 444 9.350000381469727
487.4200134277344 442.260009765625 8.689999580383301
487.1600036621094 443.3800048828125 9.149999618530273
487.5 441.6900024414062 7.510000228881836
487.3399963378906 442.1499938964844 6.5
487.2799987792969 442.8800048828125 9
486.7699890136719 445.0899963378906 9.850000381469727
486.8999938964844 444.5400085449219 9.590000152587891
486.6600036621094 441.8599853515625 6.420000076293945
486.7300109863281 441.8999938964844 7.480000019073486
486.3299865722656 443.7300109863281 9.289999961853027
486.4800109863281 443.1099853515625 9.060000419616699
485.9800109863281 445.4200134277344 9.949999809265137
486.6199951171875 442.510009765625 8.810000419616699
486.2300109863281 444.2799987792969 9.470000267028809
486.0700073242188 444.8900146484375 9.729999542236328
485.9400024414062 442.0700073242188 6.429999828338623
485.5400085449219 444.4500122070312 9.569999694824219
485.3900146484375 442.3999938964844 8.75
486.0400085449219 442.1300048828125 8.640000343322754
485.239990234375 442.989990234375 9.020000457763672
485.6600036621094 443.8500061035156 9.409999847412109
484.6799926757812 445.2900085449219 9.890000343322754
485.7999877929688 443.3099975585938 9.159999847412109
484.7999877929688 444.75 9.689999580383301
485.8999938964844 442.7200012207031 8.909999847412109
484.9700012207031 444.2099914550781 9.430000305175781
485.3800048828125 444.9500122070312 9.779999732971191
485.1000061035156 443.5700073242188 9.25
484.6600036621094 442.7099914550781 8.909999847412109
485.4299926757812 441.8299865722656 7.480000019073486
484.760009765625 442.1300048828125 8.670000076293945
484.5 443.25 9.109999656677246
499.6799926757812 450.6199951171875 9.25
499.5400085449219 451.2000122070312 9.039999961853027
499.3399963378906 451.7699890136719 8.810000419616699
499.3800048828125 449.2000122070312 9.760000228881836
498.5899963378906 451.9700012207031 8.659999847412109
498.9200134277344 450.8999938964844 9.119999885559082
499.0299987792969 450.3299865722656 9.350000381469727
499.5299987792969 448.6099853515625 9.970000267028809
499.2099914550781 449.75 9.539999961853027
498.7300109863281 451.4500122070312 8.909999847412109
499.3099975585938 446.5299987792969 10.4399995803833
498.8500061035156 448.1400146484375 10.17000007629395
498.7300109863281 448.739990234375 9.939999580383301
498.989990234375 447.6199951171875 10.36999988555908
497.9800109863281 451.5400085449219 8.859999656677246
499.3900146484375 445.989990234375 10.1899995803833
498.3900146484375 449.8599853515625 9.489999771118164
498.1199951171875 450.9400024414062 9.119999885559082
499.1700134277344 447.1000061035156 10.61999988555908
497.8500061035156 449.5 9.630000114440918
498.2799987792969 447.7900085449219 10.3100004196167
498.1400146484375 448.3299865722656 10.09000015258789
498.25 450.3900146484375 9.319999694824219
498.0199890136719 448.9200134277344 9.850000381469727
498.5499877929688 449.260009765625 9.75
497.7000122070312 450.0599975585938 9.420000076293945
497.2300109863281 451.7200012207031 8.819999694824219
497.3999938964844 451.1499938964844 9
497.8099975585938 452.0799865722656 8.640000343322754
498.4700012207031 447.2300109863281 10.53999996185303
497.5599975585938 450.6400146484375 9.199999809265137
498.5899963378906 446.5799865722656 10.46000003814697
498.0599975585938 446.2900085449219 10.32999992370605
498.7200012207031 446.0499877929688 10.27999973297119
498.1499938964844 445.7799987792969 10.14999961853027
498.8699951171875 445.4800109863281 10.05000019073486
497.1600036621094 449.6499938964844 9.619999885559082
497.7999877929688 447.3900146484375 10.4399995803833
496.8599853515625 450.739990234375 9.180000305175781
497.5 448.5299987792969 10.05000019073486
496.5499877929688 451.8900146484375 8.710000038146973
497.3200073242188 449.0499877929688 9.859999656677246
497.6400146484375 447.9400024414062 10.23999977111816
497.0400085449219 450.1900024414062 9.369999885559082
497.9100036621094 446.8500061035156 10.5600004196167
496.7000122070312 451.3299865722656 8.970000267028809
497.1799926757812 447 10.61999988555908
497.4299926757812 445.8999938964844 10.18000030517578
496.7099914550781 448.7300109863281 9.949999809265137
495.9700012207031 451.5199890136719 8.890000343322754
496.3999938964844 449.9100036621094 9.520000457763672
496.2900085449219 450.4500122070312 9.289999961853027
496.8800048828125 448.1300048828125 10.17000007629395
497.3200073242188 446.4100036621094 10.36999988555908
496.5899963378906 449.2799987792969 9.75
497.0299987792969 447.5799865722656 10.39000034332275
496.1400146484375 450.9599914550781 9.050000190734863
495.8200073242188 452.0700073242188 8.649999618530273
496.3900146484375 447.1600036621094 10.52999973297119
496.2200012207031 447.6499938964844 10.34000015258789
495.489990234375 450.5 9.329999923706055
495.3099975585938 451.0299987792969 9.069999694824219
496.4800109863281 446.5899963378906 10.40999984741211
495.6099853515625 449.8999938964844 9.520000457763672
495.010009765625 452.1600036621094 8.649999618530273
495.9400024414062 448.7999877929688 9.909999847412109
495.1799926757812 451.6700134277344 8.890000343322754
495.75 449.3800048828125 9.680000305175781
496.0400085449219 448.2799987792969 10.13000011444092
496.6300048828125 446.0400085449219 10.18000030517578
496.739990234375 445.489990234375 10.05000019073486
495.7799987792969 446.7200012207031 10.47000026702881
494.7200012207031 450.7000122070312 9.220000267028809
495.0400085449219 449.5899963378906 9.600000381469727
495.3299865722656 448.4200134277344 10.0600004196167
495.6300048828125 447.3299865722656 10.51000022888184
495.2099914550781 449.010009765625 9.819999694824219
496.0799865722656 445.5700073242188 10.03999996185303
494.4599914550781 451.75 8.840000152587891
495.5 447.8200073242188 10.27999973297119
494.6099853515625 451.2000122070312 9.010000228881836
495.9100036621094 446.1300048828125 10.22999954223633
494.8800048828125 450.1099853515625 9.430000305175781
493.9100036621094 451.4599914550781 8.960000038146973
493.7999877929688 452.0199890136719 8.710000038146973
495.239990234375 446.4299926757812 10.38000011444092
495 447.489990234375 10.39000034332275
494.8099975585938 448.1300048828125 10.22000026702881
495.3699951171875 445.8699951171875 10.11999988555908
494.0700073242188 450.8699951171875 9.149999618530273
494.5400085449219 449.2200012207031 9.75
494.7099914550781 448.6400146484375 9.970000267028809
494.2300109863281 450.2999877929688 9.390000343322754
495.1499938964844 446.989990234375 10.57999992370605
494.3699951171875 449.7699890136719 9.560000419616699
494.5499877929688 446.6799926757812 10.4399995803833
494.2300109863281 447.8299865722656 10.3100004196167
493.3299865722656 451.2000122070312 9.050000190734863
494.7999877929688 445.5199890136719 10.05000019073486
494.6700134277344 446.0799865722656 10.22999954223633
494.1000061035156 448.3900146484375 10.11999988555908
493.1799926757812 451.739990234375 8.840000152587891
493.760009765625 449.5799865722656 9.649999618530273
493.5 450.6400146484375 9.210000038146973
494.4100036621094 447.260009765625 10.47999954223633
493.6099853515625 450.1300048828125 9.430000305175781
493.9299926757812 448.9800109863281 9.869999885559082
493.5599975585938 447.4400024414062 10.43000030517578
493.7300109863281 446.8900146484375 10.52999973297119
492.9599914550781 449.6900024414062 9.600000381469727
492.8099975585938 450.239990234375 9.380000114440918
492.3599853515625 451.9500122070312 8.739999771118164
492.6600036621094 450.8200073242188 9.159999847412109
492.5 451.4100036621094 8.949999809265137
493.260009765625 448.5599975585938 10.01000022888184
493.3999938964844 448.0400085449219 10.25
493.1400146484375 449.1600036621094 9.779999732971191
493.9800109863281 445.7699890136719 10.13000011444092
493.8599853515625 446.3800048828125 10.34000015258789
492.9800109863281 447.0400085449219 10.5600004196167
492.8299865722656 447.5899963378906 10.39999961853027
493.1300048828125 446.4700012207031 10.34000015258789
492.239990234375 449.8999938964844 9.510000228881836
492.5199890136719 448.7699890136719 9.909999847412109
492.1000061035156 450.4200134277344 9.310000419616699
492.3699951171875 449.3299865722656 9.729999542236328
491.6499938964844 452.1300048828125 8.680000305175781
492.6700134277344 448.2000122070312 10.1899995803833
493.2900085449219 445.8800048828125 10.17000007629395
491.9500122070312 451.010009765625 9.109999656677246
491.7699890136719 451.5299987792969 8.899999618530273
492.7099914550781 445.5599975585938 10.03999996185303
492.5499877929688 446.0899963378906 10.22000026702881
491.6900024414062 449.4500122070312 9.689999580383301
491.3800048828125 450.5899963378906 9.289999961853027
492.1400146484375 447.760009765625 10.34000015258789
491.0799865722656 451.7099914550781 8.859999656677246
492.0199890136719 448.3599853515625 10.14000034332275
492.4500122070312 446.6400146484375 10.39000034332275
490.9200134277344 452.3099975585938 8.729999542236328
491.8699951171875 448.9200134277344 9.890000343322754
491.2300109863281 451.1499938964844 9.060000419616699
492.3099975585938 447.1900024414062 10.55000019073486
491.5499877929688 449.9700012207031 9.5
491.7000122070312 446.8800048828125 10.52000045776367
491.8699951171875 446.3099975585938 10.28999996185303
490.6499938964844 450.8299865722656 9.220000267028809
491.5899963378906 447.4299926757812 10.4399995803833
490.5 451.3800048828125 9
490.8299865722656 450.3099975585938 9.420000076293945
491.25 448.5899963378906 10
491.1099853515625 449.1799926757812 9.779999732971191
491.9599914550781 445.7200012207031 10.01000022888184
491.3999938964844 448.0199890136719 10.25
490.9500122070312 449.7000122070312 9.619999885559082
490.3500061035156 451.9400024414062 8.779999732971191
490.9599914550781 447.010009765625 10.53999996185303
491.0899963378906 446.489990234375 10.34000015258789
491.1900024414062 445.8900146484375 10.14000034332275
490.0299987792969 450.3699951171875 9.350000381469727
490.2200012207031 449.8399963378906 9.560000419616699
490.7999877929688 447.6099853515625 10.38000011444092
489.760009765625 451.5299987792969 8.909999847412109
490.5 448.7300109863281 9.960000038146973
490.3200073242188 449.2799987792969 9.739999771118164
489.5899963378906 452.1099853515625 8.710000038146973
490.6600036621094 448.1199951171875 10.26000022888184
489.8699951171875 450.9800109863281 9.149999618530273
490.5199890136719 446.0400085449219 10.23999977111816
490.3699951171875 446.6600036621094 10.44999980926514
490.2300109863281 447.2200012207031 10.55000019073486
489.510009765625 450.0700073242188 9.479999542236328
489.6199951171875 449.510009765625 9.670000076293945
489.2200012207031 451.1600036621094 9.109999656677246
489.7900085449219 448.9599914550781 9.920000076293945
489.0599975585938 451.7200012207031 8.850000381469727
490.6400146484375 445.489990234375 9.960000038146973
489.9299926757812 448.3500061035156 10.11999988555908
489.3599853515625 450.5700073242188 9.25
490.0799865722656 447.7900085449219 10.35000038146973
488.9200134277344 452.2699890136719 8.689999580383301
489.8200073242188 446.3299865722656 10.3100004196167
489.9500122070312 445.760009765625 10.03999996185303
489.5499877929688 447.4599914550781 10.46000003814697
489.739990234375 446.8699951171875 10.43000030517578
489.25 448.5899963378906 10.05000019073486
488.6499938964844 450.8099975585938 9.210000038146973
489.1300048828125 449.0899963378906 9.859999656677246
488.5299987792969 451.3500061035156 8.970000267028809
489.4100036621094 447.989990234375 10.22999954223633
488.8099975585938 450.2200012207031 9.409999847412109
488.9700012207031 449.6400146484375 9.619999885559082
488.3800048828125 451.9599914550781 8.779999732971191
489.1199951171875 446.5700073242188 10.35999965667725
488.9800109863281 447.1000061035156 10.55000019073486
488.2099914550781 449.8999938964844 9.539999961853027
489.25 445.9500122070312 10.14000034332275
488.8399963378906 447.6900024414062 10.40999984741211
487.739990234375 451.6199951171875 8.920000076293945
488.6700134277344 448.2699890136719 10.13000011444092
487.9100036621094 451 9.140000343322754
487.6300048828125 452.1099853515625 8.729999542236328
488.4800109863281 448.8599853515625 9.899999618530273
488.3800048828125 449.4100036621094 9.689999580383301
488.0499877929688 450.4800109863281 9.310000419616699
488.5700073242188 445.5799865722656 9.960000038146973
488.2799987792969 446.6700134277344 10.38000011444092
488.4100036621094 446.0899963378906 10.17000007629395
486.9299926757812 451.7300109863281 8.859999656677246
487.4100036621094 450.0499877929688 9.5
487.8399963378906 448.3599853515625 10.07999992370605
487.0799865722656 451.2099914550781 9.109999656677246
488.0199890136719 447.8200073242188 10.3100004196167
487.2699890136719 450.6300048828125 9.25
487.5499877929688 449.4500122070312 9.680000305175781
488.1300048828125 447.260009765625 10.5600004196167
486.260009765625 451.8800048828125 8.840000152587891
486.3800048828125 451.3599853515625 9.010000228881836
486.6700134277344 450.260009765625 9.439999580383301
487.6799926757812 448.9400024414062 9.899999618530273
486.5700073242188 450.7699890136719 9.210000038146973
487.4500122070312 447.4299926757812 10.46000003814697
485.5899963378906 452.2000122070312 8.659999847412109
487.7099914550781 446.2799987792969 10.22999954223633
486.8599853515625 449.7099914550781 9.640000343322754
487.8800048828125 445.7200012207031 10
487.2699890136719 448.0499877929688 10.25
487.5700073242188 446.8800048828125 10.46000003814697
487.1099853515625 448.6300048828125 10.02000045776367
486.989990234375 449.1400146484375 9.810000419616699
485.7300109863281 451.6300048828125 8.920000076293945
485.9200134277344 451.0499877929688 9.119999885559082
487.1900024414062 446 10.14000034332275
486.9299926757812 447.1600036621094 10.63000011444092
486.489990234375 448.7799987792969 9.970000267028809
487.0700073242188 446.5400085449219 10.35999965667725
486.2200012207031 449.9200134277344 9.529999732971191
486.3599853515625 449.3299865722656 9.75
486.6300048828125 448.260009765625 10.18000030517578
486.7900085449219 447.6799926757812 10.42000007629395
486.0299987792969 450.510009765625 9.329999923706055
485.6400146484375 449.7099914550781 9.640000343322754
485 451.9200134277344 8.789999961853027
485.5 450.239990234375 9.460000038146973
485.1900024414062 451.3699951171875 9
485.3500061035156 450.7999877929688 9.210000038146973
486.0799865722656 448 10.22999954223633
485.9299926757812 448.6400146484375 10.02999973297119
486.2200012207031 447.4299926757812 10.51000022888184
485.760009765625 449.1300048828125 9.859999656677246
486.3500061035156 446.8699951171875 10.46000003814697
485.2900085449219 448.2900085449219 11.19999980926514
486.6600036621094 445.7099914550781 10.07999992370605
485.4500122070312 447.6499938964844 10.43000030517578
485.260009765625 448.2200012207031 10.22999954223633
485.0400085449219 449.3599853515625 11.17000007629395
485.1600036621094 448.8200073242188 11.22000026702881
484.8699951171875 449.9500122070312 11.22000026702881
484.6799926757812 450.510009765625 9.390000343322754
486.4800109863281 446.3299865722656 10.23999977111816
484.5400085449219 451.0400085449219 9.159999847412109
485.7000122070312 446.489990234375 10.35000038146973
485.5799865722656 447.1099853515625 10.59000015258789
485.8399963378906 445.9500122070312 10.18000030517578
484.9700012207031 446.7699890136719 10.48999977111816
484.8599853515625 447.2999877929688 10.60999965667725
485.1099853515625 446.1499938964844 10.22999954223633
484.5899963378906 448.5 11.22000026702881
484.6600036621094 447.9400024414062 10.34000015258789
485.239990234375 445.5700073242188 10.03999996185303
484.5199890136719 448.4599914550781 10.15999984741211
484.5799865722656 445.8200073242188 10.02999973297119
499.2200012207031 444.6799926757812 9.75
499.3299865722656 444.1099853515625 9.539999961853027
499.0599975585938 445.2200012207031 9.930000305175781
498.4500122070312 444.9299926757812 9.829999923706055
498.260009765625 445.510009765625 10.05000019073486
498.5899963378906 444.3500061035156 9.539999961853027
498.8299865722656 443.3299865722656 9.210000038146973
499.1400146484375 442.2300109863281 8.779999732971191
497.739990234375 445.3299865722656 9.930000305175781
498.0199890136719 444.2300109863281 9.539999961853027
499.4700012207031 443.6000061035156 9.340000152587891
498.4400024414062 442.5499877929688 8.899999618530273
497.8900146484375 444.75 9.729999542236328
499.0199890136719 442.7699890136719 9.020000457763672
498.7000122070312 443.8299865722656 9.369999885559082
498.6000061035156 442.0299987792969 8.680000305175781
498.3099975585938 443.1300048828125 9.109999656677246
498.5 442.9500122070312 5.010000228881836
497.7099914550781 443.4700012207031 9.229999542236328
497.8399963378906 442.9500122070312 9.039999961853027
497.1099853515625 445.6499938964844 10.06999969482422
497.2699890136719 445.0899963378906 9.859999656677246
498.1700134277344 443.7300109863281 9.310000419616699
497.5400085449219 444 9.420000076293945
498.1000061035156 441.8299865722656 8.600000381469727
496.8699951171875 444.3099975585938 9.590000152587891
497.9500122070312 442.3999938964844 8.850000381469727
496.5899963378906 445.4299926757812 9.960000038146973
497.0199890136719 443.7699890136719 9.369999885559082
497.4400024414062 444.5299987792969 9.649999618530273
497.4700012207031 442.1099853515625 8.75
497.3200073242188 442.6099853515625 8.979999542236328
497.3599853515625 443.0700073242188 4.989999771118164
496.2699890136719 443.989990234375 9.399999618530273
496.1300048828125 444.510009765625 9.630000114440918
496.5499877929688 442.9100036621094 9.060000419616699
496.760009765625 444.8399963378906 9.729999542236328
497.1799926757812 443.2200012207031 9.159999847412109
495.989990234375 445.0599975585938 9.869999885559082
496.6799926757812 442.3900146484375 8.840000152587891
496.3999938964844 443.489990234375 9.220000267028809
495.3299865722656 445.1199951171875 11.31999969482422
495.4400024414062 444.8999938964844 9.770000457763672
495.8299865722656 443.2699890136719 9.180000305175781
496.1600036621094 442.1700134277344 8.729999542236328
494.9500122070312 444.6300048828125 9.670000076293945
495.2300109863281 443.5700073242188 9.300000190734863
494.7799987792969 445.1600036621094 9.890000343322754
495.5799865722656 444.3599853515625 9.609999656677246
495.6600036621094 441.9100036621094 8.720000267028809
495.5499877929688 442.8200073242188 5
495.3299865722656 443.0199890136719 9.090000152587891
495.5 442.4700012207031 8.930000305175781
495.989990234375 442.6799926757812 8.939999580383301
495.0700073242188 444.0599975585938 9.479999542236328
495.7099914550781 443.8399963378906 9.369999885559082
494.2300109863281 444.9700012207031 9.760000228881836
494.1199951171875 445.5599975585938 9.989999771118164
494.3699951171875 444.4500122070312 9.600000381469727
494.510009765625 443.9100036621094 9.380000114440918
494.6900024414062 443.3500061035156 9.180000305175781
494.8200073242188 442.739990234375 8.979999542236328
493.5 445.260009765625 9.880000114440918
493.6499938964844 444.6600036621094 9.689999580383301
493.7699890136719 444.1400146484375 9.449999809265137
494.9400024414062 442.239990234375 8.789999961853027
494.0599975585938 443.1000061035156 9.090000152587891
494.1600036621094 442.5499877929688 8.930000305175781
493.9299926757812 443.5899963378906 9.270000457763672
494.3399963378906 441.9800109863281 8.640000343322754
492.9100036621094 445.0400085449219 9.890000343322754
492.7999877929688 445.6400146484375 10.02999973297119
493.0400085449219 444.5499877929688 9.630000114440918
493.6400146484375 442.3200073242188 8.850000381469727
493.489990234375 442.8599853515625 9
493.1900024414062 443.989990234375 9.460000038146973
493.3699951171875 443.4400024414062 9.199999809265137
492.8500061035156 443.1700134277344 9.130000114440918
492.4200134277344 444.7999877929688 9.739999771118164
493 442.6700134277344 8.909999847412109
492.3200073242188 445.3500061035156 10.02000045776367
492.7000122070312 443.75 9.340000152587891
493.1700134277344 442.1000061035156 8.699999809265137
492.5700073242188 444.239990234375 9.539999961853027
492.1900024414062 443.4599914550781 9.220000267028809
491.8699951171875 444.5700073242188 9.689999580383301
492.3399963378906 442.9100036621094 9
492 444.0700073242188 9.420000076293945
492.4800109863281 442.3599853515625 8.829999923706055
491.75 445.0899963378906 9.829999923706055
491.1300048828125 444.760009765625 9.699999809265137
490.9599914550781 445.3399963378906 9.930000305175781
491.6499938964844 442.6600036621094 8.920000076293945
491.2699890136719 444.2699890136719 9.510000228881836
491.7999877929688 442.1000061035156 8.659999847412109
491.8999938964844 442.3299865722656 5.300000190734863
491.7300109863281 442.9200134277344 5.380000114440918
491.3999938964844 443.6900024414062 9.319999694824219
491.5400085449219 443.1799926757812 9.100000381469727
490.5400085449219 444.6799926757812 9.670000076293945
490.3800048828125 445.2099914550781 9.880000114440918
490.6499938964844 444.1600036621094 9.489999771118164
491.239990234375 441.9100036621094 8.5
490.8099975585938 443.5799865722656 9.229999542236328
491.1199951171875 442.5 8.840000152587891
490.9800109863281 442.989990234375 9.029999732971191
491.2000122070312 442.6900024414062 5.380000114440918
489.739990234375 445.5400085449219 9.960000038146973
490.3099975585938 443.3599853515625 9.180000305175781
490.6900024414062 442.2699890136719 6.400000095367432
490.4400024414062 442.8599853515625 8.979999542236328
489.9200134277344 444.9400024414062 9.789999961853027
490.5899963378906 442.2900085449219 8.720000267028809
490.8599853515625 441.6099853515625 6.480000019073486
490.0700073242188 444.4400024414062 9.550000190734863
490.1700134277344 443.9299926757812 9.369999885559082
490.75 442.0299987792969 7.460000038146973
489.2300109863281 445.2799987792969 9.920000076293945
489.5299987792969 444.260009765625 9.470000267028809
490.0799865722656 442.5 6.690000057220459
489.6799926757812 443.6400146484375 9.270000457763672
490.2200012207031 441.8900146484375 6.449999809265137
489.0199890136719 443.3999938964844 9.180000305175781
490.25 441.6799926757812 7.389999866485596
488.6499938964844 445.0199890136719 9.770000457763672
490.0899963378906 441.9700012207031 8.710000038146973
488.4700012207031 445.5299987792969 9.979999542236328
488.7799987792969 444.4200134277344 9.600000381469727
489.3599853515625 444.7699890136719 9.699999809265137
488.9200134277344 443.8900146484375 9.399999618530273
489.4700012207031 442.0199890136719 7.559999942779541
489.4200134277344 442.25 6.46999979019165
489.9299926757812 442.5799865722656 8.890000343322754
489.5700073242188 441.6600036621094 6.400000095367432
489.1600036621094 442.8500061035156 9
489.3500061035156 442.2900085449219 8.75
489.7999877929688 443.0799865722656 9.079999923706055
487.9100036621094 445.3800048828125 9.920000076293945
488.3099975585938 443.7799987792969 9.350000381469727
488.0299987792969 444.8599853515625 9.75
488.7000122070312 442.6199951171875 6.539999961853027
488.6300048828125 442.7099914550781 8.899999618530273
488.7799987792969 442.0799865722656 8.640000343322754
488.8599853515625 442 6.480000019073486
488.1900024414062 444.2999877929688 9.550000190734863
488.8699951171875 441.7900085449219 7.489999771118164
488.4700012207031 443.1600036621094 9.130000114440918
487.5499877929688 444.6300048828125 9.630000114440918
487.7999877929688 443.6000061035156 9.260000228881836
487.9700012207031 443.0400085449219 9.020000457763672
488.1900024414062 442.4800109863281 6.460000038146973
487.3900146484375 445.1700134277344 9.819999694824219
487.6900024414062 444.0799865722656 9.420000076293945
488.3299865722656 441.8800048828125 6.480000019073486
488.1000061035156 442.4500122070312 8.859999656677246
486.8399963378906 445.0299987792969 9.789999961853027
486.7300109863281 445.5799865722656 9.979999542236328
487.2699890136719 443.3699951171875 9.180000305175781
487.1499938964844 443.9100036621094 9.350000381469727
487.5400085449219 442.8099975585938 6.519999980926514
486.9800109863281 444.5199890136719 9.550000190734863
487.7000122070312 442.2000122070312 6.369999885559082
487.4500122070312 442.8299865722656 8.960000038146973
487.5599975585938 442.2799987792969 8.75
487.7300109863281 441.9400024414062 7.510000228881836
486.3699951171875 444.25 9.529999732971191
486.1199951171875 445.3399963378906 9.909999847412109
486.2300109863281 444.7699890136719 9.689999580383301
486.5299987792969 443.7000122070312 9.329999923706055
486.9299926757812 442.1099853515625 8.649999618530273
487.0899963378906 441.7900085449219 7.510000228881836
486.8299865722656 442.6300048828125 8.859999656677246
486.6400146484375 443.2000122070312 9.119999885559082
487.0400085449219 442 6.480000019073486
486.9200134277344 442.6600036621094 6.480000019073486
485.989990234375 443.5599975585938 9.210000038146973
486.1199951171875 443.0299987792969 9.090000152587891
485.6700134277344 444.6900024414062 9.659999847412109
485.5299987792969 445.25 9.859999656677246
485.8200073242188 444.1300048828125 9.470000267028809
486.3500061035156 442.4599914550781 6.429999828338623
486.5400085449219 441.7900085449219 6.440000057220459
486.2900085449219 442.4599914550781 8.840000152587891
484.9400024414062 445.489990234375 9.970000267028809
485.3500061035156 443.9200134277344 9.359999656677246
485.2200012207031 444.4599914550781 9.590000152587891
486 441.6700134277344 6.429999828338623
485.8800048828125 442.239990234375 6.420000076293945
485.8699951171875 441.989990234375 7.519999980926514
485.6099853515625 442.8099975585938 8.979999542236328
485.489990234375 443.3699951171875 9.170000076293945
485.7099914550781 442.8099975585938 6.559999942779541
485.0799865722656 444.989990234375 9.779999732971191
485.7799987792969 442.2799987792969 8.689999580383301
485.2099914550781 442.5 6.369999885559082
485.0700073242188 442.5599975585938 8.829999923706055
484.9599914550781 443.1199951171875 9.069999694824219
485.239990234375 442.239990234375 7.5
484.6700134277344 444.1799926757812 9.479999542236328
484.7900085449219 443.6300048828125 9.239999771118164
485.3299865722656 441.8900146484375 6.46999979019165
484.4299926757812 442.3399963378906 8.710000038146973
499.5799865722656 450.510009765625 9.300000190734863
499.3900146484375 451.1700134277344 9.029999732971191
499.7300109863281 449.8500061035156 9.520000457763672
499.239990234375 451.8299865722656 8.75
498.8800048828125 450.8999938964844 9.149999618530273
499 450.2099914550781 9.380000114440918
499.3200073242188 448.8299865722656 9.909999847412109
498.7200012207031 451.5299987792969 8.880000114440918
498.3699951171875 450.5700073242188 9.270000457763672
499.1600036621094 447.2999877929688 10.5
498.8399963378906 448.6199951171875 9.989999771118164
499.4100036621094 446.1700134277344 10.27000045776367
498.9800109863281 447.9500122070312 10.25
498.510009765625 449.9800109863281 9.479999542236328
498.6799926757812 449.2300109863281 9.760000228881836
499.489990234375 448.1600036621094 10.14000034332275
499.1900024414062 449.489990234375 9.630000114440918
499.3200073242188 446.6499938964844 10.5
498.1000061035156 451.9500122070312 8.670000076293945
498.2300109863281 451.2900085449219 8.989999771118164
497.6900024414062 450.8699951171875 9.119999885559082
497.5799865722656 451.4700012207031 8.890000343322754
498.2000122070312 448.739990234375 9.930000305175781
498.010009765625 449.4700012207031 9.710000038146973
498.8900146484375 445.7999877929688 10.07999992370605
498.760009765625 446.3099975585938 10.36999988555908
498.489990234375 447.4500122070312 10.46000003814697
498.6400146484375 446.9100036621094 10.55000019073486
498.3399963378906 448.1099853515625 10.18000030517578
497.8900146484375 450.1499938964844 9.399999618530273
497.3900146484375 452.1700134277344 8.710000038146973
496.7900085449219 451.8299865722656 8.810000419616699
497.0899963378906 450.5 9.310000419616699
496.8999938964844 451.2099914550781 9
497.5499877929688 448.510009765625 10.03999996185303
498.1499938964844 446.0700073242188 10.23999977111816
497.2200012207031 449.8399963378906 9.5
497.3999938964844 449.1499938964844 9.810000419616699
497.8399963378906 447.1700134277344 10.52000045776367
498 446.5799865722656 10.44999980926514
497.6600036621094 447.9100036621094 10.27999973297119
496.3599853515625 450.9800109863281 9.149999618530273
496.2200012207031 451.5899963378906 8.890000343322754
497.1499938964844 447.5700073242188 10.39999961853027
496.8800048828125 448.8999938964844 9.920000076293945
497.4599914550781 446.4599914550781 10.39000034332275
496.7200012207031 449.5499877929688 9.619999885559082
496.5499877929688 450.25 9.390000343322754
497.2900085449219 446.9400024414062 10.60000038146973
497.6099853515625 445.8900146484375 10.18000030517578
496.989990234375 448.260009765625 10.14999961853027
495.9100036621094 450.6799926757812 9.239999771118164
496.6600036621094 447.3999938964844 10.44999980926514
496.0499877929688 450.0700073242188 9.439999580383301
495.6199951171875 452.0400085449219 8.659999847412109
496.3900146484375 448.760009765625 9.899999618530273
496.5400085449219 448.1000061035156 10.15999984741211
496.8200073242188 446.7300109863281 10.52999973297119
496.1700134277344 447.0299987792969 10.5600004196167
496.3200073242188 446.5299987792969 10.34000015258789
495.7300109863281 451.4200134277344 8.970000267028809
496.9599914550781 446.2300109863281 10.30000019073486
496.2000122070312 449.3900146484375 9.699999809265137
496.0299987792969 447.7000122070312 10.31999969482422
496.4800109863281 445.9599914550781 10.14000034332275
495.25 451.0499877929688 9.060000419616699
495.6000061035156 449.6799926757812 9.560000419616699
495.7200012207031 448.9700012207031 9.880000114440918
495.1300048828125 451.7300109863281 8.869999885559082
495.8599853515625 448.3500061035156 10.07999992370605
495.4200134277344 450.3599853515625 9.380000114440918
494.7900085449219 450.0299987792969 9.460000038146973
495.0899963378906 448.7000122070312 10
494.3599853515625 452.0499877929688 8.710000038146973
495.2300109863281 448.0799865722656 10.23999977111816
495.5799865722656 446.7900085449219 10.5
494.5 451.3800048828125 8.960000038146973
495.6900024414062 446.2099914550781 10.30000019073486
495.4299926757812 447.3900146484375 10.44999980926514
494.9700012207031 449.3800048828125 9.720000267028809
495.8599853515625 445.7000122070312 10.11999988555908
494.6300048828125 450.7000122070312 9.229999542236328
494.1099853515625 450.3999938964844 9.310000419616699
493.760009765625 451.75 8.880000114440918
495.1400146484375 445.6799926757812 11.53999996185303
494.7200012207031 447.7000122070312 10.36999988555908
495.1400146484375 445.989990234375 10.18000030517578
494.8699951171875 447.1099853515625 10.56999969482422
494.4299926757812 449.0400085449219 9.890000343322754
494.5400085449219 448.3800048828125 10.10000038146973
493.9400024414062 451.1099853515625 9.050000190734863
494.9800109863281 446.5400085449219 10.40999984741211
493.4500122070312 450.8099975585938 9.159999847412109
493.6000061035156 450.1900024414062 9.430000305175781
494.3399963378906 446.8500061035156 10.52000045776367
494.0499877929688 448.1900024414062 10.13000011444092
494.4800109863281 446.3200073242188 10.30000019073486
494.6600036621094 445.760009765625 10.09000015258789
494.1799926757812 447.510009765625 10.46000003814697
493.9100036621094 448.8500061035156 9.890000343322754
494.2300109863281 449.7300109863281 9.579999923706055
493.75 449.4700012207031 9.670000076293945
493.2699890136719 451.510009765625 8.899999618530273
493.1400146484375 452.1199951171875 8.75
493.5400085449219 447.8500061035156 10.30000019073486
493.0899963378906 449.8099975585938 9.520000457763672
493.8299865722656 446.6400146484375 10.44999980926514
493.3699951171875 448.4500122070312 10.05000019073486
493.239990234375 449.1000061035156 9.840000152587891
492.5799865722656 451.8500061035156 8.800000190734863
492.7699890136719 451.1700134277344 9.029999732971191
493.9500122070312 446.0400085449219 10.22000026702881
492.8999938964844 450.489990234375 9.289999961853027
493.7000122070312 447.1799926757812 10.55000019073486
491.8299865722656 452.1799926757812 8.689999580383301
491.9800109863281 451.5599975585938 8.909999847412109
492.2699890136719 450.2099914550781 9.409999847412109
492.7200012207031 448.2200012207031 10.14999961853027
493.0299987792969 446.8999938964844 10.53999996185303
492.1400146484375 450.8500061035156 9.130000114440918
493.3200073242188 445.7999877929688 10.10000038146973
492.4299926757812 449.5 9.689999580383301
492.5599975585938 448.9200134277344 9.920000076293945
493.1700134277344 446.3800048828125 10.31999969482422
492.8800048828125 447.5299987792969 10.4399995803833
491.260009765625 451.9700012207031 8.789999961853027
491.5799865722656 450.5899963378906 9.270000457763672
491.4100036621094 451.2999877929688 9.010000228881836
492.3299865722656 447.3200073242188 10.5
492.6099853515625 446.1799926757812 10.22000026702881
491.7200012207031 449.9400024414062 9.560000419616699
492.4700012207031 446.7300109863281 10.46000003814697
492.1900024414062 447.9400024414062 10.22999954223633
491.8900146484375 449.2099914550781 9.800000190734863
492.0700073242188 448.5899963378906 10.02999973297119
490.6400146484375 452.3200073242188 8.739999771118164
491.25 449.6799926757812 9.619999885559082
490.9599914550781 451.0499877929688 9.149999618530273
491.4100036621094 449.0299987792969 9.840000152587891
492.0199890136719 446.5 10.35999965667725
491.5499877929688 448.3900146484375 10.13000011444092
491.7200012207031 447.7099914550781 10.40999984741211
491.8399963378906 447.0499877929688 10.55000019073486
490.760009765625 451.7200012207031 8.880000114440918
492.1600036621094 445.9299926757812 10.19999980926514
491.0799865722656 450.3500061035156 9.380000114440918
490.0899963378906 451.9700012207031 8.739999771118164
490.7200012207031 449.239990234375 9.770000457763672
491 447.989990234375 10.26000022888184
490.5499877929688 449.9599914550781 9.5
491.4400024414062 446.2099914550781 10.21000003814697
490.2300109863281 451.3500061035156 9.020000457763672
491.1499938964844 447.3699951171875 10.5
491.6099853515625 445.6600036621094 10
491.2900085449219 446.7699890136719 10.44999980926514
490.8599853515625 448.6199951171875 10.05000019073486
490.4299926757812 450.6400146484375 9.270000457763672
489.3200073242188 452.2900085449219 8.760000228881836
490.0400085449219 449.0499877929688 9.880000114440918
490.510009765625 447.0199890136719 10.5600004196167
489.9100036621094 449.6499938964844 9.640000343322754
489.6000061035156 450.9700012207031 9.159999847412109
489.7799987792969 450.3699951171875 9.380000114440918
489.4599914550781 451.7000122070312 8.869999885559082
490.2099914550781 448.3500061035156 10.13000011444092
490.6400146484375 446.5199890136719 10.32999992370605
490.3500061035156 447.7200012207031 10.38000011444092
490.8099975585938 445.8999938964844 10.13000011444092
488.7300109863281 452.1199951171875 8.720000267028809
488.9200134277344 451.4800109863281 8.989999771118164
489.0299987792969 450.7999877929688 9.239999771118164
489.5 448.75 9.970000267028809
489.2200012207031 450.0700073242188 9.460000038146973
490.0899963378906 446.2999877929688 10.3100004196167
489.3599853515625 449.3900146484375 9.739999771118164
490.2300109863281 445.7699890136719 10.10999965667725
489.9400024414062 446.9100036621094 10.51000022888184
489.6900024414062 448.1099853515625 10.22000026702881
489.8299865722656 447.5 10.43000030517578
488.6900024414062 449.8999938964844 9.550000190734863
488.5299987792969 450.5899963378906 9.279999732971191
488.8800048828125 449.239990234375 9.770000457763672
489.6300048828125 446.1300048828125 10.19999980926514
489.4500122070312 446.6799926757812 10.42000007629395
488.3900146484375 451.2099914550781 9.069999694824219
488.2300109863281 451.9100036621094 8.800000190734863
488.989990234375 448.6000061035156 10.03999996185303
489.3099975585938 447.2300109863281 10.53999996185303
489.1799926757812 447.8900146484375 10.27999973297119
488.5299987792969 448.2300109863281 10.18000030517578
488.6400146484375 447.6000061035156 10.38000011444092
489.1000061035156 445.8599853515625 10.05000019073486
488.8200073242188 446.9299926757812 10.57999992370605
488.9700012207031 446.4299926757812 10.31999969482422
487.739990234375 451.5799865722656 8.909999847412109
488.3500061035156 448.8399963378906 9.970000267028809
488.0700073242188 450.2099914550781 9.399999618530273
487.8900146484375 450.8699951171875 9.159999847412109
487.5700073242188 452.2300109863281 8.710000038146973
488.2099914550781 449.4800109863281 9.680000305175781
486.9700012207031 451.9299926757812 8.819999694824219
487.260009765625 450.5899963378906 9.270000457763672
487.1400146484375 451.2099914550781 9.060000419616699
487.8599853515625 447.9400024414062 10.27999973297119
487.5499877929688 449.2999877929688 9.800000190734863
487.75 448.6199951171875 10
488.1700134277344 446.6799926757812 10.40999984741211
488.0299987792969 447.2300109863281 10.52999973297119
488.3399963378906 446.1000061035156 10.21000003814697
487.4100036621094 449.9100036621094 9.529999732971191
486.5400085449219 451.010009765625 9.149999618530273
486.7099914550781 450.2999877929688 9.380000114440918
487.010009765625 448.9700012207031 9.890000343322754
487.3099975585938 447.6700134277344 10.39000034332275
487.760009765625 445.9700012207031 10.10999965667725
486.3900146484375 451.6600036621094 8.909999847412109
486.2699890136719 452.3299865722656 8.75
487.6300048828125 446.4599914550781 10.35000038146973
487.1799926757812 448.3200073242188 10.14000034332275
486.8500061035156 449.6499938964844 9.680000305175781
487.4800109863281 447.1000061035156 10.60000038146973
485.9100036621094 451.4700012207031 8.989999771118164
486.3399963378906 449.4700012207031 9.729999542236328
486.9800109863281 446.8900146484375 10.44999980926514
486.2200012207031 450.1400146484375 9.520000457763672
487.1099853515625 446.2999877929688 10.23999977111816
486.0199890136719 450.8299865722656 9.25
487.239990234375 445.7300109863281 10.05000019073486
486.8299865722656 447.4400024414062 10.51000022888184
485.7099914550781 452.1700134277344 8.699999809265137
486.489990234375 448.8399963378906 9.939999580383301
486.6400146484375 448.1600036621094 10.22999954223633
485.2000122070312 451.8900146484375 8.829999923706055
485.3900146484375 451.2000122070312 9.109999656677246
486.2900085449219 447.2200012207031 10.59000015258789
485.9800109863281 448.510009765625 10.05000019073486
485.5400085449219 450.510009765625 9.310000419616699
485.7000122070312 449.7999877929688 9.569999694824219
486.5899963378906 446.1300048828125 10.17000007629395
485.8200073242188 449.1600036621094 9.869999885559082
486.1099853515625 447.9100036621094 10.34000015258789
486.4500122070312 446.6900024414062 10.43000030517578
484.75 450.9800109863281 9.189999580383301
485.2099914550781 448.6799926757812 11.22999954223633
485.5 447.6499938964844 10.42000007629395
485.6799926757812 447.0299987792969 10.59000015258789
484.6000061035156 451.6400146484375 8.880000114440918
485.9599914550781 445.8599853515625 10.13000011444092
485.0599975585938 449.2699890136719 11.23999977111816
484.9500122070312 449.8800048828125 11.1899995803833
485.3399963378906 448.2900085449219 10.23999977111816
485.7900085449219 446.4500122070312 10.32999992370605
484.6799926757812 448.7799987792969 9.960000038146973
484.5499877929688 449.0199890136719 11.22999954223633
485.1099853515625 446.8500061035156 10.44999980926514
484.7999877929688 448.1499938964844 10.21000003814697
485.239990234375 446.3399963378906 10.27999973297119
484.9800109863281 447.510009765625 10.51000022888184
484.6799926757812 448.4500122070312 11.25
485.3999938964844 445.75 10.06999969482422
484.6199951171875 446.6199951171875 10.39999961853027
484.7799987792969 446.0700073242188 10.21000003814697
484.4800109863281 447.2200012207031 10.63000011444092
499.4400024414062 442.2300109863281 8.779999732971191
499.0299987792969 444.1199951171875 9.560000419616699
499.1300048828125 443.5299987792969 9.279999732971191
499.3099975585938 442.8699951171875 9.029999732971191
498.75 445.2900085449219 10.02000045776367
498.6199951171875 442.8800048828125 5.349999904632568
498.6600036621094 442.8900146484375 6.769999980926514
498.4800109863281 443.7300109863281 9.359999656677246
498.7999877929688 442.510009765625 8.869999885559082
498.9299926757812 441.8999938964844 8.619999885559082
498.1700134277344 444.989990234375 9.840000152587891
499.5400085449219 444.9400024414062 9.729999542236328
498.3399963378906 444.2900085449219 9.590000152587891
498.0199890136719 442.8999938964844 4.860000133514404
498.8800048828125 444.6900024414062 9.729999542236328
498.1199951171875 442.9800109863281 9.050000190734863
498.239990234375 442.2900085449219 8.810000419616699
498.0499877929688 442.8900146484375 6.25
497.8200073242188 444.1600036621094 9.560000419616699
498.6600036621094 443.1300048828125 9.159999847412109
497.6900024414062 444.739990234375 9.739999771118164
497.9400024414062 443.5700073242188 9.310000419616699
497.5499877929688 445.3999938964844 9.970000267028809
497.4100036621094 442.760009765625 5.829999923706055
497.3900146484375 443.25 9.159999847412109
497.5599975585938 442.6099853515625 8.939999580383301
497.6600036621094 442.010009765625 8.680000305175781
497.2200012207031 443.8399963378906 9.350000381469727
497.3699951171875 443.010009765625 6.869999885559082
497.0700073242188 444.4500122070312 9.600000381469727
496.7300109863281 442.9400024414062 9.119999885559082
496.8599853515625 442.3099975585938 8.829999923706055
496.3900146484375 444.2300109863281 9.520000457763672
496.1199951171875 445.3900146484375 9.979999542236328
496.9500122070312 445.0499877929688 9.829999923706055
496.6900024414062 442.9299926757812 6.300000190734863
496.5599975585938 443.6099853515625 9.340000152587891
496.260009765625 444.7799987792969 9.779999732971191
495.5899963378906 445.25 10.97999954223633
495.9100036621094 443.8299865722656 9.390000343322754
496.2200012207031 442.5799865722656 8.949999809265137
496.3599853515625 442.010009765625 8.630000114440918
495.6099853515625 445.0899963378906 9.819999694824219
496.0700073242188 443.2099914550781 9.149999618530273
495.7999877929688 444.4299926757812 9.579999923706055
496.0599975585938 442.9599914550781 6.869999885559082
496.0299987792969 442.9599914550781 5.480000019073486
495.7000122070312 442.3800048828125 8.859999656677246
495.5199890136719 442.8299865722656 5.210000038146973
495.3800048828125 443.7000122070312 9.310000419616699
495 445.3500061035156 10.22999954223633
495.1099853515625 444.8599853515625 9.770000457763672
495.5700073242188 443.0899963378906 9.050000190734863
495.5199890136719 442.9200134277344 6.400000095367432
