18.02000045776367 410.3599853515625 13.64000034332275
17.5 410.4800109863281 13.35000038146973
20.29000091552734 410.5299987792969 13.90999984741211
19.6299991607666 410.7000122070312 14.15999984741211
19.02000045776367 410.8500061035156 14.02999973297119
18.5 410.9700012207031 13.8100004196167
17.89999961853027 411.1199951171875 13.68000030517578
17.35000038146973 411.260009765625 13.42000007629395
21.29000091552734 411 13.88000011444092
20.60000038146973 411.1799926757812 14.1899995803833
19.93000030517578 411.3500061035156 14.21000003814697
19.30999946594238 411.5 14.14999961853027
18.75 411.6400146484375 13.86999988555908
18.20000076293945 411.7799987792969 13.69999980926514
17.63999938964844 411.9100036621094 13.52999973297119
21.72999954223633 411.5499877929688 13.84000015258789
20.3700008392334 411.8999938964844 14.18000030517578
19.81999969482422 412.0299987792969 13.9399995803833
19.22999954223633 412.1799926757812 13.78999996185303
21.47999954223633 412.2099914550781 13.73999977111816
20.8799991607666 412.3599853515625 13.71000003814697
17.86000061035156 410.0599975585938 13.63000011444092
17.14999961853027 410.989990234375 13.67000007629395
17.70999908447266 410.8500061035156 13.63000011444092
18.26000022888184 410.7099914550781 13.69999980926514
19.45999908447266 410.4100036621094 13.73999977111816
17.59000015258789 411.5799865722656 13.57999992370605
18.15999984741211 411.4299926757812 13.71000003814697
18.70999908447266 411.2900085449219 13.97999954223633
19.29999923706055 411.1400146484375 14.13000011444092
19.84000015258789 411.010009765625 14.17000007629395
20.3799991607666 410.8699951171875 14.17000007629395
20.96999931335449 410.7300109863281 13.9399995803833
21.56999969482422 410.5799865722656 13.71000003814697
18.56999969482422 411.9100036621094 13.72000026702881
19.13999938964844 411.760009765625 14.07999992370605
19.71999931335449 411.6199951171875 14.1899995803833
20.27000045776367 411.4800109863281 14.1899995803833
20.81999969482422 411.3399963378906 14.17000007629395
21.36000061035156 411.2099914550781 13.86999988555908
21.93000030517578 411.0700073242188 13.78999996185303
20.04999923706055 412.2099914550781 13.76000022888184
20.61000061035156 412.0700073242188 13.89999961853027
21.18000030517578 411.9200134277344 13.88000011444092
21.79000091552734 411.7699890136719 13.8100004196167
18.53000068664551 410.2900085449219 13.44999980926514
17.98999977111816 410.4299926757812 13.68000030517578
20.25 410.4700012207031 13.85999965667725
19.75 410.6000061035156 14.17000007629395
19.17000007629395 410.75 14.11999988555908
18.40999984741211 410.9299926757812 13.73999977111816
17.78000068664551 411.0899963378906 13.67000007629395
21.95999908447266 410.739990234375 13.64999961853027
21.42000007629395 410.8800048828125 13.90999984741211
20.81999969482422 411.0400085449219 14.13000011444092
20.22999954223633 411.1799926757812 14.19999980926514
19.63999938964844 411.3299865722656 14.19999980926514
18.34000015258789 411.6499938964844 13.72999954223633
17.71999931335449 411.7999877929688 13.5
21.8799991607666 411.5 13.72999954223633
21.34000015258789 411.6400146484375 13.93000030517578
20.77000045776367 411.7799987792969 14.14999961853027
20.20000076293945 411.9299926757812 14.22000026702881
19.51000022888184 412.0899963378906 13.72999954223633
21.70000076293945 412.2300109863281 13.6899995803833
18.45000076293945 410.5199890136719 13.69999980926514
19.67000007629395 410.8599853515625 14.15999984741211
20.3799991607666 410.6799926757812 14.14000034332275
20.90999984741211 410.5499877929688 13.81999969482422
19.93000030517578 411.5400085449219 14.22000026702881
20.65999984741211 411.3599853515625 14.11999988555908
21.30999946594238 411.2000122070312 13.9399995803833
21.95000076293945 411.0400085449219 13.75
20.97999954223633 411.9700012207031 13.94999980926514
21.63999938964844 411.8099975585938 13.85999965667725
22.20999908447266 411.6700134277344 13.47999954223633
17.68000030517578 411.7099914550781 13.59000015258789
18.27000045776367 411.8500061035156 13.75
18.8799991607666 412.010009765625 13.84000015258789
17.20999908447266 411.0400085449219 13.10000038146973
17.69000053405762 411.1499938964844 13.63000011444092
18.27000045776367 411.2999877929688 13.76000022888184
18.85000038146973 411.4400024414062 13.96000003814697
19.38999938964844 411.5700073242188 14.14999961853027
19.97999954223633 411.7200012207031 14.1899995803833
20.65999984741211 411.8900146484375 14.10000038146973
21.40999984741211 412.0799865722656 13.80000019073486
17.80999946594238 410.489990234375 13.57999992370605
18.39999961853027 410.6400146484375 13.72999954223633
18.97999954223633 410.7799987792969 13.96000003814697
19.53000068664551 410.9200134277344 14.17000007629395
20.1200008392334 411.0599975585938 14.19999980926514
20.73999977111816 411.2200012207031 14.15999984741211
21.43000030517578 411.3999938964844 13.84000015258789
18.95000076293945 410.1400146484375 13.78999996185303
20.26000022888184 410.4700012207031 13.63000011444092
20.81999969482422 410.6099853515625 13.85999965667725
21.45999908447266 410.7699890136719 13.80000019073486
22.1200008392334 411.0700073242188 13.47000026702881
21.57999992370605 410.9400024414062 13.77999973297119
20.96999931335449 410.7900085449219 14
20.44000053405762 410.6600036621094 14.07999992370605
19.8799991607666 410.5199890136719 13.9399995803833
19.30999946594238 410.3699951171875 13.77999973297119
18.71999931335449 410.2300109863281 13.75
18.18000030517578 410.0899963378906 13.6899995803833
21.68000030517578 411.6000061035156 13.81999969482422
20.5 411.3099975585938 14.17000007629395
19.96999931335449 411.1799926757812 14.19999980926514
19.40999984741211 411.0299987792969 14.17000007629395
18.32999992370605 410.760009765625 13.71000003814697
17.76000022888184 410.6199951171875 13.59000015258789
21.28000068664551 412.1499938964844 13.78999996185303
20.67000007629395 412 14.05000019073486
20.13999938964844 411.8699951171875 14.18000030517578
19.56999969482422 411.7300109863281 14.18000030517578
19.01000022888184 411.5899963378906 13.98999977111816
18.40999984741211 411.4299926757812 13.75
17.88999938964844 411.2999877929688 13.65999984741211
21.80999946594238 412.2799987792969 13.65999984741211
18.17000007629395 411.9800109863281 13.77999973297119
17.90999984741211 411.2200012207031 13.69999980926514
18.47999954223633 411.3599853515625 13.71000003814697
19.25 411.5400085449219 14.13000011444092
19.81999969482422 411.6799926757812 14.19999980926514
20.40999984741211 411.8200073242188 14.15999984741211
20.97999954223633 411.9599914550781 14
21.59000015258789 412.1199951171875 13.8100004196167
18.28000068664551 410.6799926757812 13.68000030517578
19.67000007629395 411.010009765625 14.19999980926514
20.26000022888184 411.1600036621094 14.1899995803833
20.82999992370605 411.2999877929688 14.14000034332275
21.3700008392334 411.4299926757812 13.97000026702881
21.8799991607666 411.5599975585938 13.76000022888184
19.29000091552734 410.260009765625 13.73999977111816
20.5 410.5599975585938 13.89000034332275
21.14999961853027 410.7099914550781 13.89999961853027
21.73999977111816 410.8599853515625 13.82999992370605
22.14999961853027 410.9700012207031 13.03999996185303
22.20999908447266 411.260009765625 13.47000026702881
21.65999984741211 411.1300048828125 13.82999992370605
21.04000091552734 410.9800109863281 13.94999980926514
20.36000061035156 410.8200073242188 14.17000007629395
21.8799991607666 411.8699951171875 13.76000022888184
21.28000068664551 411.7300109863281 13.98999977111816
20.67000007629395 411.5799865722656 14.19999980926514
19.98999977111816 411.4100036621094 14.25
19.30999946594238 411.25 14.28999996185303
20.8799991607666 412.4400024414062 13.71000003814697
20.11000061035156 412.25 13.71000003814697
