230.3500061035156 457.2699890136719 11.93000030517578
229.8200073242188 457.3999938964844 11.61999988555908
230.6600036621094 456.6499938964844 12.01000022888184
230.0299987792969 456.8099975585938 11.97000026702881
230.7400054931641 456.0299987792969 12.47999954223633
230.1100006103516 456.1900024414062 12.3100004196167
230.3500061035156 455.489990234375 12.36999988555908
229.6699981689453 455.6700134277344 12.35000038146973
230.6100006103516 454.8699951171875 12.32999992370605
229.8800048828125 455.0599975585938 12.35000038146973
230.7700042724609 453.739990234375 11.90999984741211
230.0700073242188 453.9200134277344 11.89000034332275
230.4199981689453 453.1400146484375 11.71000003814697
229.5 453.489990234375 11.8100004196167
230.1100006103516 453.3399963378906 11.82999992370605
230.7200012207031 453.1799926757812 11.73999977111816
229.3399963378906 454.239990234375 11.90999984741211
229.9400024414062 454.0899963378906 11.88000011444092
230.5299987792969 453.9400024414062 11.85999965667725
231.0899963378906 453.7999877929688 11.96000003814697
229.2200012207031 454.9500122070312 12.06999969482422
229.8200073242188 454.7999877929688 12.31999969482422
230.4100036621094 454.6499938964844 12.32999992370605
231.0800018310547 454.489990234375 12.01000022888184
229.6000061035156 455.4400024414062 12.34000015258789
230.1699981689453 455.2999877929688 12.38000011444092
230.7700042724609 455.1499938964844 12.35000038146973
229.4600067138672 456.1400146484375 12.21000003814697
230.0500030517578 455.989990234375 12.36999988555908
230.6600036621094 455.8399963378906 12.35000038146973
229.3500061035156 456.8599853515625 11.92000007629395
229.9700012207031 456.7099914550781 12.02000045776367
230.5 456.5799865722656 12.10999965667725
231.1399993896484 456.4200134277344 12.01000022888184
229.2799987792969 457.510009765625 11.86999988555908
229.8699951171875 457.3699951171875 11.94999980926514
230.4499969482422 457.2200012207031 11.97000026702881
231.0599975585938 457.0700073242188 11.98999977111816
231.1100006103516 457.2999877929688 11.88000011444092
230.5700073242188 457.4400024414062 11.80000019073486
229.9400024414062 457.6000061035156 11.63000011444092
230.6499938964844 456.6900024414062 11.98999977111816
230.0700073242188 456.8299865722656 12
229.4700012207031 456.989990234375 11.98999977111816
231.3200073242188 455.8299865722656 12.1899995803833
230.7400054931641 455.9800109863281 12.28999996185303
230.1799926757812 456.1199951171875 12.32999992370605
229.5899963378906 456.2699890136719 12.30000019073486
231.3800048828125 455.2099914550781 12.14000034332275
230.8500061035156 455.3500061035156 12.26000022888184
230.2700042724609 455.5 12.35999965667725
229.6699981689453 455.6499938964844 12.35999965667725
230.9400024414062 454.6300048828125 11.90999984741211
230.3999938964844 454.7699890136719 12.30000019073486
229.8300018310547 454.9100036621094 12.31999969482422
229.2200012207031 455.0700073242188 11.97000026702881
231.0099945068359 453.8299865722656 11.84000015258789
230.4400024414062 453.9700012207031 11.88000011444092
229.8600006103516 454.1199951171875 11.88000011444092
229.2700042724609 454.2699890136719 12.02000045776367
230.5 453.239990234375 11.77000045776367
229.9299926757812 453.3800048828125 11.81999969482422
229.3699951171875 453.5199890136719 11.84000015258789
230.0200042724609 452.739990234375 11.25
229.4600067138672 452.8900146484375 11.35000038146973
229.3300018310547 453.5700073242188 12.01000022888184
229.9400024414062 453.4200134277344 11.82999992370605
230.5500030517578 453.2699890136719 11.77000045776367
230.9700012207031 453.1700134277344 11.19999980926514
229.8699951171875 454.0700073242188 11.88000011444092
230.5599975585938 453.8999938964844 11.86999988555908
231.0899963378906 453.7699890136719 11.65999984741211
229.8099975585938 454.7699890136719 12.23999977111816
230.5200042724609 454.5899963378906 12.28999996185303
231 454.4800109863281 11.9399995803833
229.8099975585938 455.5199890136719 12.38000011444092
230.4600067138672 455.3500061035156 12.36999988555908
231.0099945068359 455.2200012207031 11.92000007629395
229.7400054931641 456.2300109863281 12.27999973297119
230.3800048828125 456.0700073242188 12.31999969482422
231.0099945068359 455.9100036621094 12.1899995803833
229.5599975585938 456.8900146484375 12.03999996185303
230.2299957275391 456.7200012207031 12.01000022888184
230.9199981689453 456.5400085449219 12.05000019073486
230.1499938964844 457.4500122070312 11.93000030517578
230.7799987792969 457.2900085449219 11.93000030517578
230.0500030517578 457.4400024414062 11.93000030517578
230.0800018310547 456.7999877929688 12
230.7700042724609 456.9700012207031 11.97999954223633
229.8699951171875 455.9700012207031 12.3100004196167
230.6000061035156 456.1499938964844 12.30000019073486
229.75 455.239990234375 12.35999965667725
230.4400024414062 455.4200134277344 12.35999965667725
229.7100067138672 454.6000061035156 12.21000003814697
230.3399963378906 454.75 12.30000019073486
230.4700012207031 454.1400146484375 11.85999965667725
230.3999938964844 453.4100036621094 11.81999969482422
230.2799987792969 452.760009765625 11.61999988555908
230.1799926757812 452.7000122070312 11.09000015258789
229.6600036621094 453.2200012207031 11.76000022888184
230.8200073242188 453.510009765625 11.82999992370605
230.1900024414062 453.3500061035156 11.84000015258789
230.8800048828125 454.2799987792969 11.94999980926514
230.2899932861328 454.1300048828125 11.9399995803833
229.7100067138672 453.989990234375 11.89000034332275
229.1000061035156 453.8299865722656 11.82999992370605
231.0399932861328 455.010009765625 12.10000038146973
230.4100036621094 454.8599853515625 12.30000019073486
229.8200073242188 454.7099914550781 12.28999996185303
229.3000030517578 454.5799865722656 11.98999977111816
230.5599975585938 455.5400085449219 12.35999965667725
229.9600067138672 455.3900146484375 12.39999961853027
229.4400024414062 455.25 12.02000045776367
230.7200012207031 456.239990234375 12.26000022888184
230.1300048828125 456.1000061035156 12.32999992370605
229.5500030517578 455.9599914550781 12.28999996185303
230.9799957275391 457.0499877929688 11.94999980926514
230.3300018310547 456.8900146484375 12
229.7899932861328 456.760009765625 11.97999954223633
230.6499938964844 457.6099853515625 11.68000030517578
230.0700073242188 457.4700012207031 11.85999965667725
229.4400024414062 457.3200073242188 11.93000030517578
229.5200042724609 457.4700012207031 11.93000030517578
230.0700073242188 457.6099853515625 11.64000034332275
229.7799987792969 456.9100036621094 11.98999977111816
230.3500061035156 457.0499877929688 11.98999977111816
230.9199981689453 457.1900024414062 11.90999984741211
229.4299926757812 456.1600036621094 12.14999961853027
230.0700073242188 456.3200073242188 12.30000019073486
230.5899963378906 456.4500122070312 12.15999984741211
231.1199951171875 456.5799865722656 11.81999969482422
229.8399963378906 455.4700012207031 12.38000011444092
230.4400024414062 455.6199951171875 12.36999988555908
230.9400024414062 455.739990234375 11.98999977111816
229.5299987792969 454.6900024414062 12.31999969482422
230.1000061035156 454.8299865722656 12.31999969482422
230.6600036621094 454.9700012207031 12.3100004196167
229.2200012207031 453.9800109863281 11.92000007629395
229.8300018310547 454.1300048828125 11.85999965667725
230.9799957275391 454.4100036621094 11.94999980926514
229.4700012207031 453.3900146484375 11.8100004196167
230.0899963378906 453.5400085449219 11.85000038146973
230.6199951171875 453.6700134277344 11.84000015258789
229.8000030517578 452.739990234375 11.60999965667725
230.3999938964844 452.8900146484375 11.5600004196167
230.8699951171875 453.010009765625 10.97000026702881
230.6799926757812 453.1099853515625 11.60000038146973
230.0800018310547 452.9599914550781 11.63000011444092
230.6199951171875 453.7900085449219 11.82999992370605
229.9100036621094 453.6099853515625 11.85000038146973
231.0500030517578 454.4800109863281 11.85999965667725
229.7200012207031 454.1499938964844 11.78999996185303
230.8300018310547 455.0799865722656 12.27999973297119
230.1799926757812 454.9100036621094 12.32999992370605
229.4799957275391 454.739990234375 12.27000045776367
230.9900054931641 455.8599853515625 11.92000007629395
230.5299987792969 455.760009765625 12.32999992370605
229.8300018310547 455.5899963378906 12.36999988555908
230.7799987792969 456.5 12.14000034332275
230.1799926757812 456.3599853515625 12.28999996185303
231.0599975585938 457.1799926757812 11.86999988555908
230.4600067138672 457.0299987792969 12.01000022888184
229.8000030517578 456.8699951171875 11.98999977111816
229.9499969482422 457.5799865722656 11.78999996185303
230.7299957275391 453.1900024414062 11.71000003814697
230.8899993896484 453.8099975585938 11.85000038146973
231.0500030517578 454.4599914550781 11.92000007629395
230.0200042724609 452.8699951171875 11.02000045776367
230.2299957275391 453.7699890136719 11.88000011444092
230.5800018310547 455.1700134277344 12.38000011444092
230.7299957275391 455.7999877929688 12.35999965667725
230.8899993896484 456.3999938964844 12.22000026702881
231.0299987792969 456.9700012207031 11.96000003814697
229.6300048828125 453.5700073242188 11.77000045776367
229.7899932861328 454.25 11.94999980926514
229.9600067138672 454.9299926757812 12.30000019073486
230.1300048828125 455.6199951171875 12.39000034332275
230.2700042724609 456.1799926757812 12.32999992370605
230.4199981689453 456.7799987792969 12.10000038146973
230.5599975585938 457.2999877929688 11.94999980926514
229.5800018310547 456.0599975585938 12.28999996185303
229.7299957275391 456.6400146484375 12.10000038146973
229.8800048828125 457.25 11.97999954223633
230.0099945068359 457.7200012207031 11.53999996185303
230.0700073242188 458 11.88000011444092
229.9299926757812 457.4200134277344 11.86999988555908
229.7799987792969 456.8200073242188 12
229.6499938964844 456.3099975585938 12.23999977111816
229.4900054931641 455.6900024414062 12.06999969482422
229.3500061035156 455.1099853515625 12.06999969482422
230.6900024414062 457.9599914550781 11.86999988555908
230.5500030517578 457.3999938964844 11.88000011444092
230.4100036621094 456.8599853515625 12.02000045776367
230.2899932861328 456.3299865722656 12.30000019073486
230.1399993896484 455.739990234375 12.35999965667725
230 455.1799926757812 12.34000015258789
229.8500061035156 454.5899963378906 12.21000003814697
229.7100067138672 454.0499877929688 11.85999965667725
229.5700073242188 453.5 11.82999992370605
231 456.9400024414062 11.94999980926514
230.8600006103516 456.3900146484375 12.26000022888184
230.7200012207031 455.8200073242188 12.34000015258789
230.5800018310547 455.25 12.35999965667725
230.4199981689453 454.6400146484375 12.26000022888184
230.2700042724609 454.0599975585938 11.85000038146973
230.1300048828125 453.5 11.84000015258789
229.9900054931641 452.9599914550781 11.53999996185303
231.2400054931641 455.3099975585938 11.85999965667725
231.0899963378906 454.75 11.93000030517578
230.9499969482422 454.1700134277344 11.85000038146973
230.8099975585938 453.6099853515625 11.81999969482422
230.6699981689453 453.0799865722656 11.67000007629395
230.9700012207031 453.3599853515625 11.59000015258789
231.0899963378906 453.8599853515625 11.88000011444092
231.2299957275391 454.4299926757812 11.98999977111816
230.8399963378906 452.8399963378906 11.36999988555908
230.3000030517578 452.9599914550781 11.69999980926514
230.4400024414062 453.5299987792969 11.85000038146973
230.5899963378906 454.1600036621094 11.92000007629395
230.7100067138672 454.6400146484375 12.25
230.8600006103516 455.260009765625 12.35999965667725
231.0299987792969 455.9400024414062 12.10999965667725
229.5500030517578 452.75 11.55000019073486
229.6799926757812 453.2799987792969 11.72999954223633
229.8099975585938 453.8299865722656 11.88000011444092
229.9299926757812 454.3200073242188 12.18000030517578
230.0800018310547 454.9299926757812 12.31999969482422
230.2200012207031 455.4800109863281 12.39999961853027
230.3800048828125 456.1300048828125 12.35999965667725
230.5500030517578 456.8099975585938 11.9399995803833
230.6900024414062 457.3999938964844 11.97999954223633
229.1399993896484 454.1099853515625 12.06999969482422
229.2899932861328 454.7000122070312 12.14000034332275
229.4499969482422 455.3399963378906 12.03999996185303
229.5899963378906 455.9299926757812 12.25
229.7599945068359 456.6199951171875 12.0600004196167
229.9100036621094 457.2099914550781 12
229.7799987792969 454.9299926757812 12.34000015258789
229.6499938964844 454.4100036621094 12.03999996185303
230.6300048828125 455.760009765625 12.42000007629395
230.4600067138672 455.0599975585938 12.32999992370605
230.3000030517578 454.4200134277344 12.14999961853027
230.9299926757812 453.9500122070312 11.86999988555908
229.6000061035156 457.3200073242188 11.98999977111816
229.9700012207031 455.7099914550781 12.35999965667725
230.6000061035156 457.4200134277344 11.90999984741211
230.75 456.8299865722656 12.02999973297119
230.8699951171875 456.2900085449219 12.30000019073486
231.0200042724609 455.7200012207031 12.3100004196167
229.9600067138672 457.6799926757812 11.31999969482422
230.0599975585938 457.2099914550781 11.97999954223633
230.1799926757812 456.6799926757812 12.15999984741211
230.3200073242188 456.1099853515625 12.35000038146973
230.4700012207031 455.5 12.38000011444092
230.6600036621094 454.7900085449219 12.26000022888184
230.8500061035156 454.0700073242188 11.82999992370605
231.0399932861328 453.3699951171875 11.72000026702881
229.4600067138672 456.8099975585938 11.97999954223633
229.5800018310547 456.3099975585938 12.22000026702881
229.7200012207031 455.7200012207031 12.36999988555908
229.8699951171875 455.1199951171875 12.34000015258789
230.2400054931641 453.739990234375 11.86999988555908
230.4299926757812 453.0199890136719 11.59000015258789
229.5500030517578 454.1300048828125 11.75
229.6999969482422 453.510009765625 11.77000045776367
230.0700073242188 452.8699951171875 11.61999988555908
229.9400024414062 453.4500122070312 11.82999992370605
229.8000030517578 454.0199890136719 11.89000034332275
229.6900024414062 454.5599975585938 12.28999996185303
229.5299987792969 455.1099853515625 11.97999954223633
229.4100036621094 455.6400146484375 12.10999965667725
230.5800018310547 453.3099975585938 11.80000019073486
230.4499969482422 453.8800048828125 11.85999965667725
230.1900024414062 455.0299987792969 12.39000034332275
230.0500030517578 455.6000061035156 12.35999965667725
229.9100036621094 456.1700134277344 12.3100004196167
229.7599945068359 456.7300109863281 12.02000045776367
229.6100006103516 457.3399963378906 11.9399995803833
231.1699981689453 453.8599853515625 11.85000038146973
231.0299987792969 454.4100036621094 11.90999984741211
230.9199981689453 454.9500122070312 12.3100004196167
230.7799987792969 455.5199890136719 12.35999965667725
230.6499938964844 456.0499877929688 12.34000015258789
230.4900054931641 456.6400146484375 12
230.3600006103516 457.1700134277344 11.96000003814697
231.2599945068359 455.8999938964844 11.89000034332275
231.1300048828125 456.4400024414062 11.98999977111816
230.9799957275391 457.0299987792969 11.96000003814697
230.8200073242188 457.6300048828125 11.73999977111816
230.8999938964844 456.8500061035156 11.92000007629395
231.0599975585938 456.2000122070312 11.96000003814697
230.75 457.4599914550781 11.97000026702881
230.1199951171875 457.1099853515625 11.97999954223633
230.2799987792969 456.4299926757812 12.18000030517578
230.4199981689453 455.8200073242188 12.38000011444092
230.5800018310547 455.2099914550781 12.36999988555908
230.7200012207031 454.6400146484375 12.22999954223633
230.8800048828125 454.0799865722656 11.93000030517578
231.0099945068359 453.5499877929688 11.8100004196167
231.1600036621094 453.0400085449219 11.23999977111816
229.4299926757812 457.3299865722656 12
229.5899963378906 456.7000122070312 12.02000045776367
229.75 456.010009765625 12.34000015258789
229.8999938964844 455.3900146484375 12.38000011444092
230.0399932861328 454.8500061035156 12.3100004196167
230.3200073242188 453.7999877929688 11.88000011444092
230.4799957275391 453.1900024414062 11.76000022888184
229.5299987792969 454.5299987792969 12.17000007629395
229.6799926757812 454 11.90999984741211
229.8200073242188 453.4299926757812 11.80000019073486
229.9700012207031 452.8800048828125 11.5600004196167
231.4100036621094 454.3200073242188 11.85999965667725
231.2599945068359 454.9500122070312 12.14000034332275
231.1100006103516 455.6000061035156 12.39999961853027
230.6900024414062 457.260009765625 11.97999954223633
229.8200073242188 454.8200073242188 12.23999977111816
229.6399993896484 455.5899963378906 12.26000022888184
230.6799926757812 454.4700012207031 12.18000030517578
230.5099945068359 455.1499938964844 12.36999988555908
230.3399963378906 455.8500061035156 12.36999988555908
