383.0599975585938 405.6400146484375 5.639999866485596
382.6099853515625 406.4100036621094 5.210000038146973
383.0400085449219 406.2999877929688 5.769999980926514
383.6300048828125 406.1499938964844 5.809999942779541
384.1000061035156 406.0299987792969 6.130000114440918
384.7300109863281 405.8699951171875 6.320000171661377
385.3500061035156 405.7200012207031 6.190000057220459
386.0700073242188 405.5400085449219 5.949999809265137
382.9500122070312 406.8800048828125 5.670000076293945
383.5199890136719 406.7300109863281 5.860000133514404
384.1199951171875 406.5799865722656 6.059999942779541
384.6099853515625 406.4500122070312 6.380000114440918
385.2799987792969 406.2900085449219 6.369999885559082
385.8999938964844 406.1300048828125 6.360000133514404
386.5899963378906 405.9599914550781 6.269999980926514
385.760009765625 406.8099975585938 6.340000152587891
386.4200134277344 406.6499938964844 6.309999942779541
386.7300109863281 406.75 6.139999866485596
386.1700134277344 406.8999938964844 6.139999866485596
385.6000061035156 407.0400085449219 5.920000076293945
384.989990234375 407.2000122070312 5.909999847412109
386.8999938964844 405.9800109863281 5.900000095367432
386.3699951171875 406.1199951171875 6.289999961853027
385.760009765625 406.2799987792969 6.349999904632568
385.239990234375 406.4100036621094 6.369999885559082
384.6199951171875 406.5700073242188 6.289999961853027
383.5400085449219 406.8399963378906 5.75
382.9800109863281 406.9800109863281 5.590000152587891
386.5199890136719 405.4299926757812 5.880000114440918
385.9700012207031 405.5700073242188 6.010000228881836
385.3800048828125 405.7300109863281 6.300000190734863
384.7799987792969 405.8800048828125 6.300000190734863
383.1099853515625 406.2999877929688 5.769999980926514
382.5700073242188 406.4299926757812 4.949999809265137
383.8900146484375 405.5299987792969 5.78000020980835
383.3599853515625 405.6600036621094 5.670000076293945
382.760009765625 405.8200073242188 5.460000038146973
382.989990234375 405.7200012207031 5.650000095367432
383.6900024414062 406.2200012207031 5.789999961853027
384.3900146484375 406.0400085449219 6.21999979019165
385.0599975585938 405.8699951171875 6.320000171661377
385.6400146484375 405.7200012207031 6.269999980926514
386.1900024414062 405.5899963378906 5.980000019073486
386.7300109863281 405.4500122070312 5.820000171661377
382.989990234375 406.989990234375 5.650000095367432
385.0700073242188 406.4500122070312 6.46999979019165
385.6799926757812 406.2999877929688 6.389999866485596
386.2900085449219 406.1499938964844 6.28000020980835
386.1499938964844 406.8399963378906 6.260000228881836
386.7699890136719 406.6799926757812 6.239999771118164
386.9599914550781 405.7900085449219 5.78000020980835
386.5299987792969 405.9100036621094 6.25
385.8500061035156 406.0799865722656 6.360000133514404
385.1900024414062 406.25 6.420000076293945
383.2900085449219 406.0299987792969 5.809999942779541
386.9500122070312 406.5299987792969 5.619999885559082
386.510009765625 406.6499938964844 6.300000190734863
385.7999877929688 406.8299865722656 6.369999885559082
386.2699890136719 405.6799926757812 6.159999847412109
385.760009765625 405.5499877929688 5.949999809265137
386.4299926757812 406.3500061035156 6.300000190734863
385.7999877929688 406.1900024414062 6.300000190734863
385.1900024414062 406.0400085449219 6.360000133514404
384.6099853515625 405.8900146484375 6.300000190734863
384.0499877929688 405.75 6.110000133514404
383.5599975585938 405.6300048828125 5.800000190734863
382.9599914550781 405.4800109863281 5.650000095367432
386.1700134277344 407.0199890136719 6.03000020980835
384.8900146484375 406.7099914550781 6.369999885559082
384.2799987792969 406.5499877929688 6.179999828338623
383.7000122070312 406.4100036621094 5.989999771118164
383.1600036621094 406.2699890136719 5.78000020980835
382.6700134277344 406.1400146484375 5.320000171661377
383.4599914550781 407.010009765625 5.820000171661377
382.8699951171875 406.8599853515625 5.659999847412109
385.9299926757812 405.3900146484375 5.869999885559082
386.4700012207031 405.5199890136719 5.920000076293945
387.0199890136719 405.6600036621094 5.699999809265137
383.8699951171875 405.4599914550781 5.800000190734863
384.4700012207031 405.6099853515625 6.130000114440918
385 405.7300109863281 6.340000152587891
385.6199951171875 405.8800048828125 6.300000190734863
386.1499938964844 406.010009765625 6.369999885559082
386.7099914550781 406.1600036621094 6.150000095367432
383.1700134277344 405.8999938964844 5.75
384.3099975585938 406.1700134277344 6.199999809265137
384.8900146484375 406.3099975585938 6.340000152587891
385.5 406.4599914550781 6.389999866485596
386.0799865722656 406.6000061035156 6.329999923706055
386.6300048828125 406.739990234375 6.269999980926514
382.4800109863281 406.4200134277344 4.909999847412109
383.0299987792969 406.5400085449219 5.75
383.5599975585938 406.6700134277344 5.829999923706055
384.7000122070312 406.9400024414062 6.309999942779541
385.2699890136719 407.0899963378906 5.940000057220459
382.7699890136719 407.0599975585938 5.590000152587891
383.3399963378906 407.2000122070312 5.710000038146973
386.9700012207031 406.010009765625 5.539999961853027
386.5599975585938 405.9200134277344 6.260000228881836
385.9800109863281 405.7799987792969 6.300000190734863
385.3599853515625 405.6199951171875 6.159999847412109
386.6700134277344 406.7300109863281 6.199999809265137
386.0599975585938 406.5799865722656 6.289999961853027
385.4500122070312 406.4299926757812 6.400000095367432
384.8200073242188 406.2699890136719 6.289999961853027
383.4200134277344 405.9200134277344 5.789999961853027
382.760009765625 405.75 5.710000038146973
384.4200134277344 406.8599853515625 6.199999809265137
383.2200012207031 407.1600036621094 5.639999866485596
386.6799926757812 405.6099853515625 5.96999979019165
383.2099914550781 405.9400024414062 5.71999979019165
385.1099853515625 406.3900146484375 6.409999847412109
385.8200073242188 406.5700073242188 6.409999847412109
386.510009765625 406.739990234375 6.289999961853027
386.9100036621094 406.8399963378906 5.760000228881836
385.0799865722656 405.8399963378906 6.289999961853027
385.8200073242188 406.0199890136719 6.300000190734863
386.5299987792969 406.2000122070312 6.21999979019165
386.989990234375 406.3200073242188 5.590000152587891
387.0599975585938 407.0599975585938 6.300000190734863
383.9100036621094 407.2699890136719 5.730000019073486
383.6400146484375 407.0599975585938 5.53000020980835
383.9800109863281 405.6900024414062 5.690000057220459
385.5400085449219 406.9400024414062 6.309999942779541
385.4100036621094 406.4100036621094 6.420000076293945
386.3099975585938 407.2000122070312 6.320000171661377
386.1700134277344 406.6199951171875 6.369999885559082
386.0299987792969 406.0799865722656 6.320000171661377
386.9100036621094 406.9599914550781 6.28000020980835
386.7699890136719 406.3900146484375 6.389999866485596
387.4200134277344 406.7200012207031 6.269999980926514
387.2799987792969 406.1499938964844 6.25
387.5700073242188 405.6300048828125 5.769999980926514
387.010009765625 406.0199890136719 6.230000019073486
386.2699890136719 405.9299926757812 6.210000038146973
386.3999938964844 406.4599914550781 6.329999923706055
385.6400146484375 405.9700012207031 6.340000152587891
385.7799987792969 406.5299987792969 6.360000133514404
383.6600036621094 405.6300048828125 5.539999961853027
383.7999877929688 406.2300109863281 5.78000020980835
383.9500122070312 406.8200073242188 5.650000095367432
383.8999938964844 405.4800109863281 5.440000057220459
385.8699951171875 407.1499938964844 6.260000228881836
384.1600036621094 406.8299865722656 5.769999980926514
383.5700073242188 406.8800048828125 5.539999961853027
383.8599853515625 405.6700134277344 5.739999771118164
384.010009765625 405.6099853515625 5.650000095367432
383.8800048828125 406.1700134277344 5.639999866485596
383.7300109863281 406.75 5.659999847412109
384.3399963378906 407.1099853515625 5.760000228881836
385.8900146484375 406.0899963378906 6.329999923706055
385.760009765625 406.6600036621094 6.369999885559082
386.6799926757812 405.8800048828125 6.269999980926514
386.5499877929688 406.4500122070312 6.369999885559082
386.4100036621094 407.0199890136719 6.329999923706055
387.3999938964844 405.6000061035156 5.800000190734863
387.2699890136719 406.2300109863281 6.320000171661377
387.1400146484375 406.760009765625 6.300000190734863
387.0899963378906 406.4200134277344 6.320000171661377
386.4200134277344 406.4599914550781 6.349999904632568
386.5700073242188 405.8900146484375 6.260000228881836
385.6799926757812 406.5899963378906 6.329999923706055
385.8299865722656 405.989990234375 6.409999847412109
384.1400146484375 407.1199951171875 5.71999979019165
383.7999877929688 406.0599975585938 5.599999904632568
384.1600036621094 405.8099975585938 5.610000133514404
386.7099914550781 405.8500061035156 6.369999885559082
387.3599853515625 405.7200012207031 5.900000095367432
