209.1600036621094 307.0199890136719 6
208.4299926757812 307.2000122070312 5.989999771118164
208.8099975585938 306.5799865722656 6.079999923706055
207.9400024414062 306.7999877929688 6.610000133514404
207.2200012207031 306.9800109863281 6.570000171661377
206.6499938964844 307.1199951171875 6.409999847412109
206.0899963378906 307.260009765625 6.070000171661377
209.2799987792969 305.8599853515625 5.980000019073486
208.5099945068359 306.0499877929688 6.070000171661377
207.5500030517578 306.2999877929688 6.579999923706055
206.8200073242188 306.4800109863281 6.639999866485596
206.1699981689453 306.6400146484375 6.610000133514404
205.6000061035156 306.7799987792969 6.420000076293945
205.2400054931641 306.8599853515625 5.659999847412109
205.9400024414062 306 6.590000152587891
205.3099975585938 306.1499938964844 6.329999923706055
207.2799987792969 305.6700134277344 6.559999942779541
206.5800018310547 305.8399963378906 6.619999885559082
205.0500030517578 306.1199951171875 6.289999961853027
205.6199951171875 305.9700012207031 6.440000057220459
206.1900024414062 305.8299865722656 6.610000133514404
206.7599945068359 305.6900024414062 6.559999942779541
207.3699951171875 305.5299987792969 6.409999847412109
205.4499969482422 306.6000061035156 6.170000076293945
205.9400024414062 306.4700012207031 6.590000152587891
206.5500030517578 306.3099975585938 6.619999885559082
207.1600036621094 306.1600036621094 6.610000133514404
207.7700042724609 306.010009765625 6.599999904632568
208.4100036621094 305.8599853515625 6.059999942779541
208.9799957275391 305.7099914550781 6.03000020980835
205.7400054931641 307.1700134277344 6.170000076293945
206.3399963378906 307.0199890136719 6.380000114440918
206.8500061035156 306.8900146484375 6.579999923706055
207.4700012207031 306.7300109863281 6.590000152587891
208.0299987792969 306.5899963378906 6.489999771118164
208.6799926757812 306.4400024414062 6.099999904632568
209.2899932861328 306.2900085449219 6.010000228881836
208.0099945068359 307.3200073242188 6.099999904632568
208.5700073242188 307.1900024414062 6.019999980926514
209.1399993896484 307.0400085449219 6.019999980926514
209.7200012207031 307.3299865722656 6.010000228881836
209.4499969482422 306.8299865722656 5.940000057220459
208.8399963378906 306.9800109863281 6.03000020980835
208.3200073242188 307.1099853515625 6.119999885559082
207.7200012207031 307.260009765625 6.28000020980835
209.6999969482422 306.1199951171875 5.920000076293945
209.1399993896484 306.260009765625 6.019999980926514
208.6199951171875 306.3900146484375 6.090000152587891
208.0500030517578 306.5299987792969 6.519999980926514
207.5099945068359 306.6700134277344 6.599999904632568
206.8999938964844 306.8200073242188 6.599999904632568
206.3699951171875 306.9500122070312 6.559999942779541
205.75 307.1000061035156 6.230000019073486
209.3999938964844 305.4700012207031 6.050000190734863
208.8099975585938 305.6199951171875 6.019999980926514
208.2599945068359 305.760009765625 6.300000190734863
207.7100067138672 305.8999938964844 6.559999942779541
207.1100006103516 306.0499877929688 6.610000133514404
206.5099945068359 306.2000122070312 6.619999885559082
205.9400024414062 306.3399963378906 6.630000114440918
205.3600006103516 306.4800109863281 6.25
206.7799987792969 305.4599914550781 6.309999942779541
206.2200012207031 305.6000061035156 6.539999961853027
205.6600036621094 305.739990234375 6.400000095367432
205.3200073242188 306.1099853515625 6.440000057220459
206.0299987792969 305.9299926757812 6.599999904632568
206.7200012207031 305.75 6.579999923706055
207.3699951171875 305.5899963378906 6.489999771118164
207.8300018310547 305.4800109863281 6.070000171661377
206.1799926757812 306.5 6.619999885559082
206.8500061035156 306.3299865722656 6.619999885559082
207.4600067138672 306.1700134277344 6.610000133514404
208.1199951171875 306.010009765625 6.480000019073486
208.6100006103516 305.8900146484375 6.159999847412109
209.25 305.7300109863281 5.980000019073486
207 306.989990234375 6.510000228881836
207.6399993896484 306.8299865722656 6.570000171661377
208.2799987792969 306.6700134277344 6.380000114440918
208.8600006103516 306.5299987792969 6.110000133514404
209.4799957275391 306.3699951171875 5.960000038146973
208.9400024414062 307.2300109863281 6.019999980926514
209.5200042724609 307.0899963378906 5.909999847412109
205.5099945068359 306.9700012207031 6.260000228881836
206.0899963378906 307.1099853515625 6.409999847412109
204.9299926757812 306.010009765625 6.079999923706055
205.4600067138672 306.1300048828125 6.380000114440918
206.0800018310547 306.2799987792969 6.619999885559082
206.8000030517578 306.4599914550781 6.630000114440918
207.5399932861328 306.6400146484375 6.610000133514404
208.4400024414062 306.8599853515625 6.059999942779541
209.1199951171875 307.0299987792969 6.03000020980835
206.6699981689453 305.7300109863281 6.579999923706055
207.4199981689453 305.9200134277344 6.579999923706055
208.2100067138672 306.1099853515625 6.25
209 306.3099975585938 6.019999980926514
205.4900054931641 305.4500122070312 6.139999866485596
206.0299987792969 305.5799865722656 6.579999923706055
208.4600067138672 305.5700073242188 6
209.1000061035156 305.7300109863281 6.039999961853027
206.4199981689453 307.1799926757812 6.179999828338623
205.8600006103516 307.0499877929688 6.269999980926514
205.2899932861328 306.8999938964844 5.900000095367432
209.1199951171875 307.2000122070312 5.96999979019165
208.5599975585938 307.0599975585938 6.070000171661377
207.8500061035156 306.8900146484375 6.579999923706055
207.2599945068359 306.75 6.619999885559082
206.6799926757812 306.6000061035156 6.599999904632568
206.0899963378906 306.4500122070312 6.590000152587891
205.5200042724609 306.3099975585938 6.260000228881836
209.3500061035156 306.6600036621094 6
208.7700042724609 306.510009765625 6.090000152587891
208.1300048828125 306.3599853515625 6.510000228881836
207.5599975585938 306.2200012207031 6.599999904632568
206.9900054931641 306.0700073242188 6.599999904632568
206.3899993896484 305.9200134277344 6.610000133514404
205.8300018310547 305.7799987792969 6.519999980926514
205.3300018310547 305.6499938964844 5.940000057220459
209.1199951171875 305.9700012207031 6.03000020980835
208.5200042724609 305.8200073242188 6.059999942779541
207.8699951171875 305.6600036621094 6.46999979019165
207.2799987792969 305.510009765625 6.289999961853027
206.7200012207031 305.3800048828125 6.369999885559082
205.1600036621094 305.8900146484375 6.380000114440918
208.6499938964844 305.4700012207031 6.059999942779541
209.2799987792969 305.6300048828125 5.980000019073486
206.0299987792969 305.489990234375 6.380000114440918
206.6300048828125 305.6300048828125 6.559999942779541
207.1699981689453 305.7699890136719 6.579999923706055
207.7400054931641 305.9100036621094 6.599999904632568
208.2899932861328 306.0499877929688 6.309999942779541
208.8399963378906 306.1900024414062 6.090000152587891
209.4100036621094 306.3299865722656 5.989999771118164
205.7100067138672 306.0299987792969 6.550000190734863
206.3000030517578 306.1799926757812 6.590000152587891
206.8899993896484 306.3200073242188 6.610000133514404
207.5 306.4800109863281 6.610000133514404
208.0200042724609 306.6099853515625 6.550000190734863
208.6000061035156 306.760009765625 6.090000152587891
209.1699981689453 306.8999938964844 6.010000228881836
205.3899993896484 306.6600036621094 6.159999847412109
206 306.7999877929688 6.570000171661377
206.5599975585938 306.9400024414062 6.519999980926514
207.0899963378906 307.0799865722656 6.420000076293945
207.6199951171875 307.2200012207031 6.170000076293945
208.2700042724609 307.3999938964844 5.989999771118164
207.7100067138672 307.260009765625 6.130000114440918
207.1399993896484 307.1300048828125 6.480000019073486
206.5 306.9700012207031 6.539999961853027
205.7700042724609 306.7900085449219 6.429999828338623
209.4199981689453 307.0700073242188 5.929999828338623
208.7899932861328 306.9100036621094 6.079999923706055
208.2299957275391 306.7799987792969 6.329999923706055
207.6999969482422 306.6499938964844 6.590000152587891
207.0800018310547 306.5 6.630000114440918
206.4400024414062 306.3399963378906 6.619999885559082
205.6699981689453 306.1400146484375 6.46999979019165
209.4400024414062 306.3200073242188 5.929999828338623
208.8699951171875 306.1799926757812 6.099999904632568
208.3099975585938 306.0499877929688 6.28000020980835
207.7299957275391 305.9100036621094 6.590000152587891
207.0099945068359 305.7300109863281 6.539999961853027
206.3500061035156 305.5599975585938 6.489999771118164
209.2899932861328 305.6400146484375 5.980000019073486
209.2799987792969 305.5700073242188 6.119999885559082
209.4600067138672 306.25 6.019999980926514
208.8099975585938 306.2300109863281 6.090000152587891
208.9799957275391 306.8800048828125 6
208.5200042724609 307.1700134277344 5.980000019073486
207.5299987792969 305.9400024414062 6.579999923706055
207.6999969482422 306.6099853515625 6.570000171661377
207.8200073242188 307.0499877929688 5.920000076293945
206.7400054931641 305.7099914550781 6.659999847412109
206.8899993896484 306.2999877929688 6.590000152587891
207.0500030517578 306.9100036621094 6.320000171661377
206.0099945068359 305.5599975585938 6.590000152587891
206.1799926757812 306.260009765625 6.559999942779541
206.3500061035156 306.8900146484375 6.429999828338623
209.7299957275391 306.2200012207031 5.829999923706055
209.5800018310547 305.6400146484375 5.880000114440918
209.3099975585938 306.8599853515625 5.929999828338623
209.1600036621094 306.2799987792969 6.039999961853027
209.0200042724609 305.7000122070312 6.059999942779541
208.6300048828125 306.8500061035156 6.03000020980835
208.4799957275391 306.25 6.090000152587891
208.0099945068359 306.8699951171875 6.400000095367432
207.8600006103516 306.2699890136719 6.570000171661377
207.7299957275391 305.7300109863281 6.590000152587891
207.4400024414062 306.7300109863281 6.519999980926514
207.2899932861328 306.1600036621094 6.599999904632568
207.1499938964844 305.6000061035156 6.610000133514404
206.8000030517578 306.760009765625 6.489999771118164
206.6699981689453 306.2300109863281 6.570000171661377
206.5299987792969 305.6700134277344 6.599999904632568
206.1199951171875 306.7300109863281 6.46999979019165
205.9799957275391 306.1600036621094 6.579999923706055
205.8399963378906 305.6199951171875 6.610000133514404
205.4600067138672 306.6700134277344 5.860000133514404
205.3300018310547 306.1199951171875 6.099999904632568
205.9299926757812 305.2900085449219 6.429999828338623
206.0800018310547 305.8800048828125 6.599999904632568
206.2200012207031 306.4800109863281 6.579999923706055
206.5800018310547 304.989990234375 6.480000019073486
206.6999969482422 305.510009765625 6.579999923706055
206.8600006103516 306.1300048828125 6.599999904632568
206.9900054931641 306.6700134277344 6.610000133514404
207.3200073242188 305.3399963378906 6.5
207.4600067138672 305.9200134277344 6.599999904632568
207.6100006103516 306.5199890136719 6.570000171661377
207.8399963378906 305.0700073242188 6.409999847412109
207.9700012207031 305.6099853515625 6.550000190734863
208.1199951171875 306.1900024414062 6.590000152587891
208.6100006103516 305.4400024414062 6.039999961853027
208.7599945068359 306.0400085449219 6.110000133514404
208.9100036621094 306.6600036621094 6.070000171661377
209.3000030517578 305.1900024414062 5.989999771118164
209.4299926757812 305.7300109863281 5.989999771118164
209.5899963378906 306.3599853515625 5.949999809265137
205.8699951171875 306.0400085449219 6.619999885559082
206.6900024414062 306.239990234375 6.599999904632568
206.5099945068359 305.5199890136719 6.599999904632568
207.3899993896484 306.25 6.570000171661377
207.2299957275391 305.6199951171875 6.559999942779541
207.1199951171875 305.1600036621094 6.130000114440918
207.8999938964844 305.8699951171875 6.599999904632568
207.7400054931641 305.2300109863281 6.46999979019165
208.7299957275391 306.25 6.079999923706055
208.5700073242188 305.5899963378906 6.099999904632568
209.4299926757812 305.8699951171875 5.940000057220459
209.0399932861328 306.8299865722656 6
209.1999969482422 306.1700134277344 6.010000228881836
208.5 306.5799865722656 6.070000171661377
208.6699981689453 305.9299926757812 6.03000020980835
207.6799926757812 306.9100036621094 6.429999828338623
207.8200073242188 306.3200073242188 6.590000152587891
208 305.6400146484375 6.53000020980835
207.0700073242188 306.760009765625 6.519999980926514
207.2299957275391 306.1000061035156 6.590000152587891
206.4700012207031 306.7799987792969 6.230000019073486
206.5800018310547 306.2900085449219 6.579999923706055
206.7400054931641 305.6400146484375 6.639999866485596
205.8899993896484 306.5899963378906 6.519999980926514
206.0500030517578 305.9800109863281 6.539999961853027
205.8999938964844 305.760009765625 6.550000190734863
205.7599945068359 306.3099975585938 6.53000020980835
206.5299987792969 305.2099914550781 6.550000190734863
206.3800048828125 305.8500061035156 6.610000133514404
206.2400054931641 306.3800048828125 6.550000190734863
207.0700073242188 305.3599853515625 6.610000133514404
206.9199981689453 305.9400024414062 6.579999923706055
206.7799987792969 306.4800109863281 6.599999904632568
207.6799926757812 305.6099853515625 6.570000171661377
207.5399932861328 306.1799926757812 6.599999904632568
207.3999938964844 306.7200012207031 6.53000020980835
208.1000061035156 306.260009765625 6.550000190734863
207.9499969482422 306.8299865722656 6.389999866485596
208.6999969482422 305.8099975585938 6.110000133514404
208.5700073242188 306.3500061035156 6.099999904632568
208.4199981689453 306.9100036621094 6.010000228881836
209.3500061035156 305.3599853515625 6.039999961853027
209.2100067138672 305.9400024414062 6.03000020980835
209.0599975585938 306.5199890136719 6.019999980926514
206.0700073242188 306.4800109863281 6.570000171661377
206.2100067138672 305.8900146484375 6.610000133514404
206.3500061035156 305.3299865722656 6.550000190734863
206.6100006103516 306.6499938964844 6.599999904632568
206.75 306.0599975585938 6.590000152587891
206.8999938964844 305.4700012207031 6.570000171661377
207.1900024414062 306.8699951171875 6.480000019073486
207.3200073242188 306.3200073242188 6.590000152587891
207.4700012207031 305.7000122070312 6.579999923706055
207.6100006103516 305.260009765625 6
208 306.5 6.570000171661377
208.1499938964844 305.9200134277344 6.559999942779541
208.3000030517578 305.3699951171875 6.090000152587891
208.5700073242188 306.9400024414062 6.099999904632568
208.7200012207031 306.3699951171875 6.079999923706055
208.8600006103516 305.7799987792969 6.090000152587891
209.0099945068359 305.2200012207031 6.039999961853027
209.2799987792969 306.6199951171875 5.96999979019165
209.4299926757812 306.010009765625 5.960000038146973
206.5700073242188 305.6400146484375 6.610000133514404
206.4199981689453 306.2699890136719 6.590000152587891
207.3200073242188 305.239990234375 6.369999885559082
207.1900024414062 305.8200073242188 6.599999904632568
207.0299987792969 306.4599914550781 6.570000171661377
207.8999938964844 305.1900024414062 5.869999885559082
207.8200073242188 305.5599975585938 6.579999923706055
207.6499938964844 306.239990234375 6.590000152587891
208.4799957275391 305.4200134277344 6.099999904632568
209.25 305.3299865722656 5.829999923706055
209.1000061035156 305.9599914550781 6.059999942779541
208.9499969482422 306.5899963378906 6.059999942779541
209.7100067138672 306.2799987792969 5.880000114440918
