443.5299987792969 29.30999946594238 5.28000020980835
444.1900024414062 29.13999938964844 5.099999904632568
442.5899963378906 28.90999984741211 5.070000171661377
443.0799865722656 28.78000068664551 5.539999961853027
443.6900024414062 28.6299991607666 5.489999771118164
442.2300109863281 28.29000091552734 5.099999904632568
442.7799987792969 28.14999961853027 5.519999980926514
443.3699951171875 28 5.53000020980835
441.8099975585938 27.64999961853027 5.03000020980835
442.4100036621094 27.5 5.269999980926514
443 27.35000038146973 5.260000228881836
442.25 26.8700008392334 4.940000057220459
444.2000122070312 30.42000007629395 4.650000095367432
443.6600036621094 30.54999923706055 4.460000038146973
444.5599975585938 29.65999984741211 4.989999771118164
444.0299987792969 29.79999923706055 5.099999904632568
444.1499938964844 29.04000091552734 5.230000019073486
443.6199951171875 29.17000007629395 5.309999942779541
443.0499877929688 29.31999969482422 5.130000114440918
443.8399963378906 28.42000007629395 5.46999979019165
443.239990234375 28.56999969482422 5.519999980926514
442.6499938964844 28.71999931335449 5.300000190734863
443.4200134277344 27.93000030517578 5.480000019073486
442.8800048828125 28.05999946594238 5.519999980926514
442.3099975585938 28.20999908447266 5.429999828338623
443.1600036621094 27.29999923706055 5.289999961853027
442.5599975585938 27.45000076293945 5.239999771118164
442.010009765625 27.59000015258789 5.150000095367432
442.760009765625 26.65999984741211 5.059999942779541
443.6000061035156 30.48999977111816 4.389999866485596
444.3099975585938 30.30999946594238 4.690000057220459
443.9700012207031 29.64999961853027 5.090000152587891
444.5199890136719 29.52000045776367 5.010000228881836
443.1700134277344 29.17000007629395 5.400000095367432
443.7999877929688 29.01000022888184 5.349999904632568
444.3699951171875 28.8700008392334 5.159999847412109
442.8900146484375 28.65999984741211 5.5
443.4800109863281 28.51000022888184 5.519999980926514
442.5499877929688 28.06999969482422 5.429999828338623
443.2099914550781 27.90999984741211 5.489999771118164
442.2300109863281 27.45999908447266 5.230000019073486
442.8699951171875 27.29000091552734 5.300000190734863
442.6099853515625 26.70999908447266 5
444.7200012207031 30.15999984741211 4.610000133514404
443.8500061035156 30.3799991607666 4.409999847412109
444.9400024414062 29.32999992370605 4.369999885559082
444.5799865722656 29.43000030517578 5.079999923706055
443.8699951171875 29.61000061035156 5.059999942779541
444.2200012207031 28.79999923706055 5.25
443.6000061035156 28.95999908447266 5.429999828338623
443.3800048828125 28.3799991607666 5.539999961853027
442.6799926757812 28.55999946594238 5.539999961853027
443.0899963378906 27.70000076293945 5.489999771118164
442.3399963378906 27.88999938964844 5.340000152587891
442.6099853515625 27.02000045776367 5.139999866485596
444.0299987792969 30.5 4.440000057220459
443.3900146484375 30.34000015258789 4.389999866485596
444.1700134277344 30.01000022888184 5.010000228881836
444.5400085449219 29.5 5.019999980926514
443.9299926757812 29.35000038146973 5.110000133514404
443.1300048828125 29.15999984741211 5.389999866485596
442.6799926757812 29.04000091552734 4.940000057220459
444.3099975585938 28.71999931335449 5.110000133514404
443.5400085449219 28.54000091552734 5.519999980926514
442.9100036621094 28.3799991607666 5.489999771118164
442.260009765625 28.21999931335449 5.369999885559082
443.3900146484375 27.82999992370605 5.489999771118164
442.8099975585938 27.69000053405762 5.449999809265137
442.1900024414062 27.53000068664551 5.239999771118164
441.7000122070312 27.40999984741211 4.949999809265137
443.260009765625 27.18000030517578 5.159999847412109
442.5799865722656 27.01000022888184 5.190000057220459
442.0499877929688 26.8799991607666 4.809999942779541
444.1499938964844 30.20000076293945 4.929999828338623
443.2799987792969 29.31999969482422 5.349999904632568
443.8900146484375 29.46999931335449 5.070000171661377
444.4800109863281 29.61000061035156 5.010000228881836
442.510009765625 28.51000022888184 5.340000152587891
443.0299987792969 28.63999938964844 5.5
443.6400146484375 28.79000091552734 5.489999771118164
444.1900024414062 28.92000007629395 5.28000020980835
442.25 27.80999946594238 5.239999771118164
442.8099975585938 27.94000053405762 5.510000228881836
443.3900146484375 28.07999992370605 5.5
443.9700012207031 28.21999931335449 5.369999885559082
442.0599975585938 27.02000045776367 4.900000095367432
442.5799865722656 27.14999961853027 5.179999828338623
443.1499938964844 27.28000068664551 5.28000020980835
444.1099853515625 30.5 4.659999847412109
443.4700012207031 30.34000015258789 4.329999923706055
444.8699951171875 30.06999969482422 4.630000114440918
444.3999938964844 29.95999908447266 5
443.760009765625 29.79999923706055 5.03000020980835
444.8900146484375 29.42000007629395 4.920000076293945
444.3599853515625 29.29000091552734 5.050000190734863
443.7999877929688 29.15999984741211 5.269999980926514
443.2799987792969 29.03000068664551 5.440000057220459
442.6700134277344 28.8700008392334 5.329999923706055
444.0499877929688 28.44000053405762 5.349999904632568
443.4700012207031 28.29999923706055 5.519999980926514
442.8399963378906 28.13999938964844 5.519999980926514
442.2099914550781 27.97999954223633 5.289999961853027
443.4400024414062 27.6200008392334 5.360000133514404
442.8699951171875 27.47999954223633 5.380000114440918
442.2699890136719 27.32999992370605 5.199999809265137
443.4599914550781 30.43000030517578 4.389999866485596
443.8699951171875 29.79999923706055 4.920000076293945
444.5899963378906 29.96999931335449 4.949999809265137
443.5599975585938 29.05999946594238 5.429999828338623
444.1199951171875 29.20000076293945 5.170000076293945
444.75 29.36000061035156 4.96999979019165
442.3200073242188 28.1299991607666 5.409999847412109
443.0199890136719 28.29999923706055 5.46999979019165
443.75 28.47999954223633 5.489999771118164
444.2699890136719 28.61000061035156 5.170000076293945
442.4200134277344 27.48999977111816 5.239999771118164
443.2099914550781 27.68000030517578 5.489999771118164
442.7200012207031 26.79000091552734 5.190000057220459
444.9800109863281 29.64999961853027 4.679999828338623
444.4599914550781 30.31999969482422 4.829999923706055
444.2999877929688 29.69000053405762 5.039999961853027
443.3999938964844 29.04999923706055 5.409999847412109
444.4100036621094 29.17000007629395 5.010000228881836
444.5499877929688 29.72999954223633 4.940000057220459
443.3999938964844 27.82999992370605 5.510000228881836
443.5400085449219 28.3799991607666 5.510000228881836
443.6799926757812 28.92000007629395 5.380000114440918
443.9599914550781 30.02000045776367 4.860000133514404
444.1099853515625 30.61000061035156 4.639999866485596
442.6099853515625 26.93000030517578 5.159999847412109
442.8999938964844 28.09000015258789 5.510000228881836
443.0499877929688 28.70000076293945 5.5
442.0499877929688 27.25 5.110000133514404
443.3299865722656 28.15999984741211 5.550000190734863
443.1900024414062 27.60000038146973 5.46999979019165
442.8099975585938 28.3799991607666 5.599999904632568
442.6700134277344 27.81999969482422 5.409999847412109
442.5199890136719 27.23999977111816 5.139999866485596
442.3999938964844 26.73999977111816 4.619999885559082
442.739990234375 26.64999961853027 4.829999923706055
442.8699951171875 27.15999984741211 5.260000228881836
443.010009765625 27.69000053405762 5.550000190734863
443.6900024414062 30.44000053405762 4.340000152587891
442.1300048828125 26.89999961853027 4.840000152587891
444.510009765625 29.36000061035156 5.019999980926514
444.3699951171875 29.96999931335449 5
444.2099914550781 30.53000068664551 4.650000095367432
443.760009765625 29.6299991607666 5.039999961853027
443.6099853515625 30.13999938964844 4.5
443.2300109863281 28.80999946594238 5.489999771118164
443.0799865722656 29.3799991607666 5.25
444.3500061035156 30.27000045776367 4.769999980926514
444.4800109863281 29.71999931335449 4.96999979019165
444.6099853515625 29.19000053405762 5.059999942779541
443.7099914550781 30.52000045776367 4.420000076293945
443.8299865722656 29.95000076293945 4.960000038146973
443.3299865722656 29.04999923706055 5.440000057220459
443.4800109863281 28.45000076293945 5.5
442.7699890136719 28.72999954223633 5.489999771118164
442.9200134277344 28.1299991607666 5.510000228881836
442.5799865722656 27.22999954223633 5.119999885559082
441.9299926757812 27.44000053405762 5.070000171661377
444.0299987792969 29.85000038146973 5.110000133514404
443.8299865722656 30.61000061035156 4.389999866485596
443.2200012207031 27.6299991607666 5.480000019073486
443.0899963378906 28.17000007629395 5.579999923706055
442.8800048828125 26.68000030517578 4.960000038146973
442.760009765625 27.20999908447266 5.210000038146973
442.1600036621094 27.01000022888184 4.809999942779541
442.0499877929688 27.5 5.210000038146973
443.1000061035156 27.19000053405762 5.130000114440918
442.3699951171875 27.29000091552734 5.130000114440918
442.5 26.79999923706055 4.809999942779541
