309.7999877929688 367.6099853515625 7.130000114440918
309.0499877929688 367.7999877929688 7.150000095367432
308.3599853515625 367.9700012207031 7.039999961853027
307.8900146484375 368.0799865722656 6.519999980926514
311.8900146484375 367.8599853515625 6.869999885559082
310.0700073242188 368.3200073242188 7.380000114440918
309.4200134277344 368.4800109863281 7.289999961853027
308.7000122070312 368.6600036621094 7.21999979019165
308.0899963378906 368.8099975585938 6.889999866485596
311.9200134277344 369.0799865722656 6.75
312.1400146484375 368.4800109863281 6.869999885559082
311.4400024414062 368.6600036621094 6.860000133514404
310.5 368.8999938964844 7.309999942779541
309.8200073242188 369.0700073242188 7.21999979019165
309.1700134277344 369.2300109863281 7.019999980926514
308.2799987792969 367.5599975585938 6.940000057220459
308.9299926757812 367.3999938964844 6.929999828338623
308.2000122070312 368.3299865722656 6.96999979019165
308.7699890136719 368.1799926757812 7.130000114440918
309.3200073242188 368.0400085449219 7.309999942779541
309.8599853515625 367.9100036621094 7.360000133514404
310.5299987792969 367.739990234375 7.309999942779541
311.2000122070312 367.5799865722656 7.039999961853027
308.2000122070312 369.010009765625 6.889999866485596
308.7799987792969 368.8699951171875 7.130000114440918
309.3500061035156 368.7200012207031 7.329999923706055
309.9200134277344 368.5799865722656 7.349999904632568
310.5 368.4299926757812 7.369999885559082
311.760009765625 368.1300048828125 6.929999828338623
312.3999938964844 367.9700012207031 6.840000152587891
309.8299865722656 369.2099914550781 6.960000038146973
310.3599853515625 369.0700073242188 7.230000019073486
310.989990234375 368.9200134277344 7.170000076293945
311.6900024414062 368.75 6.909999847412109
312.2699890136719 368.6000061035156 6.860000133514404
312.5799865722656 368.5599975585938 6.760000228881836
312 368.7000122070312 6.869999885559082
311.4299926757812 368.8500061035156 6.96999979019165
310.8800048828125 368.989990234375 7.119999885559082
310.3399963378906 369.1199951171875 7.010000228881836
309.7300109863281 369.2799987792969 7.010000228881836
312.2099914550781 368.0700073242188 6.820000171661377
311.6300048828125 368.2200012207031 6.920000076293945
311.0499877929688 368.3699951171875 7.21999979019165
310.5 368.510009765625 7.329999923706055
309.9500122070312 368.6499938964844 7.369999885559082
309.4100036621094 368.7900085449219 7.289999961853027
308.8399963378906 368.9299926757812 7.110000133514404
308.260009765625 369.0700073242188 6.980000019073486
311.3299865722656 367.6099853515625 6.960000038146973
310.8200073242188 367.75 7.239999771118164
310.25 367.8900146484375 7.340000152587891
309.6799926757812 368.0400085449219 7.320000171661377
309.0700073242188 368.1900024414062 7.260000228881836
308.5199890136719 368.3299865722656 7.070000171661377
308.75 367.5299987792969 6.960000038146973
308.1799926757812 367.6799926757812 6.940000057220459
308.6300048828125 367.8699951171875 7.039999961853027
309.3299865722656 367.6900024414062 7.150000095367432
309.8500061035156 367.5599975585938 6.949999809265137
308.1799926757812 368.6300048828125 7.079999923706055
308.8399963378906 368.4599914550781 7.130000114440918
309.5 368.2900085449219 7.320000171661377
310.1300048828125 368.1300048828125 7.349999904632568
310.75 367.9800109863281 7.25
311.3399963378906 367.8299865722656 7.039999961853027
311.8800048828125 367.7000122070312 6.840000152587891
312.510009765625 367.5400085449219 6.760000228881836
308.989990234375 368.989990234375 7.130000114440918
309.6700134277344 368.8200073242188 7.309999942779541
310.2799987792969 368.6700134277344 7.360000133514404
310.8699951171875 368.5199890136719 7.260000228881836
311.3900146484375 368.3900146484375 7.059999942779541
312.0199890136719 368.2300109863281 6.889999866485596
312.5499877929688 368.1000061035156 6.75
311.010009765625 369.1900024414062 7.110000133514404
311.5599975585938 369.0499877929688 6.960000038146973
312.1799926757812 368.8999938964844 6.829999923706055
312.7900085449219 368.739990234375 6.650000095367432
308.0700073242188 368.4200134277344 6.809999942779541
308.6199951171875 368.5499877929688 7.119999885559082
309.2900085449219 368.7200012207031 7.210000038146973
310.0199890136719 368.8900146484375 7.28000020980835
308.2999877929688 367.8200073242188 6.989999771118164
308.9299926757812 367.9700012207031 7.25
309.5599975585938 368.1199951171875 7.349999904632568
310.2799987792969 368.2999877929688 7.360000133514404
312.0299987792969 368.739990234375 6.860000133514404
308.510009765625 367.2799987792969 6.920000076293945
309.1499938964844 367.4299926757812 7.090000152587891
309.8099975585938 367.5899963378906 7.300000190734863
310.5700073242188 367.7799987792969 7.300000190734863
311.4599914550781 368.010009765625 6.960000038146973
312.2699890136719 368.2099914550781 6.889999866485596
312.1900024414062 367.7999877929688 6.809999942779541
311.5899963378906 367.6600036621094 6.860000133514404
312.510009765625 368.489990234375 6.800000190734863
311.8999938964844 368.3399963378906 6.909999847412109
311.2799987792969 368.1900024414062 6.989999771118164
310.5899963378906 368.0199890136719 7.320000171661377
309.9700012207031 367.8699951171875 7.329999923706055
309.4100036621094 367.7300109863281 7.260000228881836
308.9100036621094 367.6000061035156 7.010000228881836
312.239990234375 368.9800109863281 6.739999771118164
311.6099853515625 368.8200073242188 6.929999828338623
310.8999938964844 368.6499938964844 7.289999961853027
310.239990234375 368.489990234375 7.389999866485596
309.6400146484375 368.3399963378906 7.369999885559082
309.0700073242188 368.1900024414062 7.28000020980835
308.5499877929688 368.0599975585938 7.090000152587891
308.0400085449219 367.9299926757812 6.699999809265137
309.9599914550781 369.0499877929688 7.050000190734863
309.3500061035156 368.8999938964844 7.25
308.7799987792969 368.760009765625 7.190000057220459
308.2099914550781 368.6099853515625 7.010000228881836
309.1900024414062 367.4800109863281 7.019999980926514
309.75 367.6199951171875 7.099999904632568
310.2900085449219 367.75 7.300000190734863
310.8999938964844 367.8999938964844 7.239999771118164
311.4599914550781 368.0400085449219 6.940000057220459
312.0199890136719 368.1799926757812 6.869999885559082
312.5899963378906 368.3200073242188 6.71999979019165
308.2000122070312 367.8800048828125 7
308.8200073242188 368.0299987792969 7.139999866485596
309.3999938964844 368.1700134277344 7.309999942779541
309.9700012207031 368.3099975585938 7.369999885559082
310.489990234375 368.4400024414062 7.349999904632568
311.0599975585938 368.5799865722656 7.199999809265137
311.5799865722656 368.7099914550781 6.949999809265137
312.1799926757812 368.8599853515625 6.809999942779541
308.4400024414062 368.5 7.050000190734863
309.0400085449219 368.6499938964844 7.21999979019165
309.5899963378906 368.7799987792969 7.329999923706055
310.1499938964844 368.9200134277344 7.289999961853027
310.7200012207031 369.0599975585938 7.119999885559082
308.2000122070312 369.0700073242188 6.980000019073486
308.7699890136719 369.2200012207031 6.980000019073486
312.4200134277344 367.7799987792969 6.75
311.7999877929688 367.6300048828125 6.909999847412109
309.4100036621094 367.6000061035156 7.070000171661377
312.9299926757812 368.4599914550781 6.360000133514404
312.4400024414062 368.3500061035156 6.809999942779541
311.8900146484375 368.2099914550781 6.920000076293945
311.2999877929688 368.0700073242188 7.03000020980835
310.75 367.9400024414062 7.300000190734863
310.1300048828125 367.7799987792969 7.309999942779541
312.5700073242188 369.010009765625 6.679999828338623
311.9800109863281 368.8699951171875 6.880000114440918
311.3699951171875 368.7200012207031 7.03000020980835
310.8299865722656 368.5799865722656 7.239999771118164
310.2200012207031 368.4400024414062 7.389999866485596
309.5499877929688 368.2699890136719 7.349999904632568
308.8099975585938 368.0799865722656 7.119999885559082
308.1900024414062 367.9299926757812 7.059999942779541
310.1499938964844 369.1799926757812 6.96999979019165
309.6300048828125 369.0599975585938 7.210000038146973
308.9599914550781 368.8900146484375 7.159999847412109
308.2999877929688 368.7300109863281 7.03000020980835
