413.1600036621094 495.0199890136719 7.309999942779541
413.8200073242188 494.8500061035156 7.340000152587891
414.4299926757812 494.7000122070312 7.329999923706055
412.8800048828125 495.8500061035156 7.110000133514404
413.3800048828125 495.7200012207031 7.639999866485596
414.0400085449219 495.5599975585938 7.380000114440918
413.1600036621094 496.5 7.650000095367432
413.7799987792969 496.3500061035156 7.71999979019165
414.3900146484375 496.2000122070312 7.730000019073486
412.8900146484375 497.1900024414062 7.130000114440918
413.3500061035156 497.0700073242188 7.699999809265137
413.9599914550781 496.9200134277344 7.71999979019165
413.1199951171875 497.8500061035156 7.300000190734863
414.3800048828125 497.5400085449219 7.260000228881836
413.3500061035156 498.5400085449219 7.199999809265137
413.9299926757812 498.3999938964844 7.210000038146973
414.5400085449219 498.239990234375 7.28000020980835
413.1799926757812 499.25 6.71999979019165
413.7099914550781 499.1099853515625 7.130000114440918
414.2999877929688 498.9700012207031 7.130000114440918
414.3999938964844 499.0299987792969 6.980000019073486
413.7900085449219 499.1799926757812 7
413.260009765625 499.3099975585938 6.619999885559082
414.5199890136719 498.2900085449219 7.130000114440918
413.989990234375 498.4200134277344 7.190000057220459
413.4100036621094 498.5700073242188 7.179999828338623
412.8399963378906 498.7099914550781 7.170000076293945
414.7200012207031 497.5799865722656 7.420000076293945
414.1400146484375 497.7200012207031 7.349999904632568
413.5499877929688 497.8699951171875 7.25
413 498.010009765625 7.21999979019165
414.3500061035156 497.1099853515625 7.610000133514404
413.7999877929688 497.260009765625 7.659999847412109
413.2699890136719 497.3900146484375 7.510000228881836
412.6700134277344 497.5400085449219 7.360000133514404
414.7099914550781 496.3699951171875 7.659999847412109
414.1000061035156 496.5299987792969 7.670000076293945
413.5299987792969 496.6700134277344 7.710000038146973
412.9700012207031 496.8099975585938 7.349999904632568
414.3099975585938 495.7799987792969 7.510000228881836
413.7200012207031 495.9299926757812 7.639999866485596
413.1900024414062 496.0700073242188 7.659999847412109
414.5400085449219 495.0700073242188 7.269999980926514
413.9500122070312 495.2200012207031 7.320000171661377
413.3500061035156 495.3699951171875 7.309999942779541
414.0899963378906 494.6099853515625 7.21999979019165
413.5599975585938 494.739990234375 7.260000228881836
413 494.8900146484375 7.199999809265137
413.0499877929688 494.5899963378906 7.320000171661377
413.6000061035156 494.4500122070312 7.309999942779541
412.8500061035156 495.2900085449219 7.449999809265137
413.3999938964844 495.1600036621094 7.329999923706055
413.9800109863281 495.010009765625 7.309999942779541
414.5 494.8900146484375 6.900000095367432
412.7799987792969 495.8999938964844 7.829999923706055
413.3900146484375 495.75 7.670000076293945
413.9100036621094 495.6199951171875 7.510000228881836
414.4700012207031 495.4800109863281 7.300000190734863
413.1300048828125 496.489990234375 7.75
413.7000122070312 496.3399963378906 7.690000057220459
414.2799987792969 496.2000122070312 7.639999866485596
413.6499938964844 497.0899963378906 7.670000076293945
414.260009765625 496.9400024414062 7.659999847412109
413.3399963378906 497.8200073242188 7.309999942779541
414.5199890136719 497.5199890136719 7.349999904632568
413.1300048828125 498.4299926757812 7.21999979019165
413.739990234375 498.2699890136719 7.230000019073486
414.3399963378906 498.1199951171875 7.179999828338623
413.4200134277344 499.0400085449219 7.130000114440918
414.010009765625 498.8900146484375 7.130000114440918
414.5499877929688 498.760009765625 6.960000038146973
414.5199890136719 498.7799987792969 6.989999771118164
413.9200134277344 498.9299926757812 7.159999847412109
414.0799865722656 498.1300048828125 7.25
413.3399963378906 498.3200073242188 7.239999771118164
414.1300048828125 494.6600036621094 7.110000133514404
413.5 494.8200073242188 7.329999923706055
414.2999877929688 495.2799987792969 7.320000171661377
413.6000061035156 495.4599914550781 7.289999961853027
414.3699951171875 496.010009765625 7.539999961853027
413.7200012207031 496.1799926757812 7.710000038146973
414.4100036621094 496.7300109863281 7.619999885559082
413.7300109863281 496.8999938964844 7.730000019073486
414.6000061035156 497.2799987792969 7
414.1199951171875 495.0700073242188 7.309999942779541
413.4700012207031 494.8999938964844 7.320000171661377
412.9599914550781 494.7699890136719 7.010000228881836
414.1799926757812 495.6900024414062 7.570000171661377
413.6300048828125 495.5499877929688 7.460000038146973
413.010009765625 495.3999938964844 7.300000190734863
414.2000122070312 496.3900146484375 7.710000038146973
413.6199951171875 496.239990234375 7.699999809265137
412.989990234375 496.0799865722656 7.579999923706055
414.2900085449219 497.2099914550781 7.599999904632568
413.6000061035156 497.0400085449219 7.699999809265137
413.0499877929688 496.8999938964844 7.590000152587891
414.4800109863281 497.9400024414062 7.309999942779541
414.0899963378906 498.4500122070312 7.170000076293945
413.4500122070312 498.2900085449219 7.230000019073486
412.8599853515625 498.1400146484375 7.130000114440918
413.6400146484375 498.9800109863281 7.079999923706055
413.0299987792969 498.8299865722656 7.070000171661377
413.4200134277344 499.0599975585938 7.099999904632568
414 499.2000122070312 6.900000095367432
413.1700134277344 498.3399963378906 7.210000038146973
413.7900085449219 498.489990234375 7.190000057220459
414.3200073242188 498.6199951171875 7.130000114440918
412.8299865722656 497.5299987792969 7.340000152587891
413.4400024414062 497.6799926757812 7.21999979019165
413.989990234375 497.8099975585938 7.25
414.5299987792969 497.9500122070312 7.130000114440918
413.1199951171875 496.9599914550781 7.650000095367432
413.6900024414062 497.1000061035156 7.650000095367432
414.25 497.239990234375 7.630000114440918
413.3800048828125 496.4299926757812 7.710000038146973
413.9100036621094 496.5599975585938 7.710000038146973
414.4800109863281 496.7000122070312 7.449999809265137
413.1900024414062 495.739990234375 7.550000190734863
413.8099975585938 495.8900146484375 7.630000114440918
414.3299865722656 496.0199890136719 7.619999885559082
412.9599914550781 494.9700012207031 7.260000228881836
413.5299987792969 495.1099853515625 7.320000171661377
414.0899963378906 495.239990234375 7.340000152587891
414.6199951171875 495.3800048828125 7.199999809265137
413.8500061035156 494.5700073242188 7.039999961853027
414.3900146484375 494.7099914550781 7.059999942779541
414.3099975585938 494.8500061035156 7.260000228881836
413.739990234375 494.7099914550781 7.269999980926514
413.1799926757812 494.5700073242188 7.309999942779541
414.6700134277344 495.7000122070312 7.099999904632568
414.1300048828125 495.5700073242188 7.380000114440918
413.4599914550781 495.3999938964844 7.329999923706055
412.9100036621094 495.2699890136719 7.360000133514404
414.4599914550781 496.3200073242188 7.320000171661377
413.989990234375 496.2099914550781 7.679999828338623
413.3800048828125 496.0599975585938 7.690000057220459
414.3299865722656 496.8999938964844 7.619999885559082
413.739990234375 496.75 7.710000038146973
413.1300048828125 496.6000061035156 7.71999979019165
414.5700073242188 497.6300048828125 7.179999828338623
413.510009765625 497.3800048828125 7.610000133514404
414.3399963378906 498.3599853515625 7.170000076293945
413.7300109863281 498.2000122070312 7.230000019073486
413.1300048828125 498.0599975585938 7.21999979019165
414.1799926757812 499 7.050000190734863
413.5899963378906 498.8500061035156 7.130000114440918
413.010009765625 498.7099914550781 7.239999771118164
413.989990234375 499.2300109863281 6.809999942779541
413.1199951171875 498.3800048828125 7.170000076293945
414.5700073242188 498.7300109863281 7.010000228881836
414.239990234375 497.9599914550781 7.269999980926514
413.3999938964844 497.1799926757812 7.710000038146973
413.6199951171875 496.7300109863281 7.690000057220459
414.3500061035156 496.9100036621094 7.650000095367432
414.7699890136719 497.0199890136719 6.989999771118164
414.1000061035156 496.2300109863281 7.670000076293945
414.5400085449219 496.3500061035156 7.21999979019165
413.6099853515625 495.3900146484375 7.329999923706055
414.3900146484375 495.5700073242188 7.440000057220459
413.2099914550781 494.6799926757812 7.420000076293945
414.5499877929688 495.010009765625 7.150000095367432
414.4700012207031 495.5899963378906 7.199999809265137
414.2900085449219 494.8599853515625 7.329999923706055
414.4299926757812 498.5199890136719 7.139999866485596
414.2699890136719 497.8999938964844 7.289999961853027
414.1300048828125 497.3200073242188 7.699999809265137
413.9500122070312 496.6000061035156 7.639999866485596
413.8800048828125 499.0499877929688 7.110000133514404
413.3800048828125 497.0899963378906 7.739999771118164
413.1900024414062 496.2999877929688 7.730000019073486
413.6900024414062 498.3200073242188 7.21999979019165
413.0700073242188 498.1600036621094 7.28000020980835
414.1199951171875 495.0199890136719 7.289999961853027
414.2999877929688 495.760009765625 7.570000171661377
414.4400024414062 496.3200073242188 7.53000020980835
414.5899963378906 496.8999938964844 7.28000020980835
413.4100036621094 494.7799987792969 7.340000152587891
413.5599975585938 495.3800048828125 7.369999885559082
413.7300109863281 496.1099853515625 7.699999809265137
413.8900146484375 496.7300109863281 7.679999828338623
414.0400085449219 497.3399963378906 7.590000152587891
414.1799926757812 497.8599853515625 7.309999942779541
414.3200073242188 498.3999938964844 7.159999847412109
414.4500122070312 498.9100036621094 6.889999866485596
413.0599975585938 495.6600036621094 7.349999904632568
413.2300109863281 496.3699951171875 7.690000057220459
413.3900146484375 496.9800109863281 7.679999828338623
413.5299987792969 497.5400085449219 7.489999771118164
413.6600036621094 498.0400085449219 7.289999961853027
413.8200073242188 498.6799926757812 7.170000076293945
413.9599914550781 499.2300109863281 6.960000038146973
412.9800109863281 497.7799987792969 7.25
413.1300048828125 498.3599853515625 7.199999809265137
413.2699890136719 498.9299926757812 7.130000114440918
413.3900146484375 499.4200134277344 6.789999961853027
413.3299865722656 499.4400024414062 6.980000019073486
413.1900024414062 498.8800048828125 7.119999885559082
413.0499877929688 498.2900085449219 7.210000038146973
412.9100036621094 497.75 7.25
413.9100036621094 499.2200012207031 7.019999980926514
413.7799987792969 498.6799926757812 7.159999847412109
413.6300048828125 498.0700073242188 7.230000019073486
413.489990234375 497.5 7.670000076293945
413.3399963378906 496.8900146484375 7.699999809265137
413.2000122070312 496.3599853515625 7.699999809265137
413.0599975585938 495.7999877929688 7.53000020980835
412.9299926757812 495.2699890136719 7.320000171661377
414.5599975585938 498.9599914550781 7.179999828338623
414.4200134277344 498.3900146484375 7.150000095367432
414.2699890136719 497.8200073242188 7.239999771118164
414.1400146484375 497.239990234375 7.650000095367432
414 496.6799926757812 7.699999809265137
413.8599853515625 496.1600036621094 7.670000076293945
413.7000122070312 495.5499877929688 7.360000133514404
413.5599975585938 494.9700012207031 7.320000171661377
414.5599975585938 496.3399963378906 7.300000190734863
414.4200134277344 495.7900085449219 7.46999979019165
414.2799987792969 495.2300109863281 7.28000020980835
414.1499938964844 494.6900024414062 7.260000228881836
414.1199951171875 494.739990234375 7.170000076293945
414.239990234375 495.2699890136719 7.349999904632568
414.3800048828125 495.8299865722656 7.559999942779541
413.4700012207031 495.0899963378906 7.360000133514404
413.6000061035156 495.6199951171875 7.519999980926514
413.739990234375 496.2200012207031 7.699999809265137
413.8999938964844 496.8500061035156 7.659999847412109
414.25 498.239990234375 7.190000057220459
414.4200134277344 498.9200134277344 7.099999904632568
412.8099975585938 495.1300048828125 7.239999771118164
412.9400024414062 495.6700134277344 7.369999885559082
413.0700073242188 496.2000122070312 7.630000114440918
413.2000122070312 496.75 7.71999979019165
413.3599853515625 497.3900146484375 7.650000095367432
413.5599975585938 498.1400146484375 7.239999771118164
413.7099914550781 498.75 7.21999979019165
413.1199951171875 498.6400146484375 7.179999828338623
412.9599914550781 498.010009765625 7.210000038146973
413.9100036621094 499.3299865722656 6.869999885559082
414.3900146484375 499.0599975585938 6.980000019073486
414.5400085449219 498.4299926757812 7.059999942779541
414.6600036621094 497.9100036621094 7.349999904632568
413.7300109863281 499.2999877929688 6.869999885559082
413.8399963378906 498.8099975585938 7.139999866485596
413.989990234375 498.2099914550781 7.230000019073486
414.25 497.0899963378906 7.650000095367432
413.25 498.989990234375 7.110000133514404
413.3999938964844 498.3999938964844 7.21999979019165
413.5400085449219 497.7999877929688 7.309999942779541
413.6600036621094 497.2699890136719 7.639999866485596
413.8200073242188 496.6300048828125 7.690000057220459
413.9700012207031 496.010009765625 7.690000057220459
414.1700134277344 495.2799987792969 7.289999961853027
414.3099975585938 494.7200012207031 7.329999923706055
412.8999938964844 498.010009765625 7.139999866485596
413.0499877929688 497.3999938964844 7.28000020980835
413.1600036621094 496.9100036621094 7.650000095367432
413.3099975585938 496.2799987792969 7.679999828338623
413.4800109863281 495.6199951171875 7.429999828338623
413.6499938964844 494.989990234375 7.329999923706055
413.4299926757812 495.0899963378906 7.320000171661377
413.3099975585938 495.6199951171875 7.389999866485596
413.1799926757812 496.1799926757812 7.670000076293945
413.0199890136719 496.75 7.349999904632568
414.1300048828125 494.7900085449219 7.269999980926514
413.9800109863281 495.3999938964844 7.329999923706055
413.8599853515625 495.9200134277344 7.659999847412109
413.7200012207031 496.489990234375 7.699999809265137
413.5899963378906 497.0199890136719 7.650000095367432
413.2799987792969 498.1600036621094 7.21999979019165
413.1400146484375 498.7300109863281 7.150000095367432
414.5199890136719 496.0799865722656 7.340000152587891
414.3800048828125 496.6799926757812 7.619999885559082
414.2300109863281 497.2799987792969 7.579999923706055
414.0799865722656 497.8200073242188 7.28000020980835
413.9299926757812 498.4100036621094 7.21999979019165
413.7699890136719 499.0199890136719 7.110000133514404
414.6700134277344 498.0400085449219 7.190000057220459
414.5299987792969 498.5599975585938 7.099999904632568
413.9500122070312 499.2000122070312 7
414.1199951171875 498.4800109863281 7.179999828338623
414.2799987792969 497.8500061035156 7.179999828338623
414.4400024414062 497.1700134277344 7.460000038146973
413.3800048828125 498.8999938964844 7.110000133514404
413.5400085449219 498.2200012207031 7.21999979019165
413.8500061035156 496.8999938964844 7.699999809265137
414.010009765625 496.2799987792969 7.699999809265137
414.1600036621094 495.6799926757812 7.510000228881836
414.2999877929688 495.1600036621094 7.309999942779541
414.4400024414062 494.7300109863281 6.590000152587891
412.8800048828125 498.5299987792969 7.179999828338623
413.0499877929688 497.8699951171875 7.210000038146973
413.2000122070312 497.1600036621094 7.679999828338623
413.3599853515625 496.5400085449219 7.710000038146973
413.5 495.9800109863281 7.670000076293945
413.6400146484375 495.4400024414062 7.440000057220459
413.7900085449219 494.8599853515625 7.269999980926514
412.9700012207031 495.6199951171875 7.360000133514404
413.1099853515625 495.0499877929688 7.320000171661377
