117.3000030517578 460.3200073242188 13.11999988555908
117.4300003051758 459.6099853515625 13.22000026702881
116.8199996948242 459.7699890136719 13.1899995803833
116.2200012207031 459.9200134277344 13.07999992370605
117.1100006103516 459.0899963378906 13.19999980926514
116.4199981689453 459.2699890136719 13.19999980926514
115.8000030517578 459.4200134277344 13.01000022888184
117.2300033569336 458.5499877929688 13.59000015258789
116.629997253418 458.7000122070312 13.4399995803833
116.129997253418 458.8299865722656 13.18000030517578
117.5500030517578 457.8299865722656 13.6899995803833
116.9400024414062 457.9800109863281 13.63000011444092
116.2699966430664 458.1499938964844 13.61999988555908
115.8399963378906 458.25 12.90999984741211
117.8300018310547 457.0199890136719 13.31999969482422
117.1800003051758 457.1799926757812 13.35000038146973
116.4700012207031 457.3599853515625 13.61999988555908
116.0100021362305 457.4700012207031 13.06999969482422
117.4700012207031 456.4400024414062 13.05000019073486
116.8199996948242 456.6000061035156 13.11999988555908
116.129997253418 456.7699890136719 13.10999965667725
117.620002746582 455.8900146484375 13.10000038146973
117.129997253418 456.010009765625 12.6899995803833
116.4800033569336 456.1700134277344 12.77000045776367
115.8099975585938 456.3399963378906 12.90999984741211
117.3899993896484 455.3599853515625 12.86999988555908
116.8199996948242 455.5 12.65999984741211
116.0299987792969 455.7099914550781 12.96000003814697
115.8000030517578 455.7099914550781 12.97000026702881
116.379997253418 455.5700073242188 12.78999996185303
116.9800033569336 455.4200134277344 12.72000026702881
117.5500030517578 455.2799987792969 12.93000030517578
115.7099990844727 456.5 13.05000019073486
116.2399978637695 456.3699951171875 13.05000019073486
116.8899993896484 456.2099914550781 12.72999954223633
117.4300003051758 456.0799865722656 12.72999954223633
115.6600036621094 457.2200012207031 13.17000007629395
116.2300033569336 457.0700073242188 13.15999984741211
116.8099975585938 456.9299926757812 13.14000034332275
117.3899993896484 456.7900085449219 13.1899995803833
116.0899963378906 457.6900024414062 13.22999954223633
116.5800018310547 457.5700073242188 13.64999961853027
117.1900024414062 457.4100036621094 13.64000034332275
117.7600021362305 457.2799987792969 13.26000022888184
115.9800033569336 458.3800048828125 13.17000007629395
116.5100021362305 458.239990234375 13.61999988555908
117.0800018310547 458.1000061035156 13.64999961853027
117.6999969482422 457.9500122070312 13.27000045776367
115.9499969482422 459.0899963378906 13.10000038146973
116.5100021362305 458.9500122070312 13.22999954223633
117.0400009155273 458.8200073242188 13.26000022888184
117.6500015258789 458.6700134277344 13.22999954223633
115.870002746582 459.760009765625 13.03999996185303
116.4599990844727 459.6199951171875 13.17000007629395
117.0500030517578 459.4700012207031 13.22000026702881
117.5999984741211 459.3299865722656 13.17000007629395
116.370002746582 460.2200012207031 12.98999977111816
116.9000015258789 460.0899963378906 12.93000030517578
117.4700012207031 459.9500122070312 13.0600004196167
117.2799987792969 460.0199890136719 13.01000022888184
116.6800003051758 460.1700134277344 12.93000030517578
117.5699996948242 459.25 13.13000011444092
117 459.3999938964844 13.21000003814697
116.3499984741211 459.5599975585938 13.18000030517578
115.8000030517578 459.7000122070312 13.10999965667725
117.879997253418 458.4299926757812 13.22000026702881
117.3899993896484 458.5599975585938 13.47000026702881
116.7300033569336 458.7200012207031 13.38000011444092
116.1500015258789 458.8699951171875 13.19999980926514
117.5199966430664 457.8200073242188 13.28999996185303
116.9800033569336 457.9700012207031 13.65999984741211
116.3600006103516 458.1300048828125 13.65999984741211
117.7900009155273 457.1600036621094 13.07999992370605
117.3000030517578 457.2900085449219 13.59000015258789
116.7200012207031 457.4400024414062 13.64999961853027
116.1100006103516 457.5899963378906 13.5
118.0400009155273 456.4100036621094 13
117.4700012207031 456.5599975585938 13.10999965667725
116.8600006103516 456.7099914550781 13.14000034332275
116.25 456.8699951171875 13.14999961853027
117.6999969482422 455.75 13.01000022888184
117.0899963378906 455.8999938964844 12.6899995803833
116.4599990844727 456.0599975585938 12.72999954223633
115.9800033569336 456.1900024414062 13.0600004196167
117.3499984741211 455.1400146484375 13.02999973297119
116.7200012207031 455.2999877929688 12.88000011444092
116.129997253418 455.4500122070312 13
116.1600036621094 455.3999938964844 13.05000019073486
116.75 455.260009765625 12.89000034332275
116.4599990844727 455.9599914550781 12.81999969482422
117.0899963378906 455.7999877929688 12.64999961853027
116.2900009155273 456.7000122070312 13.18000030517578
116.879997253418 456.5499877929688 13.0600004196167
117.4700012207031 456.3999938964844 12.75
116.9100036621094 457.2000122070312 13.35999965667725
117.5400009155273 457.0400085449219 13.14999961853027
116.3099975585938 457.3399963378906 13.64999961853027
116.7799987792969 457.7900085449219 13.6899995803833
117.4300003051758 457.6300048828125 13.63000011444092
116.5199966430664 458.5499877929688 13.52000045776367
117.2900009155273 458.3500061035156 13.63000011444092
117.7200012207031 458.25 12.98999977111816
116.1600036621094 459.3599853515625 13.17000007629395
116.8899993896484 459.1799926757812 13.23999977111816
117.5500030517578 459.010009765625 13.17000007629395
116.7200012207031 459.8699951171875 13.15999984741211
117.4499969482422 459.6799926757812 13.14000034332275
115.9000015258789 460.0400085449219 12.89000034332275
116.5800018310547 460.2099914550781 12.92000007629395
115.8300018310547 459.4599914550781 12.98999977111816
116.4100036621094 459.6000061035156 13.18000030517578
117.129997253418 459.7799987792969 13.14999961853027
115.8300018310547 458.8800048828125 12.93000030517578
116.3300018310547 459 13.21000003814697
117.0400009155273 459.1799926757812 13.21000003814697
115.879997253418 458.2099914550781 12.89000034332275
116.3099975585938 458.2999877929688 13.61999988555908
116.9599990844727 458.4700012207031 13.61999988555908
115.8300018310547 457.5799865722656 12.81999969482422
116.2200012207031 457.6700134277344 13.61999988555908
116.8000030517578 457.8099975585938 13.68000030517578
117.4700012207031 457.9700012207031 13.71000003814697
115.9100036621094 457 12.94999980926514
116.4100036621094 457.1199951171875 13.38000011444092
116.9700012207031 457.260009765625 13.60999965667725
117.5199966430664 457.3999938964844 13.75
115.8899993896484 456.3500061035156 12.90999984741211
116.4400024414062 456.489990234375 13.02999973297119
117.0699996948242 456.6499938964844 13.14000034332275
117.6900024414062 456.7999877929688 13.23999977111816
116 455.6300048828125 12.89000034332275
116.6999969482422 455.8099975585938 12.6899995803833
117.3300018310547 455.9700012207031 12.71000003814697
116.4800033569336 455.1199951171875 12.92000007629395
117.1900024414062 455.2999877929688 12.77999973297119
117.6600036621094 455.6700134277344 12.97999954223633
117.1500015258789 455.5400085449219 12.6899995803833
116.5899963378906 455.3999938964844 12.69999980926514
116.0400009155273 455.260009765625 12.97999954223633
117.3899993896484 456.239990234375 12.80000019073486
116.8300018310547 456.1099853515625 12.69999980926514
116.2399978637695 455.9599914550781 12.9399995803833
117.4300003051758 456.8500061035156 13.18000030517578
116.9000015258789 456.7099914550781 13.17000007629395
116.3399963378906 456.5700073242188 13.11999988555908
117.5500030517578 457.5400085449219 13.48999977111816
116.9700012207031 457.3999938964844 13.64999961853027
116.4499969482422 457.260009765625 13.55000019073486
115.879997253418 457.1199951171875 13.13000011444092
117.5699996948242 458.3299865722656 13.32999992370605
116.9599990844727 458.1799926757812 13.65999984741211
116.4000015258789 458.0499877929688 13.64999961853027
115.9199981689453 457.9200134277344 13.06999969482422
117.7699966430664 459.0700073242188 13.1899995803833
117.1800003051758 458.9200134277344 13.25
116.6100006103516 458.7799987792969 13.35999965667725
116.0999984741211 458.6499938964844 13.19999980926514
117.2399978637695 459.5400085449219 13.1899995803833
116.6699981689453 459.3999938964844 13.22999954223633
116.1100006103516 459.260009765625 13.14999961853027
117.4000015258789 460.2200012207031 12.98999977111816
116.8199996948242 460.0799865722656 13.06999969482422
116.2600021362305 459.9400024414062 13.05000019073486
116.129997253418 459.5299987792969 13.14000034332275
116.6900024414062 459.6700134277344 13.17000007629395
117.25 459.8099975585938 13.14999961853027
115.9499969482422 458.8399963378906 13.26000022888184
116.5699996948242 458.989990234375 13.23999977111816
117.120002746582 459.1300048828125 13.23999977111816
117.6600036621094 459.260009765625 13.07999992370605
116.4100036621094 458.25 13.64000034332275
117 458.3900146484375 13.64999961853027
117.5 458.510009765625 13.40999984741211
116.25 457.4200134277344 13.56999969482422
116.8600006103516 457.5700073242188 13.67000007629395
117.4199981689453 457.7099914550781 13.61999988555908
116.4000015258789 456.7999877929688 13.17000007629395
116.9499969482422 456.9299926757812 13.15999984741211
117.5199966430664 457.0700073242188 13.18000030517578
116.0500030517578 456.1099853515625 13.11999988555908
116.6100006103516 456.25 12.71000003814697
117.1699981689453 456.3900146484375 12.8100004196167
117.7900009155273 456.5400085449219 12.97999954223633
116.2900009155273 455.5 12.75
116.8600006103516 455.6400146484375 12.65999984741211
117.4300003051758 455.7799987792969 12.78999996185303
117.2099990844727 455.3500061035156 12.90999984741211
116.5500030517578 455.1900024414062 12.94999980926514
117.3399963378906 456.0799865722656 12.67000007629395
116.629997253418 455.8999938964844 12.64999961853027
116.129997253418 455.7900085449219 13.10000038146973
117.2099990844727 456.6900024414062 13.11999988555908
116.4899978637695 456.510009765625 13.02000045776367
117.5500030517578 457.4500122070312 13.35999965667725
116.1100006103516 457.0899963378906 13.26000022888184
117.7099990844727 458.2300109863281 12.97999954223633
117.3099975585938 458.1400146484375 13.67000007629395
116.6100006103516 457.9700012207031 13.61999988555908
117.4400024414062 458.8099975585938 13.35999965667725
116.8499984741211 458.6600036621094 13.57999992370605
116.1600036621094 458.5 13.64000034332275
117.6600036621094 459.4500122070312 13.06999969482422
117.0100021362305 459.2900085449219 13.22000026702881
116.3300018310547 459.1199951171875 13.22000026702881
117.1800003051758 460.010009765625 13.11999988555908
116.4599990844727 459.8399963378906 13.18000030517578
115.9499969482422 455.5700073242188 12.98999977111816
116.1100006103516 456.1799926757812 13.02000045776367
116.2699966430664 456.8200073242188 13.14999961853027
116.4400024414062 457.5499877929688 13.63000011444092
116.6100006103516 458.2099914550781 13.68000030517578
116.75 458.75 13.47000026702881
116.8899993896484 459.3200073242188 13.23999977111816
117.0400009155273 459.8800048828125 13.14999961853027
116.5899963378906 455.5 12.65999984741211
116.7699966430664 456.239990234375 12.85000038146973
116.9499969482422 456.9599914550781 13.18000030517578
115.7900009155273 459.4500122070312 13.18000030517578
115.9300003051758 460 13.0600004196167
116.0100021362305 457.8800048828125 13.4399995803833
116.1699981689453 458.5400085449219 13.57999992370605
116.3199996948242 459.1099853515625 13.25
116.4700012207031 459.7200012207031 13.1899995803833
116.6100006103516 460.2300109863281 12.88000011444092
117.379997253418 455.7699890136719 12.69999980926514
117.5500030517578 456.4800109863281 13.07999992370605
117.6999969482422 457.0700073242188 13.05000019073486
117.129997253418 457.7099914550781 13.65999984741211
117.2799987792969 458.3299865722656 13.65999984741211
117.4300003051758 458.8800048828125 13.27000045776367
117.5800018310547 459.4700012207031 13.10999965667725
117.1600036621094 460.3399963378906 12.67000007629395
116.1600036621094 460.2699890136719 12.98999977111816
116.0199966430664 459.7099914550781 13.13000011444092
115.879997253418 459.1400146484375 13.14999961853027
116.7699966430664 457.0599975585938 13.17000007629395
116.620002746582 456.4700012207031 12.93000030517578
116.4800033569336 455.9299926757812 12.64000034332275
116.3300018310547 455.3399963378906 12.71000003814697
116.6999969482422 459.5 13.21000003814697
116.5599975585938 458.9299926757812 13.28999996185303
116.4199981689453 458.3399963378906 13.64000034332275
116.2799987792969 457.8200073242188 13.60000038146973
116.129997253418 457.2300109863281 13.22999954223633
116 456.7099914550781 13.14000034332275
115.8600006103516 456.1499938964844 13.10000038146973
116.8600006103516 460.1199951171875 13.06999969482422
117.4800033569336 459.8800048828125 12.98999977111816
117.3399963378906 459.3299865722656 13.1899995803833
117.1999969482422 458.75 13.55000019073486
117.0699996948242 458.2200012207031 13.67000007629395
116.9300003051758 457.6700134277344 13.65999984741211
117.5800018310547 458.0400085449219 13.11999988555908
117.4499969482422 457.5199890136719 13.32999992370605
117.3000030517578 456.9500122070312 13.15999984741211
117.1600036621094 456.4200134277344 12.72999954223633
117.0100021362305 455.8099975585938 12.67000007629395
116.8600006103516 455.2699890136719 12.09000015258789
117.7900009155273 456.3500061035156 13.03999996185303
117.6399993896484 455.760009765625 13.05000019073486
116.8399963378906 455.2999877929688 12.48999977111816
115.7900009155273 458.9800109863281 13.11999988555908
115.9400024414062 459.5499877929688 13.10999965667725
116.0899963378906 460.1499938964844 13.10000038146973
115.7799987792969 456.7099914550781 13.03999996185303
115.9400024414062 457.3299865722656 13.17000007629395
116.0500030517578 457.7999877929688 13.55000019073486
116.1999969482422 458.3999938964844 13.63000011444092
116.3899993896484 459.1000061035156 13.1899995803833
116.5400009155273 459.6900024414062 13.22000026702881
116.6999969482422 460.3200073242188 13.1899995803833
116.1800003051758 455.6300048828125 12.90999984741211
116.3499984741211 456.2799987792969 12.8100004196167
116.4800033569336 456.7999877929688 13.14000034332275
116.5999984741211 457.2999877929688 13.5600004196167
116.75 457.8999938964844 13.6899995803833
117.5199966430664 455.3399963378906 13.01000022888184
117.6699981689453 455.9299926757812 13.10000038146973
116.9700012207031 455.8200073242188 12.6899995803833
117.1100006103516 456.3999938964844 12.73999977111816
117.2399978637695 456.8900146484375 13.18000030517578
117.3600006103516 457.3999938964844 13.55000019073486
117.5299987792969 458.0700073242188 13.36999988555908
116.9100036621094 458.510009765625 13.67000007629395
117.0999984741211 459.25 13.22999954223633
117.25 459.8200073242188 13.18000030517578
115.9499969482422 459.2300109863281 13.13000011444092
116.7200012207031 459.6000061035156 13.17000007629395
116.5500030517578 458.8800048828125 13.17000007629395
116.2900009155273 457.8500061035156 13.67000007629395
116.1399993896484 457.2300109863281 13.39000034332275
116 456.6400146484375 13.0600004196167
116.120002746582 459.8999938964844 13.18000030517578
117.3600006103516 459.2900085449219 13.17000007629395
117.1100006103516 458.2699890136719 13.67000007629395
116.9300003051758 457.5400085449219 13.65999984741211
116.8099975585938 457.0499877929688 13.19999980926514
116.6900024414062 456.5499877929688 12.73999977111816
116.5299987792969 455.8800048828125 12.69999980926514
116.3499984741211 455.1499938964844 12.59000015258789
117.6900024414062 455.8599853515625 13.02999973297119
117.5299987792969 455.1900024414062 12.77999973297119
117.5100021362305 457.2900085449219 13.36999988555908
117.3499984741211 456.6400146484375 13.10000038146973
117.2300033569336 456.1700134277344 12.6899995803833
117.0599975585938 455.4800109863281 12.60000038146973
116.9199981689453 454.8599853515625 12.47000026702881
116.9400024414062 460.3099975585938 12.80000019073486
116.4199981689453 460.0799865722656 13.11999988555908
116.5599975585938 459.4800109863281 13.22000026702881
116.8199996948242 458.3699951171875 13.68000030517578
116.9599990844727 457.7799987792969 13.64999961853027
115.8499984741211 459.6700134277344 13.02000045776367
116 459.0599975585938 13.15999984741211
116.120002746582 458.5199890136719 13.5
116.2600021362305 457.9299926757812 13.63000011444092
116.4199981689453 457.3099975585938 13.47999954223633
116.6399993896484 456.5299987792969 12.90999984741211
116.8099975585938 455.8599853515625 12.64999961853027
116.9400024414062 455.2799987792969 12.98999977111816
115.9100036621094 456.9700012207031 13.03999996185303
116.0699996948242 456.3399963378906 13.02000045776367
116.25 455.6600036621094 12.85999965667725
117.4899978637695 460.0599975585938 13.07999992370605
117.620002746582 459.510009765625 13.15999984741211
117.1900024414062 456.9599914550781 13.18000030517578
117.3899993896484 456.2200012207031 12.77999973297119
117.5299987792969 455.6400146484375 12.93000030517578
117.0500030517578 459.760009765625 13.19999980926514
117.2099990844727 459.1400146484375 13.23999977111816
117.3399963378906 458.5499877929688 13.47999954223633
117.4800033569336 457.9800109863281 13.51000022888184
117.6800003051758 457.25 13.1899995803833
116.3199996948242 455.6199951171875 12.64999961853027
116.1800003051758 456.2200012207031 12.98999977111816
116.0400009155273 456.7999877929688 13.14000034332275
115.9000015258789 457.3800048828125 13.14999961853027
116.7099990844727 457.0199890136719 13.14000034332275
116.5800018310547 457.6300048828125 13.64999961853027
116.4499969482422 458.1700134277344 13.65999984741211
116.2900009155273 458.75 13.23999977111816
116.1500015258789 459.2999877929688 13.18000030517578
116.0100021362305 459.8500061035156 13.07999992370605
116.7200012207031 459.6300048828125 13.21000003814697
116.5599975585938 460.1900024414062 12.82999992370605
117.0999984741211 455.3800048828125 12.65999984741211
116.9599990844727 455.9200134277344 12.68000030517578
116.8300018310547 456.4700012207031 12.77999973297119
117.620002746582 458.8200073242188 13.10000038146973
117.4800033569336 459.3800048828125 13.14000034332275
117.3499984741211 459.9100036621094 13.05000019073486
117.6999969482422 455.6099853515625 13.03999996185303
117.5599975585938 456.1799926757812 13.02999973297119
117.4199981689453 456.7799987792969 13.13000011444092
117.3000030517578 457.3200073242188 13.52999973297119
117.1500015258789 457.9400024414062 13.67000007629395
117.0100021362305 458.5 13.64000034332275
116.8499984741211 459.1000061035156 13.23999977111816
116.5500030517578 459.7099914550781 13.1899995803833
116.7099990844727 459.0899963378906 13.22000026702881
116.870002746582 458.3699951171875 13.68000030517578
115.9800033569336 459.3099975585938 13.17000007629395
116.1500015258789 458.5899963378906 13.42000007629395
116.3000030517578 457.9700012207031 13.64999961853027
116.4499969482422 457.3800048828125 13.63000011444092
116.5699996948242 456.9400024414062 13.17000007629395
116.7099990844727 456.4500122070312 12.71000003814697
116.870002746582 455.8599853515625 12.67000007629395
115.8600006103516 456.6099853515625 13.06999969482422
116 456.0700073242188 13
116.1600036621094 455.4400024414062 12.98999977111816
117.0100021362305 455.2999877929688 12.52999973297119
117.0100021362305 457.8099975585938 13.71000003814697
117.1600036621094 457.260009765625 13.35000038146973
117.3099975585938 456.7200012207031 13.09000015258789
117.4599990844727 456.1600036621094 12.92000007629395
117.6100006103516 455.5400085449219 13
117.0899963378906 459.9299926757812 13.17000007629395
117.2600021362305 459.2699890136719 13.22000026702881
117.4199981689453 458.6000061035156 13.43000030517578
117.5599975585938 458.0599975585938 13.22000026702881
117.6999969482422 457.5199890136719 13.15999984741211
116.7399978637695 456.1400146484375 12.68000030517578
116.620002746582 456.6799926757812 13.07999992370605
116.4899978637695 457.2200012207031 13.44999980926514
116.3499984741211 457.8299865722656 13.63000011444092
116.0999984741211 458.8099975585938 13.15999984741211
115.9300003051758 459.510009765625 13.14000034332275
116.3199996948242 455.3800048828125 12.9399995803833
116.1500015258789 456.0899963378906 13.02999973297119
115.9899978637695 456.75 13.14999961853027
117.6900024414062 455.2099914550781 12.77000045776367
117.5299987792969 455.8800048828125 12.89999961853027
117.3499984741211 456.6099853515625 12.93000030517578
117.2200012207031 457.1799926757812 13.26000022888184
117.1100006103516 457.6400146484375 13.68000030517578
116.9199981689453 458.4299926757812 13.6899995803833
116.6600036621094 459.4500122070312 13.1899995803833
116.5 460.1199951171875 13.32999992370605
116.9400024414062 455.3599853515625 12.64999961853027
117.8399963378906 457.9299926757812 13.02000045776367
117.6800003051758 458.5899963378906 13.13000011444092
117.5100021362305 459.2799987792969 13.15999984741211
117.3399963378906 459.9700012207031 13.22000026702881
