428.6199951171875 497.3299865722656 7.360000133514404
429.1600036621094 497.1900024414062 7.480000019073486
429.7900085449219 497.0400085449219 7.5
428.739990234375 497.989990234375 7.5
429.4299926757812 497.8200073242188 7.519999980926514
428.4700012207031 498.6600036621094 6.949999809265137
428.9100036621094 498.5400085449219 7.53000020980835
429.510009765625 498.3900146484375 7.489999771118164
428.5700073242188 499.3299865722656 7.119999885559082
429.1199951171875 499.1900024414062 7.409999847412109
429.7300109863281 499.0400085449219 7.480000019073486
429.8900146484375 498.5499877929688 7.449999809265137
429.2999877929688 498.7000122070312 7.5
428.75 498.8399963378906 7.420000076293945
430.0599975585938 497.7900085449219 7.269999980926514
429.4500122070312 497.9500122070312 7.510000228881836
428.8599853515625 498.1000061035156 7.480000019073486
428.3399963378906 498.2300109863281 6.949999809265137
429.6700134277344 497.1499938964844 7.46999979019165
429.0499877929688 497.2999877929688 7.489999771118164
428.5400085449219 497.4299926757812 7.019999980926514
428.8299865722656 497.260009765625 7.46999979019165
429.4299926757812 497.1099853515625 7.46999979019165
430.0400085449219 496.9599914550781 7.329999923706055
428.7300109863281 497.9700012207031 7.489999771118164
429.3099975585938 497.8200073242188 7.510000228881836
429.8800048828125 497.6799926757812 7.489999771118164
429.1400146484375 498.6000061035156 7.449999809265137
429.7900085449219 498.4400024414062 7.510000228881836
429.739990234375 499.1700134277344 7.429999828338623
429.2099914550781 497.9599914550781 7.510000228881836
429.239990234375 497.1600036621094 7.510000228881836
429.3500061035156 496.7300109863281 7.389999866485596
429.4100036621094 497.4500122070312 7.480000019073486
428.7799987792969 497.2900085449219 7.46999979019165
428.3900146484375 497.1900024414062 6.75
429.510009765625 498.239990234375 7.510000228881836
428.8900146484375 498.0899963378906 7.510000228881836
428.4700012207031 497.9700012207031 6.960000038146973
429.7799987792969 498.9700012207031 7.489999771118164
429.1499938964844 498.8099975585938 7.460000038146973
428.5299987792969 498.6499938964844 7.380000114440918
428.4800109863281 499.2300109863281 6.21999979019165
428.5899963378906 499.510009765625 7.050000190734863
428.8999938964844 498.8599853515625 7.449999809265137
429.4700012207031 499 7.480000019073486
428.6000061035156 498.1700134277344 7.329999923706055
429.1600036621094 498.3099975585938 7.53000020980835
429.739990234375 498.4500122070312 7.5
428.8299865722656 497.6600036621094 7.46999979019165
429.4400024414062 497.8099975585938 7.510000228881836
429.9700012207031 497.9400024414062 7.489999771118164
428.6600036621094 496.9700012207031 7.260000228881836
429.2000122070312 497.1000061035156 7.449999809265137
429.7999877929688 497.239990234375 7.460000038146973
429.8800048828125 497.3699951171875 7.46999979019165
429.239990234375 497.2099914550781 7.460000038146973
428.6600036621094 497.0599975585938 7.340000152587891
429.6000061035156 497.9400024414062 7.53000020980835
429 497.7900085449219 7.5
430.0700073242188 498.739990234375 7.449999809265137
429.4400024414062 498.5899963378906 7.46999979019165
428.8699951171875 498.4500122070312 7.519999980926514
428.5 499.1099853515625 7.210000038146973
428.9299926757812 498.0199890136719 7.5
428.6900024414062 497.3999938964844 7.440000057220459
429.4400024414062 497.5799865722656 7.489999771118164
429.760009765625 497.6300048828125 7.190000057220459
429.6199951171875 499.2799987792969 6.53000020980835
429.4800109863281 498.7300109863281 6.900000095367432
429.010009765625 499.5499877929688 5.929999828338623
428.9200134277344 499.2200012207031 6.730000019073486
428.7699890136719 498.6000061035156 6.889999866485596
429.3999938964844 495.739990234375 7.460000038146973
429.5700073242188 496.4100036621094 7.539999961853027
429.7000122070312 496.9500122070312 7.460000038146973
428.7099914550781 495.5299987792969 7.449999809265137
428.8699951171875 496.1700134277344 7.489999771118164
429.0299987792969 496.7999877929688 7.510000228881836
429.1700134277344 497.3599853515625 7.380000114440918
429.4400024414062 498.4200134277344 6.929999828338623
429.5799865722656 498.9700012207031 6.809999942779541
428.5199890136719 497.010009765625 7.420000076293945
428.8099975585938 498.1300048828125 7.03000020980835
428.9599914550781 498.7099914550781 6.909999847412109
429.1000061035156 499.239990234375 6.639999866485596
428.3699951171875 498.9100036621094 6.78000020980835
429.9200134277344 497.1300048828125 7.289999961853027
429.7900085449219 496.5700073242188 7.46999979019165
429.6499938964844 496.0299987792969 7.449999809265137
429.5199890136719 495.489990234375 7.449999809265137
430.0599975585938 497.6900024414062 7.019999980926514
429.75 499.1400146484375 6.349999904632568
429.6199951171875 498.6099853515625 6.880000114440918
429.4700012207031 498 6.96999979019165
429.2099914550781 496.8999938964844 7.489999771118164
429.0599975585938 496.3299865722656 7.480000019073486
428.9100036621094 495.7200012207031 7.46999979019165
428.7799987792969 495.2000122070312 7.409999847412109
429.1000061035156 499.4100036621094 5.929999828338623
428.9700012207031 498.8099975585938 6.840000152587891
428.8200073242188 498.2300109863281 6.940000057220459
428.5400085449219 497.0799865722656 7.389999866485596
428.3999938964844 496.5299987792969 7.230000019073486
429.6900024414062 495.25 7.389999866485596
428.9800109863281 495.1799926757812 7.340000152587891
429.1099853515625 495.75 7.46999979019165
429.25 496.3099975585938 7.53000020980835
429.760009765625 498.3399963378906 6.940000057220459
428.4100036621094 495.6199951171875 7.429999828338623
428.5599975585938 496.2000122070312 7.460000038146973
428.7099914550781 496.8399963378906 7.46999979019165
429.0599975585938 498.2200012207031 7.019999980926514
429.2300109863281 498.8900146484375 6.880000114440918
428.6300048828125 498.7300109863281 6.849999904632568
429.7699890136719 498.9299926757812 6.820000171661377
429.6700134277344 499.2300109863281 5.989999771118164
429.0400085449219 499.2799987792969 6.75
428.5 499.0499877929688 6.690000057220459
429.3900146484375 499.1199951171875 6.71999979019165
429.5199890136719 498.5599975585938 6.920000076293945
428.6900024414062 499.4100036621094 6.510000228881836
428.760009765625 499.25 5.909999847412109
428.8200073242188 498.8500061035156 6.840000152587891
428.9500122070312 498.2999877929688 6.929999828338623
429.2099914550781 497.2000122070312 7.440000057220459
429.3699951171875 496.5499877929688 7.440000057220459
429.510009765625 495.9700012207031 7.420000076293945
429.6799926757812 495.2999877929688 7.420000076293945
428.3999938964844 498.3900146484375 6.880000114440918
428.6400146484375 497.3299865722656 7.380000114440918
428.7699890136719 496.7900085449219 7.489999771118164
428.9200134277344 496.1799926757812 7.480000019073486
429.0799865722656 495.5499877929688 7.460000038146973
428.4400024414062 495.7099914550781 7.409999847412109
428.8399963378906 495.4200134277344 7.420000076293945
428.7000122070312 495.989990234375 7.46999979019165
428.5400085449219 496.5799865722656 7.409999847412109
429.3999938964844 495.6000061035156 7.440000057220459
429.260009765625 496.1700134277344 7.489999771118164
429.1099853515625 496.739990234375 7.480000019073486
428.9700012207031 497.3099975585938 7.420000076293945
428.6600036621094 498.4100036621094 6.889999866485596
428.5 499.0199890136719 6.699999809265137
429.9100036621094 496.3900146484375 7.440000057220459
429.760009765625 496.9700012207031 7.440000057220459
429.4599914550781 498.1000061035156 6.980000019073486
429.3099975585938 498.6700134277344 6.880000114440918
429.1600036621094 499.2099914550781 6.619999885559082
430.2099914550781 497.6099853515625 7
430.0700073242188 498.1600036621094 6.920000076293945
429.9100036621094 498.760009765625 6.800000190734863
429.8900146484375 498.3800048828125 6.909999847412109
429.7999877929688 496.0899963378906 7.429999828338623
429.1499938964844 498.7900085449219 6.829999923706055
429.6400146484375 496.7200012207031 7.53000020980835
428.6700134277344 498.3900146484375 6.949999809265137
428.9700012207031 497.0700073242188 7.400000095367432
429.1400146484375 496.3999938964844 7.440000057220459
429.2799987792969 495.8299865722656 7.460000038146973
429.4400024414062 495.1799926757812 7.429999828338623
428.6000061035156 496.0299987792969 7.440000057220459
428.7699890136719 495.3699951171875 7.429999828338623
