62.38000106811523 339.9299926757812 10.97000026702881
61.81999969482422 340.0700073242188 10.89000034332275
63.22999954223633 339.0499877929688 11.05000019073486
62.66999816894531 339.1799926757812 10.93000030517578
62.0099983215332 339.3500061035156 10.86999988555908
61.41999816894531 339.489990234375 10.72999954223633
60.84000015258789 339.6300048828125 10.36999988555908
60.2599983215332 339.7799987792969 10.35000038146973
59.7599983215332 339.8999938964844 9.939999580383301
61.65000152587891 338.8299865722656 10.75
60.52000045776367 339.1099853515625 10.25
59.93000030517578 339.25 10.18000030517578
60.70000076293945 340.3399963378906 10.35000038146973
59.88999938964844 339.1400146484375 10.11999988555908
60.45000076293945 339 10.30000019073486
61.02000045776367 338.8500061035156 10.3100004196167
61.54000091552734 338.7200012207031 10.61999988555908
60.20999908447266 339.7200012207031 10.3100004196167
60.77999877929688 339.5700073242188 10.39999961853027
61.31000137329102 339.4400024414062 10.48999977111816
61.88999938964844 339.2900085449219 10.86999988555908
62.45999908447266 339.1499938964844 10.92000007629395
63.02999877929688 339 10.90999984741211
63.61000061035156 338.8599853515625 10.90999984741211
62.7400016784668 339.6300048828125 10.9399995803833
63.33000183105469 339.489990234375 10.96000003814697
63.88000106811523 339.3500061035156 10.94999980926514
60.58000183105469 340.1799926757812 10.35999965667725
61.11999893188477 340.0499877929688 10.42000007629395
64.16999816894531 339.7300109863281 10.53999996185303
63.66999816894531 339.8599853515625 11
63.86000061035156 339.0599975585938 10.93000030517578
63.27999877929688 339.2099914550781 10.96000003814697
62.68000030517578 339.3599853515625 10.9399995803833
60.34000015258789 339.239990234375 10.32999992370605
62.79999923706055 338.6300048828125 10.84000015258789
62.13999938964844 338.7999877929688 10.82999992370605
60.88999938964844 339.1000061035156 10.35000038146973
61.08000183105469 338.9599914550781 10.40999984741211
63.02000045776367 339.1900024414062 10.89000034332275
63.70000076293945 339.0199890136719 10.85999965667725
63.90999984741211 339.5400085449219 10.88000011444092
64.33999633789062 339.4400024414062 10.36999988555908
59.84999847412109 339.760009765625 10.22999954223633
60.47999954223633 339.9200134277344 10.38000011444092
59.91999816894531 339.0199890136719 10.17000007629395
60.52000045776367 339.1600036621094 10.35999965667725
61.09000015258789 339.3099975585938 10.5
61.61000061035156 339.4299926757812 10.82999992370605
62.2400016784668 339.5799865722656 10.89999961853027
62.88999938964844 339.739990234375 10.94999980926514
60.59999847412109 338.510009765625 10.22000026702881
61.18999862670898 338.6499938964844 10.42000007629395
61.65999984741211 338.7699890136719 10.77000045776367
62.2599983215332 338.9200134277344 10.85000038146973
62.84999847412109 339.0599975585938 10.88000011444092
63.52999877929688 339.2300109863281 10.92000007629395
61.09999847412109 340.0700073242188 10.47000026702881
61.65000152587891 340.2000122070312 10.75
60 339.7799987792969 10.23999977111816
63.45999908447266 339.239990234375 10.92000007629395
62.86999893188477 339.0899963378906 10.90999984741211
62.34000015258789 338.9599914550781 10.85999965667725
61.77999877929688 338.8200073242188 10.81999969482422
61.90999984741211 339.6099853515625 10.86999988555908
61.40000152587891 339.4800109863281 10.5600004196167
60.86000061035156 339.3399963378906 10.36999988555908
60.33000183105469 339.2099914550781 10.28999996185303
61.22999954223633 338.6799926757812 10.31999969482422
61.13000106811523 340.0599975585938 10.40999984741211
60.56000137329102 339.9200134277344 10.36999988555908
60.29000091552734 339.2799987792969 10.27000045776367
60.90999984741211 339.4400024414062 10.36999988555908
61.04999923706055 338.8999938964844 10.31999969482422
62.9900016784668 339.3699951171875 10.96000003814697
63.58000183105469 339.5199890136719 10.93000030517578
63.29000091552734 338.7999877929688 10.88000011444092
63.83000183105469 338.9400024414062 10.80000019073486
63.0099983215332 339.0499877929688 10.89999961853027
60.38000106811523 339.7200012207031 10.34000015258789
60.97000122070312 339.3399963378906 10.32999992370605
60.84000015258789 338.7999877929688 10.35000038146973
59.83000183105469 339.4100036621094 10.10000038146973
59.97000122070312 339.9700012207031 10.27000045776367
60.38999938964844 338.989990234375 10.30000019073486
60.54000091552734 339.5899963378906 10.38000011444092
60.66999816894531 340.1199951171875 10.42000007629395
61.06000137329102 338.7699890136719 10.32999992370605
61.20999908447266 339.3500061035156 10.42000007629395
61.79000091552734 339.010009765625 10.80000019073486
61.93000030517578 339.5899963378906 10.86999988555908
62.08000183105469 340.1600036621094 10.93000030517578
62.29999923706055 338.8099975585938 10.82999992370605
62.43999862670898 339.3800048828125 10.92000007629395
62.59000015258789 339.9800109863281 10.97000026702881
63 339.010009765625 10.90999984741211
63.15000152587891 339.5799865722656 10.97000026702881
63.65999984741211 338.7200012207031 10.82999992370605
63.81999969482422 339.3399963378906 10.93000030517578
60.2599983215332 338.6700134277344 10.15999984741211
61 339.0299987792969 10.23999977111816
62.13000106811523 338.9200134277344 10.90999984741211
62.90000152587891 339.2999877929688 11.05000019073486
62.7400016784668 338.6499938964844 10.82999992370605
64.20999908447266 339.75 10.42000007629395
60.36000061035156 340.1600036621094 10.30000019073486
60.52000045776367 339.510009765625 10.32999992370605
60.88999938964844 340.489990234375 10.34000015258789
59.84000015258789 339.25 10.02999973297119
60.5 338.8800048828125 10.35000038146973
60.36000061035156 339.4500122070312 10.3100004196167
60.22000122070312 340.0299987792969 10.3100004196167
61.02999877929688 339.1499938964844 10.35999965667725
60.88999938964844 339.7300109863281 10.36999988555908
64.12000274658203 339.6099853515625 10.52999973297119
63.5 339.5899963378906 10.97000026702881
63.65000152587891 339.0199890136719 10.89000034332275
62.79999923706055 339.6900024414062 10.92000007629395
62.93999862670898 339.1499938964844 10.9399995803833
62.16999816894531 339.9200134277344 10.89999961853027
62.31999969482422 339.3099975585938 10.89000034332275
62.45999908447266 338.760009765625 10.84000015258789
61.72000122070312 339.489990234375 10.85999965667725
61.86000061035156 338.9299926757812 10.82999992370605
61.06999969482422 339.6900024414062 10.38000011444092
60.34999847412109 339.739990234375 10.32999992370605
60.4900016784668 339.2099914550781 10.27999973297119
60.63000106811523 338.6499938964844 10.22000026702881
59.84000015258789 339.4400024414062 10.10999965667725
59.9900016784668 338.8099975585938 10.19999980926514
62.72999954223633 338.8900146484375 10.88000011444092
63.41999816894531 338.75 10.88000011444092
