12.76000022888184 412.4200134277344 13.98999977111816
12.15999984741211 412.5700073242188 14.0600004196167
11.57999992370605 412.7099914550781 13.94999980926514
14.22999954223633 412.7799987792969 14.55000019073486
13.63000011444092 412.9299926757812 14.5600004196167
13.0600004196167 413.0799865722656 14.47000026702881
12.47000026702881 413.2200012207031 14.23999977111816
11.89000034332275 413.3699951171875 14.0600004196167
11.32999992370605 413.5 13.92000007629395
15.26000022888184 413.1799926757812 14.52999973297119
14.56999969482422 413.3599853515625 14.59000015258789
13.93000030517578 413.5199890136719 14.64000034332275
13.32999992370605 413.6700134277344 14.56999969482422
12.85000038146973 413.7900085449219 14.22000026702881
12.27000045776367 413.9299926757812 14.09000015258789
11.72999954223633 414.0599975585938 13.94999980926514
15.64999961853027 413.6799926757812 14.43000030517578
15.01000022888184 413.8399963378906 14.55000019073486
14.35999965667725 414.010009765625 14.56999969482422
13.8100004196167 414.1499938964844 14.4399995803833
13.31999969482422 414.260009765625 14.03999996185303
11.51000022888184 412.3999938964844 13.94999980926514
11.35999965667725 413.1300048828125 13.80000019073486
11.89999961853027 412.989990234375 14.02000045776367
12.5 412.8399963378906 14.03999996185303
13.07999992370605 412.6900024414062 14.39000034332275
13.61999988555908 412.5599975585938 14.14999961853027
11.26000022888184 413.7300109863281 13.98999977111816
11.80000019073486 413.6000061035156 14.02000045776367
12.32999992370605 413.4599914550781 14.07999992370605
12.89000034332275 413.3200073242188 14.5
13.40999984741211 413.1900024414062 14.57999992370605
14.02000045776367 413.0400085449219 14.60000038146973
14.53999996185303 412.9100036621094 14.57999992370605
15.15999984741211 412.75 14.46000003814697
15.6899995803833 412.6300048828125 14
12.10999965667725 414.1900024414062 14.02000045776367
12.72000026702881 414.0299987792969 14.17000007629395
13.27999973297119 413.8900146484375 14.53999996185303
13.84000015258789 413.75 14.60000038146973
14.40999984741211 413.6099853515625 14.60999965667725
15.02000045776367 413.4500122070312 14.56999969482422
15.59000015258789 413.3099975585938 14.5
16.17000007629395 413.1799926757812 13.4399995803833
14.30000019073486 414.3599853515625 14.13000011444092
14.81999969482422 414.2300109863281 14.10999965667725
15.42000007629395 414.0799865722656 14.34000015258789
15.94999980926514 413.9599914550781 13.67000007629395
13.06999969482422 412.2699890136719 14.03999996185303
11.85999965667725 412.5700073242188 14.02999973297119
14.85999965667725 412.5199890136719 14.13000011444092
14.36999988555908 412.6499938964844 14.55000019073486
13.72000026702881 412.8099975585938 14.61999988555908
12.36999988555908 413.1499938964844 14.03999996185303
11.75 413.2999877929688 14.02000045776367
15.86999988555908 413.010009765625 14.11999988555908
15.39999961853027 413.1300048828125 14.52999973297119
14.82999992370605 413.2699890136719 14.60000038146973
14.25 413.4200134277344 14.64000034332275
13.67000007629395 413.5599975585938 14.57999992370605
12.31999969482422 413.8900146484375 14.10000038146973
15.81999969482422 413.7000122070312 14.22000026702881
15.32999992370605 413.8299865722656 14.52999973297119
14.71000003814697 413.989990234375 14.57999992370605
14.02999973297119 414.1499938964844 14.27999973297119
12.09000015258789 412.7699890136719 14.02999973297119
13.59000015258789 413.1300048828125 14.57999992370605
14.30000019073486 412.9500122070312 14.61999988555908
14.97000026702881 412.7900085449219 14.5
15.47000026702881 412.6700134277344 14.14000034332275
15.96000003814697 412.5499877929688 13.68000030517578
13.89000034332275 413.75 14.57999992370605
14.60999965667725 413.5700073242188 14.60999965667725
15.32999992370605 413.3900146484375 14.51000022888184
15.8100004196167 413.2699890136719 13.97000026702881
16.25 413.1700134277344 13.46000003814697
14.85999965667725 414.0700073242188 14.39000034332275
15.61999988555908 413.8800048828125 14.43000030517578
16.04000091552734 413.7799987792969 13.92000007629395
11.27999973297119 413.75 13.89999961853027
11.90999984741211 413.8999938964844 14.02999973297119
12.46000003814697 414.0400085449219 14.13000011444092
13.09000015258789 414.2000122070312 14.09000015258789
13.65999984741211 414.3399963378906 14.17000007629395
11.14999961853027 413.1099853515625 13.85999965667725
11.73999977111816 413.25 14.01000022888184
12.28999996185303 413.3900146484375 14.13000011444092
12.88000011444092 413.5299987792969 14.39000034332275
13.4399995803833 413.6700134277344 14.56999969482422
14.06999969482422 413.8299865722656 14.60999965667725
14.72999954223633 414 14.51000022888184
15.47000026702881 414.1900024414062 14.22999954223633
11.8100004196167 412.7200012207031 13.97000026702881
12.38000011444092 412.8699951171875 14.10999965667725
12.89000034332275 412.989990234375 14.34000015258789
13.4399995803833 413.1199951171875 14.57999992370605
14.06999969482422 413.2799987792969 14.60000038146973
14.6899995803833 413.4400024414062 14.57999992370605
15.32999992370605 413.6000061035156 14.5600004196167
13.07999992370605 412.4200134277344 14.10000038146973
13.60999965667725 412.5499877929688 14.3100004196167
14.1899995803833 412.6900024414062 14.55000019073486
14.85999965667725 412.8599853515625 14.53999996185303
15.5 413.0199890136719 14.47000026702881
16.04999923706055 412.7999877929688 13.39999961853027
15.51000022888184 412.6799926757812 14.34000015258789
14.94999980926514 412.5400085449219 14.09000015258789
16.09000015258789 413.5 13.47000026702881
15.5 413.3699951171875 14.52000045776367
14.9399995803833 413.2300109863281 14.57999992370605
14.40999984741211 413.1000061035156 14.59000015258789
13.85000038146973 412.9599914550781 14.57999992370605
13.32999992370605 412.8299865722656 14.52000045776367
12.72000026702881 412.6700134277344 13.97999954223633
12.19999980926514 412.5400085449219 14.02000045776367
11.59000015258789 412.3900146484375 13.93000030517578
15.63000011444092 414.1700134277344 14.03999996185303
15.10000038146973 414.0400085449219 14.47000026702881
14.53999996185303 413.9100036621094 14.59000015258789
13.97000026702881 413.760009765625 14.60999965667725
13.35999965667725 413.6099853515625 14.55000019073486
12.23999977111816 413.3299865722656 14.10000038146973
11.67000007629395 413.1799926757812 13.98999977111816
14.09000015258789 414.4400024414062 14.11999988555908
13.52000045776367 414.2999877929688 14.03999996185303
12.97999954223633 414.1700134277344 14.10999965667725
12.39000034332275 414.0199890136719 14.0600004196167
11.85999965667725 413.8800048828125 14.02999973297119
11.78999996185303 413.739990234375 14.02999973297119
12.46000003814697 413.8999938964844 14.05000019073486
13.69999980926514 414.2000122070312 14.15999984741211
14.27000045776367 414.3399963378906 14.03999996185303
15.81999969482422 413.9700012207031 14.10999965667725
11.57999992370605 412.9299926757812 13.96000003814697
12.22000026702881 413.0899963378906 14.0600004196167
13.53999996185303 413.3999938964844 14.47000026702881
14.14000034332275 413.5499877929688 14.64000034332275
14.78999996185303 413.7099914550781 14.59000015258789
15.34000015258789 413.8399963378906 14.52000045776367
12.47999954223633 412.510009765625 13.96000003814697
13.85000038146973 412.8399963378906 14.59000015258789
14.51000022888184 413 14.57999992370605
15.11999988555908 413.1499938964844 14.56999969482422
15.6899995803833 413.2900085449219 14.47999954223633
16.04000091552734 413.3900146484375 13.68000030517578
15.15999984741211 412.6099853515625 14.1899995803833
15.6899995803833 412.739990234375 14.0600004196167
16.13999938964844 412.8599853515625 13.30000019073486
16.13999938964844 413.3200073242188 13.77000045776367
15.77000045776367 413.239990234375 14.4399995803833
15.0600004196167 413.0700073242188 14.53999996185303
14.3100004196167 412.8800048828125 14.57999992370605
16.10000038146973 414.0899963378906 13.35000038146973
15.84000015258789 414.0400085449219 14.11999988555908
15.32999992370605 413.9200134277344 14.53999996185303
14.64999961853027 413.75 14.60000038146973
13.96000003814697 413.5799865722656 14.64999961853027
12.14000034332275 413.1300048828125 14.05000019073486
13.35999965667725 414.1300048828125 14.47000026702881
12.35000038146973 413.8699951171875 14
13.11999988555908 414.3800048828125 13.07999992370605
13.64000034332275 413.7200012207031 14.02999973297119
13.80000019073486 414.3599853515625 13.97999954223633
14.97999954223633 414.5199890136719 14.42000007629395
15.5 414.1600036621094 14.60000038146973
15.61999988555908 414.6300048828125 14.09000015258789
16.07999992370605 413.8099975585938 14.5600004196167
16.23999977111816 414.4500122070312 14.51000022888184
16.64999961853027 413.5199890136719 14.52999973297119
16.79999923706055 414.1400146484375 14.5
16.92000007629395 414.5899963378906 14.10000038146973
17.26000022888184 413.8299865722656 14.5
17.40999984741211 414.3800048828125 14.19999980926514
13.34000015258789 414.4400024414062 13.85000038146973
13.19999980926514 413.8800048828125 13.92000007629395
13.05000019073486 413.3099975585938 13.80000019073486
14.10000038146973 414.6499938964844 14
13.96000003814697 414.1000061035156 14.0600004196167
13.8100004196167 413.5 14.03999996185303
13.65999984741211 412.9500122070312 13.98999977111816
15.30000019073486 414.4599914550781 14.35999965667725
15.15999984741211 413.9100036621094 14.55000019073486
15 413.3200073242188 14.46000003814697
14.85000038146973 412.739990234375 14.02999973297119
16.01000022888184 414.6000061035156 14.30000019073486
15.86999988555908 414.0400085449219 14.57999992370605
15.72000026702881 413.4800109863281 14.57999992370605
15.56999969482422 412.8900146484375 14.22000026702881
16.77000045776367 414.7300109863281 14.31999969482422
16.6299991607666 414.1799926757812 14.53999996185303
16.5 413.6700134277344 14.55000019073486
16.32999992370605 413.0499877929688 14.52000045776367
17.30999946594238 414.2799987792969 14.40999984741211
17.15999984741211 413.7000122070312 14.5
17.02000045776367 413.1499938964844 14.47999954223633
17.6299991607666 413.3500061035156 13.85999965667725
13.14999961853027 413.6900024414062 13.81999969482422
13.27000045776367 414.2099914550781 13.97000026702881
13.60999965667725 412.739990234375 13.84000015258789
13.73999977111816 413.2799987792969 14
13.88000011444092 413.8699951171875 14.09000015258789
14.02999973297119 414.489990234375 14.07999992370605
14.31999969482422 413.0799865722656 14
14.72999954223633 414.75 14.13000011444092
14.77000045776367 412.75 14.03999996185303
14.88000011444092 413.2099914550781 14.4399995803833
15.02999973297119 413.8200073242188 14.52999973297119
15.18000030517578 414.4299926757812 14.47999954223633
15.43000030517578 412.9400024414062 14.22000026702881
15.55000019073486 413.4400024414062 14.57999992370605
15.68000030517578 413.989990234375 14.60000038146973
16.1299991607666 413.0499877929688 14.48999977111816
16.27000045776367 413.6300048828125 14.57999992370605
16.43000030517578 414.2699890136719 14.5600004196167
16.85000038146973 413.3500061035156 14.5
16.97999954223633 413.8999938964844 14.51000022888184
17.34000015258789 413.1000061035156 14.05000019073486
13.39000034332275 413.6499938964844 13.96000003814697
13.23999977111816 413.0199890136719 13.65999984741211
13.98999977111816 413.1400146484375 14.02000045776367
13.90999984741211 412.7999877929688 13.19999980926514
14.51000022888184 412.8299865722656 14.0600004196167
15.22999954223633 412.989990234375 14.47999954223633
16.20000076293945 414.010009765625 14.68000030517578
16.04000091552734 413.3699951171875 14.63000011444092
15.92000007629395 412.8599853515625 14.09000015258789
16.81999969482422 413.7799987792969 14.47000026702881
16.6299991607666 413.0299987792969 14.44999980926514
17.35000038146973 413.5700073242188 14.47000026702881
17.20000076293945 412.9500122070312 14.27999973297119
13.18000030517578 414.3299865722656 13.52000045776367
13.27999973297119 413.8599853515625 13.94999980926514
13.43000030517578 413.260009765625 13.94999980926514
13.77000045776367 414.7200012207031 13.89000034332275
13.89999961853027 414.1799926757812 14.05000019073486
14.0600004196167 413.5199890136719 14.11999988555908
15.01000022888184 414.5799865722656 14.07999992370605
15.10000038146973 414.1099853515625 14.53999996185303
15.26000022888184 413.4800109863281 14.5600004196167
15.65999984741211 414.6400146484375 14.05000019073486
15.75 414.2000122070312 14.59000015258789
15.89999961853027 413.5799865722656 14.53999996185303
16.42000007629395 414.4599914550781 14.51000022888184
16.55999946594238 413.8699951171875 14.57999992370605
16.73999977111816 413.1799926757812 14.47999954223633
17.04999923706055 414.5 14.26000022888184
17.17000007629395 413.989990234375 14.5
13.10999965667725 413.239990234375 13.78999996185303
13.77000045776367 413 13.98999977111816
13.64000034332275 413.5599975585938 14.02000045776367
13.51000022888184 414.0899963378906 13.97000026702881
14.28999996185303 413.7999877929688 14.06999969482422
14.14999961853027 414.3699951171875 14.0600004196167
15.09000015258789 412.9299926757812 14.17000007629395
14.97999954223633 413.4800109863281 14.52999973297119
14.69999980926514 414.5599975585938 14.14000034332275
15.61999988555908 413.1199951171875 14.53999996185303
15.47999954223633 413.7000122070312 14.60000038146973
15.34000015258789 414.3099975585938 14.52999973297119
16.28000068664551 412.9100036621094 14.1899995803833
16.14999961853027 413.4800109863281 14.5600004196167
16.03000068664551 414.010009765625 14.55000019073486
15.88000011444092 414.5599975585938 14.11999988555908
16.95000076293945 413.0700073242188 14.47000026702881
16.79999923706055 413.6900024414062 14.53999996185303
16.65999984741211 414.260009765625 14.52999973297119
17.48999977111816 413.25 14.27999973297119
17.36000061035156 413.8200073242188 14.47000026702881
17.22999954223633 414.3599853515625 14.42000007629395
13.17000007629395 413.5299987792969 13.88000011444092
13.31999969482422 412.9700012207031 13.72999954223633
13.72999954223633 414.1199951171875 14.02999973297119
13.86999988555908 413.5299987792969 14.02999973297119
14.02999973297119 412.8900146484375 13.97000026702881
14.77999973297119 412.9400024414062 14.05000019073486
15.14000034332275 414.0199890136719 14.56999969482422
15.28999996185303 413.3900146484375 14.52000045776367
15.42000007629395 412.9500122070312 14.03999996185303
15.61999988555908 414.5700073242188 14.15999984741211
15.77000045776367 413.8999938964844 14.60000038146973
15.90999984741211 413.3399963378906 14.5600004196167
16.04999923706055 412.8399963378906 13.98999977111816
16.29999923706055 414.5 14.19999980926514
16.45000076293945 413.8099975585938 14.57999992370605
16.59000015258789 413.2300109863281 14.5
17.21999931335449 413.8599853515625 14.48999977111816
17.3700008392334 413.2699890136719 14.4399995803833
17.5 412.7900085449219 13.93000030517578
14.02999973297119 412.8099975585938 13.63000011444092
13.90999984741211 413.3399963378906 14
13.75 413.9700012207031 14.0600004196167
15.35999965667725 412.9299926757812 14.28999996185303
16.17000007629395 412.8900146484375 14.0600004196167
16.04999923706055 413.3800048828125 14.59000015258789
15.88000011444092 414.0799865722656 14.56999969482422
16.78000068664551 413.1499938964844 14.47000026702881
16.6299991607666 413.75 14.60000038146973
17.38999938964844 413.0400085449219 14.22000026702881
17.25 413.6499938964844 14.51000022888184
