299.5899963378906 371.6300048828125 7.099999904632568
300.010009765625 370.8299865722656 7.059999942779541
299.3699951171875 370.989990234375 6.800000190734863
300.6499938964844 371.8999938964844 7.199999809265137
299.8299865722656 372.1099853515625 7.349999904632568
299.3299865722656 372.2300109863281 6.829999923706055
300.3099975585938 371.4500122070312 7.079999923706055
300.2000122070312 372.6499938964844 7.409999847412109
299.5799865722656 372.7999877929688 7.300000190734863
300.75 373.2200012207031 7.369999885559082
299.9700012207031 373.4100036621094 7.400000095367432
299.4299926757812 373.5400085449219 6.96999979019165
300.239990234375 374.6099853515625 6.929999828338623
299.489990234375 374.7999877929688 6.900000095367432
299.3099975585938 374.25 6.610000133514404
300.6499938964844 375.1900024414062 6.900000095367432
299.989990234375 375.3599853515625 6.860000133514404
299.7799987792969 371.1000061035156 7.03000020980835
300.4200134277344 370.9400024414062 6.949999809265137
299.6199951171875 371.75 7.019999980926514
300.2200012207031 371.6000061035156 7.03000020980835
300.8200073242188 371.4500122070312 7.03000020980835
299.510009765625 372.4700012207031 7.010000228881836
300.0299987792969 372.3299865722656 7.400000095367432
300.6700134277344 372.1700134277344 7.380000114440918
299.3999938964844 373.2300109863281 6.920000076293945
299.8800048828125 373.1099853515625 7.400000095367432
300.4800109863281 372.9599914550781 7.420000076293945
301.1199951171875 372.7999877929688 7.269999980926514
299.3099975585938 373.9500122070312 7.050000190734863
299.8999938964844 373.7999877929688 7.239999771118164
300.4800109863281 373.6499938964844 7.340000152587891
301.1600036621094 373.4800109863281 7.21999979019165
299.8200073242188 374.4100036621094 7
299.6900024414062 375.1199951171875 6.869999885559082
300.2900085449219 374.9700012207031 6.940000057220459
300.9299926757812 374.8099975585938 6.940000057220459
300.8200073242188 375.3800048828125 6.769999980926514
300.260009765625 375.5199890136719 6.820000171661377
301.1199951171875 374.6199951171875 6.880000114440918
300.5499877929688 374.760009765625 6.920000076293945
299.9700012207031 374.9100036621094 6.929999828338623
301.3599853515625 373.9100036621094 7.010000228881836
300.2000122070312 374.2000122070312 6.989999771118164
299.6099853515625 374.3500061035156 6.980000019073486
301.1300048828125 373.4200134277344 7.110000133514404
300.6099853515625 373.5599975585938 7.360000133514404
299.989990234375 373.7099914550781 7.329999923706055
299.4599914550781 373.8399963378906 7.050000190734863
301.4599914550781 372.7200012207031 7.300000190734863
300.8900146484375 372.8599853515625 7.349999904632568
300.3200073242188 373.010009765625 7.400000095367432
299.75 373.1499938964844 7.409999847412109
301.1099853515625 372.1099853515625 7.150000095367432
300.5499877929688 372.260009765625 7.360000133514404
299.9700012207031 372.3999938964844 7.389999866485596
299.3999938964844 372.5400085449219 7.079999923706055
301.2200012207031 371.4200134277344 6.960000038146973
300.6099853515625 371.5799865722656 7.099999904632568
300.0799865722656 371.7200012207031 7.179999828338623
299.4700012207031 371.8699951171875 7.050000190734863
300.8599853515625 370.9400024414062 6.960000038146973
300.3200073242188 371.0799865722656 7.059999942779541
299.7300109863281 371.2300109863281 7.059999942779541
299.9400024414062 370.6900024414062 7.03000020980835
300.1000061035156 371.2200012207031 7.059999942779541
300.7200012207031 371.0700073242188 7.019999980926514
301.2000122070312 370.9500122070312 6.690000057220459
299.6900024414062 372.0199890136719 7.309999942779541
300.3099975585938 371.8599853515625 7.400000095367432
300.9100036621094 371.7200012207031 7.130000114440918
301.4299926757812 371.5899963378906 6.769999980926514
299.9700012207031 372.7099914550781 7.429999828338623
300.5799865722656 372.5599975585938 7.380000114440918
301.1300048828125 372.4200134277344 7.25
300.1300048828125 373.3699951171875 7.369999885559082
300.7999877929688 373.2000122070312 7.369999885559082
301.2900085449219 373.0899963378906 6.849999904632568
299.6099853515625 374.0899963378906 7.070000171661377
300.8800048828125 373.7699890136719 7.260000228881836
301.260009765625 373.6799926757812 6.619999885559082
299.6300048828125 374.760009765625 7
300.2900085449219 374.6000061035156 6.949999809265137
300.9299926757812 374.4400024414062 6.920000076293945
300.4599914550781 375.3200073242188 6.900000095367432
301.0499877929688 375.1700134277344 6.789999961853027
299.5 374.5199890136719 6.920000076293945
300.260009765625 374.7000122070312 6.940000057220459
299.6099853515625 373.3399963378906 7.320000171661377
300.3299865722656 373.510009765625 7.389999866485596
299.6400146484375 373.8999938964844 7.099999904632568
299.4200134277344 372.6600036621094 6.949999809265137
299.8900146484375 372.7699890136719 7.46999979019165
300.6199951171875 372.9599914550781 7.369999885559082
299.5799865722656 371.9200134277344 7.170000076293945
300.2200012207031 372.0700073242188 7.349999904632568
300.9299926757812 372.25 7.369999885559082
299.4100036621094 371.1900024414062 6.579999923706055
299.8800048828125 371.2999877929688 7.119999885559082
300.6199951171875 371.4800109863281 7.019999980926514
300.2900085449219 370.760009765625 6.820000171661377
300.8699951171875 370.8999938964844 7.050000190734863
301.0199890136719 371.3599853515625 7.010000228881836
300.3699951171875 371.2000122070312 7.070000171661377
299.7999877929688 371.0599975585938 7.039999961853027
300.5899963378906 371.8999938964844 7.369999885559082
300.0499877929688 371.760009765625 7.300000190734863
299.5400085449219 371.6300048828125 6.96999979019165
300.8599853515625 372.6700134277344 7.369999885559082
300.2099914550781 372.510009765625 7.429999828338623
299.6799926757812 372.3800048828125 7.309999942779541
300.6199951171875 373.2200012207031 7.360000133514404
300.010009765625 373.0700073242188 7.460000038146973
299.5499877929688 372.9500122070312 7.019999980926514
300.9299926757812 373.8699951171875 6.989999771118164
300.2200012207031 373.7000122070312 7.429999828338623
299.6700134277344 373.5599975585938 7.25
300.5599975585938 374.4400024414062 6.949999809265137
299.9800109863281 374.2999877929688 7
299.3999938964844 374.1499938964844 6.949999809265137
300.7300109863281 375.25 6.880000114440918
300.0799865722656 375.0899963378906 6.929999828338623
299.5299987792969 374.9500122070312 6.889999866485596
300.8399963378906 370.75 6.840000152587891
299.4700012207031 371.0599975585938 7.03000020980835
300.0499877929688 371.2000122070312 7.070000171661377
300.6499938964844 371.3500061035156 7.039999961853027
301.1700134277344 371.4800109863281 6.920000076293945
299.7799987792969 371.7300109863281 7.190000057220459
300.3900146484375 371.8800048828125 7.369999885559082
300.9200134277344 372.010009765625 7.28000020980835
299.5599975585938 372.3299865722656 7.070000171661377
300.1600036621094 372.4700012207031 7.409999847412109
300.75 372.6199951171875 7.340000152587891
301.2799987792969 372.75 6.929999828338623
299.760009765625 373.1300048828125 7.389999866485596
300.3299865722656 373.2699890136719 7.380000114440918
300.8999938964844 373.4100036621094 7.309999942779541
299.4299926757812 373.6900024414062 7
301.1799926757812 374.1300048828125 6.96999979019165
299.7799987792969 374.3299865722656 6.989999771118164
300.3800048828125 374.4800109863281 6.989999771118164
300.9100036621094 374.6099853515625 6.900000095367432
299.6400146484375 374.8900146484375 6.929999828338623
300.2200012207031 375.0299987792969 6.949999809265137
300.8099975585938 375.1799926757812 6.880000114440918
300.8800048828125 370.7999877929688 6.880000114440918
301.0899963378906 371.5299987792969 7
300.4700012207031 371.3800048828125 7.059999942779541
299.8299865722656 371.2200012207031 7.059999942779541
301.1700134277344 372.2999877929688 6.940000057220459
300.6799926757812 372.1799926757812 7.360000133514404
300.0799865722656 372.0400085449219 7.369999885559082
301.4100036621094 372.989990234375 6.840000152587891
300.9100036621094 372.8699951171875 7.349999904632568
300.2799987792969 372.7200012207031 7.380000114440918
301.4100036621094 373.5899963378906 6.809999942779541
300.9700012207031 373.4800109863281 7.309999942779541
300.3699951171875 373.3399963378906 7.389999866485596
299.760009765625 373.1900024414062 7.360000133514404
301.0299987792969 374.1700134277344 6.980000019073486
299.75 373.8500061035156 7.119999885559082
301.0299987792969 374.9200134277344 6.860000133514404
300.4200134277344 374.7699890136719 6.949999809265137
299.8399963378906 374.6300048828125 7
300.6799926757812 375.4599914550781 6.829999923706055
300.0599975585938 375.2999877929688 6.880000114440918
299.5700073242188 375.0400085449219 6.909999847412109
299.6400146484375 372.6900024414062 7.130000114440918
299.8099975585938 373.3699951171875 7.329999923706055
299.9500122070312 373.9200134277344 7.159999847412109
300.1099853515625 374.5499877929688 7.019999980926514
300.260009765625 375.1300048828125 6.889999866485596
300.3999938964844 375.6499938964844 6.46999979019165
299.8200073242188 370.8900146484375 7.139999866485596
299.9800109863281 371.5 7.050000190734863
300.1499938964844 372.2099914550781 7.380000114440918
300.3299865722656 372.9100036621094 7.389999866485596
300.489990234375 373.5400085449219 7.340000152587891
300.6300048828125 374.0799865722656 7.039999961853027
300.7799987792969 374.6900024414062 6.940000057220459
300.9500122070312 375.3200073242188 6.769999980926514
300.4400024414062 371.1199951171875 7.039999961853027
300.7799987792969 372.5 7.369999885559082
300.9299926757812 373.1000061035156 7.340000152587891
301.0799865722656 373.6700134277344 7.199999809265137
301.2300109863281 374.2699890136719 7.010000228881836
301.0700073242188 371.1099853515625 7.050000190734863
299.6400146484375 375.0199890136719 6.840000152587891
299.510009765625 374.5 7.019999980926514
300.4200134277344 375.2000122070312 6.860000133514404
300.2799987792969 374.6799926757812 6.929999828338623
300.1400146484375 374.1099853515625 7.019999980926514
300.010009765625 373.5599975585938 7.340000152587891
299.8500061035156 372.9599914550781 7.409999847412109
299.7200012207031 372.4299926757812 7.380000114440918
299.5499877929688 371.7799987792969 7.059999942779541
301.0599975585938 374.6900024414062 6.889999866485596
300.9299926757812 374.1700134277344 6.96999979019165
300.7999877929688 373.6199951171875 7.28000020980835
300.6700134277344 373.1099853515625 7.380000114440918
300.5199890136719 372.5299987792969 7.389999866485596
300.3699951171875 371.9500122070312 7.360000133514404
300.2200012207031 371.3599853515625 7.050000190734863
300.0700073242188 370.7900085449219 7.090000152587891
301.0899963378906 371.9599914550781 7.039999961853027
300.9400024414062 371.3599853515625 7.010000228881836
300.7900085449219 370.7799987792969 6.989999771118164
301.239990234375 372.5199890136719 7.019999980926514
299.5599975585938 374.7200012207031 6.960000038146973
299.4800109863281 372.1099853515625 7.010000228881836
299.6000061035156 372.6300048828125 7.260000228881836
299.739990234375 373.2099914550781 7.360000133514404
300.0700073242188 374.489990234375 6.96999979019165
300.2200012207031 375.1099853515625 6.929999828338623
299.8200073242188 370.739990234375 6.630000114440918
299.9400024414062 371.239990234375 7.070000171661377
300.0899963378906 371.8500061035156 7.289999961853027
300.2200012207031 372.3800048828125 7.409999847412109
300.3599853515625 372.9500122070312 7.409999847412109
300.5 373.510009765625 7.369999885559082
300.6799926757812 374.1900024414062 6.960000038146973
300.8299865722656 374.7999877929688 6.909999847412109
300.5899963378906 370.989990234375 7.019999980926514
300.7300109863281 371.5599975585938 7.150000095367432
300.8699951171875 372.1199951171875 7.340000152587891
301 372.6700134277344 7.360000133514404
301.1799926757812 373.3500061035156 7.070000171661377
300.1600036621094 375.1799926757812 6.960000038146973
299.9700012207031 374.4599914550781 6.940000057220459
300.8200073242188 374.7999877929688 6.889999866485596
300.2200012207031 372.4400024414062 7.440000057220459
300.0599975585938 371.7799987792969 7.28000020980835
299.9100036621094 371.1600036621094 7.059999942779541
299.7999877929688 370.7200012207031 6.539999961853027
300.9599914550781 372.5700073242188 7.400000095367432
300.8099975585938 371.9599914550781 7.260000228881836
300.6499938964844 371.3599853515625 7.070000171661377
300.5199890136719 370.8200073242188 6.849999904632568
300.6700134277344 375.239990234375 6.849999904632568
300.8200073242188 374.6400146484375 6.949999809265137
301.1199951171875 373.3800048828125 7.230000019073486
300.2099914550781 374.0700073242188 7.210000038146973
300.3399963378906 373.5199890136719 7.360000133514404
300.5 372.8800048828125 7.380000114440918
300.6700134277344 372.2099914550781 7.320000171661377
300.8800048828125 371.4299926757812 7
299.5299987792969 374.2000122070312 6.929999828338623
299.6499938964844 373.6700134277344 7.260000228881836
299.8099975585938 373.0199890136719 7.400000095367432
299.9599914550781 372.4100036621094 7.369999885559082
300.3399963378906 370.9400024414062 7.099999904632568
299.9400024414062 375.2200012207031 6.880000114440918
300.0799865722656 374.6400146484375 6.960000038146973
299.3800048828125 372.3699951171875 6.929999828338623
299.5400085449219 371.7200012207031 7.03000020980835
299.6900024414062 371.1000061035156 7.090000152587891
300.239990234375 370.5899963378906 6.980000019073486
300.0899963378906 371.2200012207031 7.070000171661377
299.9599914550781 371.7799987792969 7.340000152587891
299.8200073242188 372.3900146484375 7.389999866485596
299.6700134277344 372.9500122070312 7.119999885559082
299.5199890136719 373.5599975585938 7.010000228881836
300.7999877929688 371.0700073242188 7.010000228881836
300.5299987792969 372.25 7.400000095367432
300.3900146484375 372.8200073242188 7.409999847412109
300.25 373.3900146484375 7.369999885559082
299.9700012207031 374.4800109863281 6.989999771118164
299.8200073242188 375.0700073242188 6.869999885559082
301.239990234375 372.0799865722656 6.869999885559082
301.1099853515625 372.6900024414062 7.269999980926514
300.9599914550781 373.3099975585938 7.340000152587891
300.6700134277344 374.4200134277344 6.960000038146973
300.5400085449219 374.9500122070312 6.960000038146973
300.3999938964844 375.5 6.670000076293945
301.3599853515625 374.7699890136719 6.880000114440918
299.3800048828125 372.9800109863281 7.010000228881836
299.5400085449219 372.3299865722656 7.159999847412109
299.6900024414062 371.7200012207031 7.190000057220459
299.8299865722656 371.1900024414062 7.070000171661377
299.9800109863281 370.6799926757812 6.460000038146973
299.6300048828125 374.4599914550781 6.960000038146973
299.9299926757812 373.2099914550781 7.400000095367432
300.0799865722656 372.6199951171875 7.409999847412109
300.2099914550781 372.0799865722656 7.360000133514404
300.3599853515625 371.5400085449219 7.150000095367432
300.5 370.9800109863281 6.989999771118164
300.2200012207031 374.9500122070312 6.920000076293945
300.3800048828125 374.3099975585938 6.929999828338623
300.6700134277344 373.1099853515625 7.309999942779541
300.8200073242188 372.5 7.369999885559082
300.9800109863281 371.8999938964844 7.199999809265137
301.1099853515625 371.3999938964844 6.989999771118164
300.739990234375 375.3299865722656 6.909999847412109
300.8900146484375 374.7099914550781 6.949999809265137
301.0400085449219 374.1199951171875 6.860000133514404
301.1900024414062 373.5299987792969 6.920000076293945
301.3299865722656 372.9599914550781 6.980000019073486
299.5199890136719 371.8299865722656 7.099999904632568
299.6799926757812 371.1700134277344 7.050000190734863
300.1499938964844 372.0299987792969 7.340000152587891
299.989990234375 372.6799926757812 7.460000038146973
300.4299926757812 370.8699951171875 6.900000095367432
300.2999877929688 371.4100036621094 7.119999885559082
300.9299926757812 371.260009765625 7.050000190734863
300.7900085449219 371.8299865722656 7.230000019073486
300.6499938964844 372.4500122070312 7.409999847412109
300.0799865722656 374.75 6.980000019073486
301.1600036621094 372.9700012207031 7.269999980926514
300.7699890136719 374.5499877929688 6.949999809265137
300.5899963378906 375.2900085449219 6.889999866485596
