283.6300048828125 317.3399963378906 6.360000133514404
284.7200012207031 316.4700012207031 6.28000020980835
283.9599914550781 316.6600036621094 6.309999942779541
282.4800109863281 317.0299987792969 6.230000019073486
283 316.3999938964844 6.25
283.1400146484375 317.510009765625 6.199999809265137
283.7000122070312 317.3699951171875 6.389999866485596
284.2999877929688 317.2200012207031 6.329999923706055
284.8500061035156 317.0799865722656 6.320000171661377
282.6400146484375 316.9100036621094 6.269999980926514
283.239990234375 316.75 6.309999942779541
283.8099975585938 316.6099853515625 6.320000171661377
284.3800048828125 316.4700012207031 6.340000152587891
285.0499877929688 316.2999877929688 6.199999809265137
284.9100036621094 317.3500061035156 6.179999828338623
284.3999938964844 317.4800109863281 6.309999942779541
283.8200073242188 317.6199951171875 6.179999828338623
284.6900024414062 316.7200012207031 6.309999942779541
284.0799865722656 316.8699951171875 6.329999923706055
283.5499877929688 317 6.28000020980835
282.9400024414062 317.1499938964844 6.320000171661377
283.1799926757812 316.3500061035156 6.260000228881836
282.6499938964844 316.4800109863281 6.25
283.6799926757812 317.6600036621094 6.090000152587891
284.4100036621094 317.4700012207031 6.28000020980835
285.0199890136719 317.3200073242188 6.260000228881836
282.7900085449219 317.2000122070312 6.239999771118164
283.4500122070312 317.0400085449219 6.28000020980835
284.1099853515625 316.8699951171875 6.340000152587891
284.7200012207031 316.7200012207031 6.25
282.5499877929688 316.6799926757812 6.210000038146973
283.25 316.5 6.300000190734863
283.8800048828125 316.3399963378906 6.190000057220459
283.4200134277344 317.1499938964844 6.269999980926514
284.0700073242188 317.3099975585938 6.329999923706055
283.4100036621094 316.3200073242188 6.329999923706055
284.1900024414062 316.510009765625 6.349999904632568
284.8699951171875 317.3699951171875 6.25
284.2999877929688 317.2200012207031 6.329999923706055
283.6900024414062 317.0700073242188 6.340000152587891
283.1499938964844 316.9299926757812 6.300000190734863
282.5799865722656 316.7900085449219 6.230000019073486
284.6400146484375 316.5799865722656 6.320000171661377
284.0700073242188 316.4299926757812 6.269999980926514
283.4500122070312 316.2799987792969 6.269999980926514
282.8500061035156 317.510009765625 6.25
282.6799926757812 317.4400024414062 6.289999961853027
282.4400024414062 316.8200073242188 6.21999979019165
283.0199890136719 316.9700012207031 6.28000020980835
283.6300048828125 317.1199951171875 6.309999942779541
284.2000122070312 317.260009765625 6.309999942779541
284.7699890136719 317.4100036621094 6.260000228881836
282.8299865722656 316.3099975585938 6.21999979019165
283.3599853515625 316.4400024414062 6.269999980926514
283.9700012207031 316.5899963378906 6.320000171661377
284.5 316.7300109863281 6.309999942779541
285.0599975585938 316.8699951171875 6.090000152587891
284.9200134277344 316.0899963378906 5.909999847412109
283.1000061035156 317.4299926757812 6.239999771118164
284.2799987792969 316.9400024414062 6.239999771118164
283.7099914550781 316.7999877929688 6.300000190734863
283.0700073242188 316.6400146484375 6.320000171661377
284.9299926757812 317.1000061035156 6.28000020980835
284.9299926757812 316.4400024414062 6.21999979019165
284.2900085449219 316.2699890136719 6.179999828338623
283.739990234375 317.010009765625 6.320000171661377
284.1499938964844 316.4599914550781 6.360000133514404
282.7099914550781 317.1199951171875 6.190000057220459
282.5599975585938 316.510009765625 6.289999961853027
283.5299987792969 317.239990234375 6.320000171661377
283.3900146484375 316.7000122070312 6.349999904632568
284.1600036621094 316.8099975585938 6.269999980926514
284 316.2099914550781 6.260000228881836
284.8399963378906 316.989990234375 6.289999961853027
284.6900024414062 316.4100036621094 6.300000190734863
282.5799865722656 316.6700134277344 6.239999771118164
283.1000061035156 316.510009765625 6.300000190734863
283.2300109863281 317.0499877929688 6.380000114440918
283.6600036621094 316.1900024414062 6.329999923706055
283.8099975585938 316.8099975585938 6.300000190734863
284.4299926757812 316.5199890136719 6.309999942779541
284.5700073242188 317.0899963378906 6.199999809265137
282.6900024414062 316.9599914550781 6.210000038146973
284.1099853515625 316.6900024414062 6.400000095367432
284.2699890136719 316.9400024414062 6.300000190734863
283.5700073242188 317.2300109863281 6.289999961853027
283.739990234375 316.5499877929688 6.28000020980835
283.1300048828125 316.8500061035156 6.340000152587891
282.9599914550781 316.4500122070312 6.28000020980835
282.8200073242188 317.0199890136719 6.210000038146973
283.5799865722656 316.3299865722656 6.329999923706055
283.4400024414062 316.9100036621094 6.309999942779541
284.239990234375 316.2799987792969 6.340000152587891
284.0899963378906 316.8999938964844 6.369999885559082
284.8500061035156 316.9400024414062 6.25
284.8800048828125 317.0199890136719 6.289999961853027
284.260009765625 317.1199951171875 6.320000171661377
284.3999938964844 316.5400085449219 6.309999942779541
283.5199890136719 317.1900024414062 6.309999942779541
283.6700134277344 316.6300048828125 6.260000228881836
283.8099975585938 316.0499877929688 6.25
282.9599914550781 316.7900085449219 6.28000020980835
283.1099853515625 316.2200012207031 6.260000228881836
283.1900024414062 316.8800048828125 6.179999828338623
283.9599914550781 316.4100036621094 6.309999942779541
284.4700012207031 316.8999938964844 6.300000190734863
