289.2000122070312 389.9599914550781 7.190000057220459
289.6300048828125 390.3999938964844 7.389999866485596
289.4800109863281 392.5199890136719 8.029999732971191
288.7300109863281 392.7099914550781 7.96999979019165
288.2900085449219 392.8099975585938 7.489999771118164
289.75 391.7699890136719 8
288.5 392.0799865722656 7.46999979019165
289.7900085449219 393.0299987792969 8.109999656677246
288.4800109863281 393.3599853515625 7.710000038146973
289.7000122070312 393.7200012207031 7.75
288.9700012207031 393.8999938964844 7.730000019073486
288.4599914550781 394.0199890136719 7.320000171661377
289.0799865722656 389.8999938964844 7.239999771118164
288.9700012207031 390.5 7.389999866485596
289.5400085449219 390.3599853515625 7.389999866485596
288.8099975585938 391.1900024414062 7.539999961853027
290.0400085449219 390.8800048828125 7.429999828338623
288.0799865722656 392.0599975585938 7.809999942779541
288.6600036621094 391.9200134277344 7.920000076293945
289.2999877929688 391.760009765625 7.960000038146973
289.8800048828125 391.6099853515625 7.900000095367432
288.7000122070312 392.5599975585938 7.96999979019165
289.2900085449219 392.4100036621094 8.039999961853027
289.8500061035156 392.2699890136719 8.020000457763672
288.0299987792969 393.260009765625 7.690000057220459
288.6000061035156 393.1199951171875 7.789999961853027
289.1499938964844 392.9800109863281 7.989999771118164
289.7999877929688 392.8200073242188 8.010000228881836
288.6000061035156 393.7699890136719 7.690000057220459
289.1400146484375 393.6400146484375 7.75
289.7300109863281 393.489990234375 7.769999980926514
289.7099914550781 394.2300109863281 7.510000228881836
290.1900024414062 393.989990234375 7.659999847412109
289.6000061035156 394.1400146484375 7.389999866485596
289.0299987792969 394.2799987792969 7.400000095367432
289.9700012207031 393.260009765625 7.699999809265137
289.3900146484375 393.3999938964844 7.769999980926514
288.8599853515625 393.5400085449219 7.71999979019165
290.1700134277344 392.4800109863281 7.880000114440918
289.5599975585938 392.6400146484375 8.010000228881836
289.0299987792969 392.7699890136719 8.010000228881836
288.4599914550781 392.9200134277344 7.760000228881836
289.989990234375 391.8999938964844 7.900000095367432
289.4500122070312 392.0400085449219 7.96999979019165
288.8900146484375 392.1799926757812 7.980000019073486
289.7300109863281 391.2699890136719 7.760000228881836
289.1700134277344 391.4200134277344 7.849999904632568
288.6300048828125 391.5499877929688 7.78000020980835
290.1099853515625 390.4500122070312 7.340000152587891
289.5299987792969 390.6000061035156 7.409999847412109
289 390.7300109863281 7.420000076293945
289.7000122070312 389.8999938964844 7.110000133514404
289.1499938964844 390.0400085449219 7.260000228881836
288.6099853515625 390.1799926757812 7.329999923706055
288.8699951171875 390.0799865722656 7.389999866485596
289.4299926757812 389.9500122070312 7.25
289.0700073242188 390.7699890136719 7.400000095367432
289.7200012207031 390.6099853515625 7.420000076293945
290.3200073242188 390.4599914550781 7.199999809265137
288.3800048828125 391.7300109863281 7.940000057220459
288.989990234375 391.5799865722656 7.980000019073486
289.5899963378906 391.4299926757812 7.860000133514404
290.0799865722656 391.3099975585938 7.53000020980835
288.6799926757812 392.3399963378906 8.079999923706055
289.2699890136719 392.2000122070312 7.980000019073486
289.8999938964844 392.0400085449219 7.940000057220459
288.9100036621094 392.8500061035156 7.989999771118164
289.5199890136719 392.7000122070312 8
290.0799865722656 392.5599975585938 7.849999904632568
288.3999938964844 393.6900024414062 7.800000190734863
289.010009765625 393.5400085449219 7.730000019073486
289.6799926757812 393.3699951171875 7.800000190734863
290.239990234375 393.2300109863281 7.440000057220459
289.9800109863281 394.1199951171875 7.619999885559082
288.2799987792969 393.7999877929688 7.550000190734863
289 393.9800109863281 7.650000095367432
289.6199951171875 394.1300048828125 7.809999942779541
289 392.4700012207031 8
289.7099914550781 392.6400146484375 8.060000419616699
288.3699951171875 393.0499877929688 7.550000190734863
288.9100036621094 393.1799926757812 7.929999828338623
288.5 391.7099914550781 7.739999771118164
289.1499938964844 391.8699951171875 7.949999809265137
289.8399963378906 392.0400085449219 8.109999656677246
288.9700012207031 390.4100036621094 7.409999847412109
288.75 391.0799865722656 7.599999904632568
290.1300048828125 391.4200134277344 7.739999771118164
289.7099914550781 390.6000061035156 7.429999828338623
289.0799865722656 389.8299865722656 7.230000019073486
289.7699890136719 390 7.289999961853027
289.9299926757812 390.1000061035156 7.239999771118164
289.3699951171875 389.9599914550781 7.260000228881836
290.1300048828125 390.8900146484375 7.46999979019165
289.4800109863281 390.7300109863281 7.420000076293945
288.9299926757812 390.6000061035156 7.389999866485596
288.3699951171875 390.4599914550781 7.320000171661377
289.739990234375 391.4800109863281 7.840000152587891
288.6700134277344 391.2099914550781 7.480000019073486
289.9599914550781 392.1400146484375 7.960000038146973
289.3599853515625 391.9800109863281 7.989999771118164
288.7699890136719 391.8399963378906 7.949999809265137
289.6099853515625 392.6799926757812 8
289.010009765625 392.5299987792969 8
288.510009765625 392.3999938964844 7.670000076293945
289.8999938964844 393.4500122070312 7.75
289.2300109863281 393.2900085449219 7.849999904632568
288.6700134277344 393.1499938964844 7.860000133514404
289.6099853515625 394.0199890136719 7.659999847412109
289.0199890136719 393.8699951171875 7.730000019073486
288.4700012207031 393.739990234375 7.650000095367432
288.5299987792969 393.9800109863281 7.670000076293945
289.1300048828125 394.1300048828125 7.400000095367432
289.6600036621094 394.260009765625 7.400000095367432
288.7699890136719 393.260009765625 7.820000171661377
289.3200073242188 393.3999938964844 7.809999942779541
289.8500061035156 393.5299987792969 7.699999809265137
288.4700012207031 392.489990234375 7.679999828338623
289.0599975585938 392.6300048828125 8.020000457763672
289.6099853515625 392.7699890136719 8
290.1199951171875 392.8999938964844 7.579999923706055
288.6400146484375 391.8900146484375 7.949999809265137
289.2099914550781 392.0299987792969 8
289.739990234375 392.1700134277344 7.980000019073486
289.4599914550781 391.4100036621094 7.920000076293945
290.010009765625 391.5400085449219 7.619999885559082
288.4800109863281 390.3900146484375 7.349999904632568
289.010009765625 390.5199890136719 7.409999847412109
289.5700073242188 390.6499938964844 7.420000076293945
290.1400146484375 390.7900085449219 7.360000133514404
289.2000122070312 389.8800048828125 7.239999771118164
289.739990234375 390.010009765625 7.260000228881836
290.2099914550781 390.3999938964844 7.199999809265137
289.5799865722656 390.25 7.340000152587891
288.9299926757812 390.0899963378906 7.309999942779541
289.8599853515625 391.010009765625 7.440000057220459
289.239990234375 390.8500061035156 7.400000095367432
290.0899963378906 391.7300109863281 7.570000171661377
289.5499877929688 391.6000061035156 7.909999847412109
290.1700134277344 392.4599914550781 7.429999828338623
289.7200012207031 392.3500061035156 7.980000019073486
289.0899963378906 392.2000122070312 7.989999771118164
290.2099914550781 393.2799987792969 7.460000038146973
289.75 393.1700134277344 7.940000057220459
289.1199951171875 393.010009765625 7.980000019073486
289.8299865722656 393.9200134277344 7.699999809265137
289.2000122070312 393.760009765625 7.710000038146973
288.5599975585938 393.6000061035156 7.730000019073486
288.3599853515625 394.4800109863281 7.659999847412109
288.5 395.0199890136719 7.480000019073486
288.4800109863281 392.7699890136719 7.760000228881836
288.6600036621094 393.5199890136719 8.020000457763672
288.8099975585938 394.1099853515625 7.940000057220459
288.9599914550781 394.7000122070312 7.71999979019165
288.7699890136719 391.4700012207031 7.449999809265137
289.1300048828125 392.9100036621094 8.039999961853027
289.2799987792969 393.5400085449219 8.039999961853027
289.4400024414062 394.1499938964844 7.940000057220459
289.5899963378906 394.7200012207031 7.730000019073486
289.2799987792969 390.8800048828125 7.380000114440918
289.4400024414062 391.5199890136719 7.440000057220459
289.6600036621094 392.4500122070312 8.159999847412109
289.8200073242188 393.0599975585938 8.020000457763672
289.9700012207031 393.6499938964844 7.960000038146973
290.1099853515625 394.2099914550781 7.659999847412109
289.9400024414062 391.1199951171875 7.420000076293945
290.0899963378906 391.7300109863281 7.440000057220459
289.0199890136719 395.2000122070312 7.559999942779541
288.8800048828125 394.6700134277344 7.730000019073486
288.75 394.1300048828125 7.960000038146973
288.6199951171875 393.6099853515625 8.010000228881836
288.4599914550781 392.9800109863281 7.889999866485596
289.6099853515625 394.760009765625 7.639999866485596
289.4700012207031 394.1799926757812 7.960000038146973
289.3299865722656 393.6000061035156 8.050000190734863
289.1799926757812 393.0299987792969 8.069999694824219
289.0299987792969 392.4500122070312 7.980000019073486
288.8599853515625 391.8200073242188 7.449999809265137
288.7099914550781 391.2300109863281 7.440000057220459
290.1300048828125 394.3099975585938 7.710000038146973
289.989990234375 393.75 7.690000057220459
289.8699951171875 393.239990234375 7.96999979019165
289.7099914550781 392.6199951171875 7.960000038146973
289.5499877929688 392.0499877929688 7.440000057220459
289.3999938964844 391.4500122070312 7.480000019073486
289.260009765625 390.9100036621094 7.389999866485596
288.1099853515625 392.239990234375 7.730000019073486
288.260009765625 392.8599853515625 7.630000114440918
288.3900146484375 393.3999938964844 7.679999828338623
288.5400085449219 394.010009765625 7.820000171661377
288.7000122070312 394.6300048828125 7.730000019073486
288.3699951171875 390.8900146484375 7.349999904632568
288.510009765625 391.4800109863281 7.460000038146973
288.6499938964844 392.0599975585938 7.699999809265137
288.7900085449219 392.6099853515625 7.960000038146973
288.9200134277344 393.1700134277344 8.069999694824219
289.0599975585938 393.739990234375 8.050000190734863
289.2300109863281 394.3900146484375 7.699999809265137
289.3699951171875 394.9500122070312 7.769999980926514
289 390.6199951171875 7.190000057220459
289.1400146484375 391.2000122070312 7.440000057220459
289.2699890136719 391.7300109863281 7.550000190734863
289.4100036621094 392.2999877929688 7.889999866485596
289.5400085449219 392.8299865722656 7.989999771118164
289.6799926757812 393.3999938964844 8.060000419616699
289.8399963378906 394.0599975585938 7.800000190734863
290.010009765625 394.7200012207031 7.71999979019165
289.9700012207031 391.5700073242188 7.449999809265137
290.1000061035156 392.1199951171875 7.670000076293945
288.6400146484375 394.6099853515625 7.730000019073486
288.4599914550781 393.8999938964844 7.769999980926514
289.4400024414062 394.8500061035156 7.730000019073486
289.2300109863281 393.989990234375 8.050000190734863
289.0400085449219 393.239990234375 8.079999923706055
288.8699951171875 392.5799865722656 7.960000038146973
288.7200012207031 391.9700012207031 7.670000076293945
288.5700073242188 391.3599853515625 7.460000038146973
288.4400024414062 390.8699951171875 6.989999771118164
289.989990234375 394.3800048828125 7.739999771118164
289.7799987792969 393.5499877929688 8.010000228881836
289.6000061035156 392.7999877929688 8
289.4500122070312 392.2000122070312 7.829999923706055
289.2999877929688 391.6000061035156 7.570000171661377
289.1400146484375 390.989990234375 7.400000095367432
289.0199890136719 390.510009765625 6.980000019073486
289.9400024414062 391.8999938964844 7.550000190734863
289.7699890136719 391.239990234375 7.400000095367432
289.6400146484375 390.7000122070312 7.130000114440918
289.7999877929688 394.75 7.690000057220459
289.9700012207031 394.0899963378906 7.730000019073486
289.25 394.4200134277344 7.820000171661377
289.3900146484375 393.8399963378906 8
289.5400085449219 393.2099914550781 8.020000457763672
289.7099914550781 392.5700073242188 7.900000095367432
289.9400024414062 391.7099914550781 7.440000057220459
288.5799865722656 395.0199890136719 7.170000076293945
288.6700134277344 394.5700073242188 7.760000228881836
288.8099975585938 393.9599914550781 8
288.9700012207031 393.3299865722656 8.039999961853027
289.1400146484375 392.6700134277344 8
289.3599853515625 391.8699951171875 7.420000076293945
289.5199890136719 391.2099914550781 7.389999866485596
288.489990234375 392.8900146484375 7.869999885559082
288.8599853515625 391.4599914550781 7.46999979019165
288.3699951171875 393.3999938964844 7.630000114440918
289.0799865722656 391.1099853515625 7.429999828338623
288.9400024414062 391.6900024414062 7.489999771118164
288.8099975585938 392.2999877929688 7.889999866485596
288.6700134277344 392.9100036621094 8.010000228881836
288.5199890136719 393.4800109863281 7.940000057220459
289.7900085449219 390.9200134277344 7.329999923706055
289.6499938964844 391.510009765625 7.449999809265137
289.3900146484375 392.6799926757812 8
289.25 393.260009765625 8.050000190734863
289.1099853515625 393.8399963378906 8.050000190734863
288.9700012207031 394.3500061035156 7.769999980926514
288.8099975585938 394.9200134277344 7.28000020980835
290 392.5599975585938 7.599999904632568
289.8699951171875 393.1900024414062 8.029999732971191
289.7200012207031 393.7699890136719 8.029999732971191
289.5799865722656 394.3200073242188 7.78000020980835
289.4400024414062 394.8599853515625 7.619999885559082
289.2900085449219 395.0799865722656 7.730000019073486
289.4200134277344 394.5400085449219 7.710000038146973
289.5799865722656 393.8699951171875 8.020000457763672
289.7300109863281 393.2699890136719 8.039999961853027
289.8800048828125 392.6799926757812 7.900000095367432
290.0199890136719 392.1799926757812 7.639999866485596
288.760009765625 394.5899963378906 7.71999979019165
288.9100036621094 393.9299926757812 8.010000228881836
289.0499877929688 393.3699951171875 8.060000419616699
289.2000122070312 392.7999877929688 8.020000457763672
289.3399963378906 392.2699890136719 7.880000114440918
289.489990234375 391.7200012207031 7.5
289.6300048828125 391.1900024414062 7.409999847412109
288.4200134277344 393.7000122070312 7.630000114440918
288.5799865722656 393 8.020000457763672
288.7300109863281 392.3999938964844 7.920000076293945
288.8699951171875 391.9200134277344 7.550000190734863
289.0199890136719 391.3200073242188 7.46999979019165
289.1799926757812 390.739990234375 7.289999961853027
288.3699951171875 391.4500122070312 7.440000057220459
288.5199890136719 390.8999938964844 7.239999771118164
288.5599975585938 391.1099853515625 7.349999904632568
288.4299926757812 391.6700134277344 7.559999942779541
288.2699890136719 392.3299865722656 7.690000057220459
289.3900146484375 390.8800048828125 7.349999904632568
289.2300109863281 391.5599975585938 7.5
289.0799865722656 392.1600036621094 7.690000057220459
288.9599914550781 392.7000122070312 7.989999771118164
288.7999877929688 393.3599853515625 8.050000190734863
288.5899963378906 394.1900024414062 7.760000228881836
290 391.260009765625 7.389999866485596
289.8500061035156 391.8999938964844 7.550000190734863
289.7300109863281 392.4100036621094 7.869999885559082
289.5700073242188 393.0899963378906 8.039999961853027
289.3900146484375 393.8099975585938 8.050000190734863
289.1700134277344 394.7000122070312 7.71999979019165
290.0299987792969 393.7099914550781 7.670000076293945
289.8699951171875 394.3699951171875 7.710000038146973
