42.93999862670898 396.3099975585938 13.02000045776367
43.38999938964844 395.4299926757812 13.07999992370605
43.68999862670898 396.6199951171875 13.01000022888184
44.08000183105469 395.75 13.35000038146973
44.22999954223633 396.3699951171875 13.35000038146973
44.36000061035156 396.8699951171875 12.88000011444092
44.56999969482422 395.5700073242188 13.38000011444092
44.72000122070312 396.1799926757812 13.35999965667725
44.86999893188477 396.760009765625 13.27999973297119
45.22999954223633 395.7300109863281 13.34000015258789
45.38000106811523 396.3099975585938 13.31999969482422
45.52999877929688 396.9100036621094 13.09000015258789
46.2400016784668 397 12.5600004196167
46.75 396.6799926757812 12.69999980926514
46.43999862670898 395.4500122070312 12.85000038146973
46.59000015258789 396.0599975585938 12.85000038146973
47.16999816894531 396.3699951171875 12.64999961853027
43.4900016784668 396.6000061035156 12.96000003814697
43.36000061035156 396.0799865722656 13.07999992370605
43.18999862670898 395.4599914550781 13.06999969482422
44.20999908447266 396.7799987792969 13.17000007629395
44.08000183105469 396.2699890136719 13.32999992370605
43.91999816894531 395.6499938964844 13.32999992370605
43.77999877929688 395.1000061035156 13.10999965667725
44.88000106811523 397.0700073242188 13.27000045776367
44.72999954223633 396.489990234375 13.35000038146973
44.59000015258789 395.9400024414062 13.39999961853027
44.43999862670898 395.3599853515625 13.35999965667725
45.47000122070312 396.7200012207031 13.13000011444092
45.33000183105469 396.1700134277344 13.31999969482422
45.18999862670898 395.6000061035156 13.35000038146973
46.2599983215332 396.8900146484375 12.81999969482422
45.81999969482422 395.1499938964844 12.92000007629395
46.81999969482422 396.4700012207031 12.75
46.68999862670898 395.9400024414062 12.8100004196167
46.52999877929688 395.3200073242188 12.78999996185303
47.31999969482422 396.1799926757812 12.61999988555908
47.16999816894531 395.6199951171875 12.42000007629395
43.18000030517578 395.239990234375 12.98999977111816
43.31999969482422 395.8200073242188 13.13000011444092
43.47000122070312 396.3999938964844 13.13000011444092
43.84000015258789 395.1199951171875 12.94999980926514
43.95999908447266 395.5899963378906 13.3100004196167
44.09999847412109 396.1700134277344 13.35999965667725
44.5 395.3900146484375 13.32999992370605
44.65999984741211 396 13.39999961853027
44.79000091552734 396.5499877929688 13.42000007629395
45.13000106811523 395.2000122070312 12.94999980926514
45.25 395.7000122070312 13.35000038146973
45.40000152587891 396.2799987792969 13.3100004196167
45.91999816894531 395.489990234375 12.9399995803833
46.22000122070312 396.6900024414062 12.86999988555908
46.56000137329102 395.3099975585938 12.52999973297119
46.68999862670898 395.8399963378906 12.8100004196167
46.83000183105469 396.3900146484375 12.77999973297119
43.15999984741211 396.1099853515625 13.05000019073486
43.0099983215332 395.5 12.8100004196167
43.95000076293945 396.3999938964844 13.31999969482422
43.63000106811523 395.0899963378906 13.09000015258789
44.54000091552734 396 13.35000038146973
44.36000061035156 395.2799987792969 13.31999969482422
45.22999954223633 396.5199890136719 13.36999988555908
45.04999923706055 395.8099975585938 13.35999965667725
44.88999938964844 395.1700134277344 13.22000026702881
45.54000091552734 395.1099853515625 12.60000038146973
46.66999816894531 396.7999877929688 12.93000030517578
46.52000045776367 396.2000122070312 12.8100004196167
46.34000015258789 395.4599914550781 12.77000045776367
47.06000137329102 395.8299865722656 12.60999965667725
46.95000076293945 395.3500061035156 12.10000038146973
42.9900016784668 396.3800048828125 12.89000034332275
43.11999893188477 395.8399963378906 13.07999992370605
43.29000091552734 395.1600036621094 13.06999969482422
43.63999938964844 396.6700134277344 13
43.77000045776367 396.1000061035156 13.22999954223633
43.90999984741211 395.510009765625 13.26000022888184
44.27000045776367 396.5 13.34000015258789
44.41999816894531 395.8699951171875 13.38000011444092
44.79000091552734 396.6799926757812 13.30000019073486
44.93000030517578 396.1099853515625 13.38000011444092
45.09000015258789 395.4700012207031 13.34000015258789
45.41999816894531 396.8200073242188 12.75
45.5099983215332 396.3800048828125 13.3100004196167
45.66999816894531 395.75 13.23999977111816
46.2400016784668 396.5199890136719 12.82999992370605
46.40000152587891 395.8699951171875 12.82999992370605
46.79000091552734 396.8299865722656 12.65999984741211
46.93000030517578 396.2300109863281 12.72000026702881
47.09000015258789 395.6199951171875 12.72999954223633
43.45000076293945 394.9400024414062 13.02000045776367
43.33000183105469 395.4700012207031 13.07999992370605
43.18000030517578 396.0700073242188 13.0600004196167
44.02000045776367 395.1099853515625 13.10000038146973
43.88999938964844 395.7099914550781 13.31999969482422
43.75 396.239990234375 13.1899995803833
44.5099983215332 395.3699951171875 13.36999988555908
44.38000106811523 395.9400024414062 13.38000011444092
44.22999954223633 396.5400085449219 13.22000026702881
45.18000030517578 395.0700073242188 12.85000038146973
45.06000137329102 395.6799926757812 13.38000011444092
44.91999816894531 396.25 13.38000011444092
45.70000076293945 395.9700012207031 13.22000026702881
45.56000137329102 396.5499877929688 13.26000022888184
46.40000152587891 395.5299987792969 12.80000019073486
46.11999893188477 396.6900024414062 12.88000011444092
46.90000152587891 395.6900024414062 12.72999954223633
46.7599983215332 396.2999877929688 12.78999996185303
46.61999893188477 396.8699951171875 12.68000030517578
47.0099983215332 396.5499877929688 12.68000030517578
47.15000152587891 395.9700012207031 12.68000030517578
46.27000045776367 396.6900024414062 12.82999992370605
46.40999984741211 396.0899963378906 12.85000038146973
46.56999969482422 395.4599914550781 12.80000019073486
45.20000076293945 396.3299865722656 13.32999992370605
45.34999847412109 395.7200012207031 13.35000038146973
45.5 395.2200012207031 12.76000022888184
44.61000061035156 396.2900085449219 13.39000034332275
44.7400016784668 395.7300109863281 13.39000034332275
44.88000106811523 395.1799926757812 13.19999980926514
43.83000183105469 396.4700012207031 13.1899995803833
43.97999954223633 395.8299865722656 13.35999965667725
44.13000106811523 395.25 13.30000019073486
43.18000030517578 396.5400085449219 13.0600004196167
43.31999969482422 395.9299926757812 13.09000015258789
43.45999908447266 395.3699951171875 13.10999965667725
43.59999847412109 394.8399963378906 12.89000034332275
43.52999877929688 395.2699890136719 13.07999992370605
43.34000015258789 396.0400085449219 13.0600004196167
44.22999954223633 395.1600036621094 13.0600004196167
44.09000015258789 395.760009765625 13.38000011444092
45.02000045776367 395.0599975585938 12.82999992370605
44.93000030517578 395.5 13.36999988555908
44.75 396.2300109863281 13.38000011444092
45.61999893188477 395.3099975585938 13.13000011444092
45.47000122070312 395.9400024414062 13.31999969482422
45.29999923706055 396.6400146484375 13.35999965667725
46.22000122070312 395.2300109863281 12.73999977111816
46.86000061035156 395.3399963378906 12.19999980926514
46.77999877929688 395.7200012207031 12.77999973297119
46.59000015258789 396.4700012207031 12.82999992370605
