139.4900054931641 378.3900146484375 8.470000267028809
139.5099945068359 381.9100036621094 8.550000190734863
140.9199981689453 378.7799987792969 9.029999732971191
140.2799987792969 378.9500122070312 9.109999656677246
139.6499938964844 379.1000061035156 9.020000457763672
140.6300048828125 379.489990234375 9.189999580383301
139.9799957275391 379.6600036621094 9.220000267028809
140.3699951171875 380.3099975585938 9.199999809265137
139.6600036621094 381.2099914550781 8.810000419616699
140.0299987792969 381.7799987792969 8.810000419616699
139.7899932861328 378.3500061035156 8.630000114440918
139.6399993896484 378.9800109863281 8.819999694824219
140.1699981689453 378.8399963378906 9.119999885559082
140.7100067138672 378.7099914550781 9.109999656677246
139.8999938964844 379.5899963378906 9.189999580383301
140.4900054931641 379.4400024414062 9.229999542236328
139.8200073242188 380.3699951171875 9.180000305175781
140.3500061035156 380.239990234375 9.220000267028809
140.9199981689453 380.0899963378906 9.220000267028809
139.6999969482422 381.1099853515625 8.840000152587891
139.5800018310547 381.7200012207031 8.649999618530273
140.1399993896484 381.5799865722656 8.819999694824219
140.6699981689453 381.4500122070312 8.819999694824219
140.5 382.1700134277344 8.439999580383301
140.6100006103516 378.2900085449219 8.800000190734863
140.0599975585938 378.4299926757812 8.960000038146973
141.1100006103516 378.9299926757812 8.939999580383301
140.5899963378906 379.0599975585938 9.109999656677246
139.9700012207031 379.2099914550781 9.159999847412109
141.0200042724609 379.6499938964844 9.159999847412109
140.4299926757812 379.7999877929688 9.239999771118164
139.8600006103516 379.9400024414062 9.199999809265137
140.8200073242188 380.2999877929688 9.180000305175781
140.1999969482422 380.4599914550781 9.170000076293945
140.5899963378906 381.7799987792969 8.819999694824219
139.9299926757812 381.9400024414062 8.659999847412109
139.9199981689453 378.8299865722656 9.119999885559082
140.5899963378906 378.6600036621094 9.090000152587891
140.2200012207031 379.4299926757812 9.130000114440918
140.8899993896484 379.260009765625 9.180000305175781
139.7599945068359 378.3599853515625 8.75
140.3099975585938 378.489990234375 8.989999771118164
140.9299926757812 378.6499938964844 9.060000419616699
140.1100006103516 379.0899963378906 9.149999618530273
140.7400054931641 379.25 9.170000076293945
140.0800018310547 379.7000122070312 9.199999809265137
140.7200012207031 379.8599853515625 9.170000076293945
140.0500030517578 380.3500061035156 9.140000343322754
140.1399993896484 381.1099853515625 8.779999732971191
140.8099975585938 381.2699890136719 8.869999885559082
139.5099945068359 381.5899963378906 8.600000381469727
139.6100006103516 380.75 8.939999580383301
140.6300048828125 378.3999938964844 8.989999771118164
140.1300048828125 378.2799987792969 8.729999542236328
139.6699981689453 378.1400146484375 7.579999923706055
140.8800048828125 379.0499877929688 9.109999656677246
140.3000030517578 378.8999938964844 9.140000343322754
139.7700042724609 378.7699890136719 8.979999542236328
140.9600067138672 379.6900024414062 9.220000267028809
140.3800048828125 379.5499877929688 9.229999542236328
139.8099975585938 379.4100036621094 9.189999580383301
140.5700073242188 380.3299865722656 9.199999809265137
140.0399932861328 380.2000122070312 9.199999809265137
140.7700042724609 381.0400085449219 8.930000305175781
141 381.7099914550781 8.789999961853027
140.4100036621094 381.5599975585938 8.829999923706055
139.8500061035156 381.4299926757812 8.850000381469727
139.9299926757812 382.0899963378906 8.640000343322754
140.0800018310547 381.6099853515625 8.850000381469727
140.6900024414062 381.75 8.840000152587891
140.1000061035156 380.25 9.170000076293945
140.6900024414062 380.3900146484375 9.140000343322754
139.6999969482422 379.5 9.130000114440918
140.3099975585938 379.6499938964844 9.229999542236328
140.8899993896484 379.7900085449219 9.180000305175781
140 378.9700012207031 9.100000381469727
140.6399993896484 379.1300048828125 9.130000114440918
139.6799926757812 378.25 8.670000076293945
140.2700042724609 378.3900146484375 8.909999847412109
140.9100036621094 378.5499877929688 9
140.2599945068359 379.2000122070312 9.109999656677246
140.4199981689453 379.8399963378906 9.180000305175781
140.5700073242188 380.4299926757812 9.119999885559082
140.7100067138672 380.989990234375 8.930000305175781
140.8500061035156 381.5499877929688 8.779999732971191
139.6600036621094 379.0599975585938 9.090000152587891
139.8300018310547 379.7200012207031 9.130000114440918
139.9799957275391 380.3299865722656 9.170000076293945
140.1399993896484 380.9400024414062 8.960000038146973
140.2899932861328 381.5400085449219 8.829999923706055
140.4400024414062 382.1400146484375 8.699999809265137
139.6100006103516 381.5199890136719 8.800000190734863
139.75 382.0899963378906 8.649999618530273
139.1399993896484 381.9500122070312 8.590000152587891
139.6900024414062 381.9200134277344 8.609999656677246
139.5599975585938 381.4100036621094 8.810000419616699
139.75 379.7099914550781 9.210000038146973
139.6000061035156 379.1300048828125 9.159999847412109
140.3099975585938 382 8.670000076293945
140.1699981689453 381.4400024414062 8.850000381469727
139.8999938964844 380.3200073242188 9.130000114440918
140.5700073242188 380.3999938964844 9.060000419616699
140.4199981689453 379.7999877929688 9.229999542236328
140.2899932861328 379.2699890136719 9.180000305175781
140.1399993896484 378.6900024414062 9.140000343322754
140.3999938964844 378.1400146484375 7.929999828338623
140.4799957275391 378.510009765625 9
139.7799987792969 378.0400085449219 7.880000114440918
139.8699951171875 378.3999938964844 8.960000038146973
140.0099945068359 378.9700012207031 9.130000114440918
140.1499938964844 379.5400085449219 9.210000038146973
139.2100067138672 378.4200134277344 8.600000381469727
139.4799957275391 379.5499877929688 9.189999580383301
139.9400024414062 381.3099975585938 8.840000152587891
139.3899993896484 382.0499877929688 8.399999618530273
139.5200042724609 379.7200012207031 9.350000381469727
139.1199951171875 378.0199890136719 8.489999771118164
140.1000061035156 379.3999938964844 9.220000267028809
139.9299926757812 378.6900024414062 9.100000381469727
139.7599945068359 377.9700012207031 7.659999847412109
140.5200042724609 378.1199951171875 7.900000095367432
140.6999969482422 381.8599853515625 8.710000038146973
139.9900054931641 382.0199890136719 8.739999771118164
140.4100036621094 380.2300109863281 9.170000076293945
140.5700073242188 379.5899963378906 9.229999542236328
139.4499969482422 381.8299865722656 8.779999732971191
139.6100006103516 381.1700134277344 8.859999656677246
139.7299957275391 380.6400146484375 9.079999923706055
139.8699951171875 380.0599975585938 9.289999961853027
140.0299987792969 379.3900146484375 9.25
139.1699981689453 380.7900085449219 8.970000267028809
139.4499969482422 379.6099853515625 9.210000038146973
139.6300048828125 378.9299926757812 9.069999694824219
140.3399963378906 378.2200012207031 8.270000457763672
140.2200012207031 378.8200073242188 9.149999618530273
140.0899963378906 379.3999938964844 9.25
139.9499969482422 379.9299926757812 9.220000267028809
139.6600036621094 381.0400085449219 8.859999656677246
139.5200042724609 381.6099853515625 8.770000457763672
140.6499938964844 380.3200073242188 9.159999847412109
140.3600006103516 381.4500122070312 8.829999923706055
140.2200012207031 382.010009765625 8.649999618530273
140.4400024414062 381.3299865722656 8.850000381469727
140.1600036621094 379.7699890136719 9.270000457763672
140.3099975585938 379.1799926757812 9.140000343322754
140.4499969482422 378.6400146484375 9.039999961853027
140.5899963378906 378.1600036621094 8.560000419616699
139.5800018310547 379.6099853515625 9.199999809265137
139.7200012207031 379.0400085449219 9.130000114440918
139.8600006103516 378.5199890136719 9.010000228881836
140 378.0799865722656 8.069999694824219
139.2599945068359 378.239990234375 8.539999961853027
140.0299987792969 378.1199951171875 8.050000190734863
139.9900054931641 378.3599853515625 8.930000305175781
139.8300018310547 378.989990234375 9.119999885559082
140.7299957275391 378.1700134277344 7.610000133514404
140.5800018310547 378.8800048828125 9.130000114440918
140.4299926757812 379.489990234375 9.210000038146973
