207.5 298.7000122070312 5.489999771118164
205.8699951171875 299.1199951171875 6.070000171661377
205.2299957275391 299.2799987792969 5.989999771118164
204.6100006103516 299.4299926757812 5.880000114440918
204.0599975585938 299.5599975585938 5.639999866485596
207.1799926757812 298.0499877929688 5.570000171661377
205.6000061035156 298.4500122070312 6.090000152587891
204.9400024414062 298.6199951171875 6.019999980926514
204.2899932861328 298.7799987792969 5.829999923706055
203.7700042724609 298.8999938964844 5.539999961853027
204.5800018310547 298.0199890136719 5.800000190734863
203.9499969482422 298.1799926757812 5.730000019073486
203.5899963378906 298.260009765625 4.900000095367432
203.7599945068359 298.5899963378906 5.400000095367432
204.2400054931641 298.4599914550781 5.78000020980835
204.7899932861328 298.3299865722656 5.949999809265137
205.3099975585938 298.2000122070312 6.03000020980835
205.9600067138672 298.0299987792969 6
206.5599975585938 297.8900146484375 5.670000076293945
203.8800048828125 299.1300048828125 5.670000076293945
204.4600067138672 298.989990234375 5.880000114440918
205.0599975585938 298.8299865722656 6
205.6000061035156 298.7000122070312 6.079999923706055
206.2100067138672 298.5499877929688 6.059999942779541
206.9100036621094 298.3800048828125 5.5
207.5099945068359 298.2300109863281 5.550000190734863
204.7700042724609 299.5499877929688 5.789999961853027
205.3200073242188 299.4100036621094 5.980000019073486
205.8999938964844 299.2699890136719 6.050000190734863
207.1499938964844 298.9599914550781 5.610000133514404
207.7299957275391 298.8099975585938 5.550000190734863
207.6600036621094 299.3500061035156 5.539999961853027
207.0899963378906 299.489990234375 5.630000114440918
206.4900054931641 299.6400146484375 5.78000020980835
207.9299926757812 298.6400146484375 5.449999809265137
207.3600006103516 298.7900085449219 5.590000152587891
206.8099975585938 298.9299926757812 5.71999979019165
206.2599945068359 299.0700073242188 6.010000228881836
205.6900024414062 299.2099914550781 6.039999961853027
205.1399993896484 299.3500061035156 6
204.4900054931641 299.5 5.739999771118164
207.6100006103516 298.0199890136719 5.510000228881836
207.0099945068359 298.1700134277344 5.610000133514404
206.4799957275391 298.3099975585938 5.940000057220459
205.8600006103516 298.4599914550781 6.059999942779541
205.3200073242188 298.6000061035156 6.059999942779541
204.75 298.739990234375 5.980000019073486
204.1900024414062 298.8800048828125 5.739999771118164
205.6100006103516 297.8999938964844 5.920000076293945
205.0500030517578 298.0400085449219 5.949999809265137
204.4499969482422 298.1799926757812 5.789999961853027
203.8000030517578 298.3399963378906 5.650000095367432
206.75 297.6099853515625 5.710000038146973
206.1300048828125 297.760009765625 5.78000020980835
204.5500030517578 298.1700134277344 5.829999923706055
205.2799987792969 297.9800109863281 5.929999828338623
206.5399932861328 297.6700134277344 5.730000019073486
204.0500030517578 298.8999938964844 5.800000190734863
205.4799957275391 298.5400085449219 6.050000190734863
206.1600036621094 298.3699951171875 6.039999961853027
206.7599945068359 298.2200012207031 5.789999961853027
207.3300018310547 298.0799865722656 5.579999923706055
207.8500061035156 297.9500122070312 5.320000171661377
204.8500061035156 299.3900146484375 5.78000020980835
205.5899963378906 299.2000122070312 6.03000020980835
206.2899932861328 299.0299987792969 6
206.8399963378906 298.8900146484375 5.809999942779541
207.3899993896484 298.75 5.599999904632568
208.0099945068359 298.6000061035156 5.409999847412109
207.6100006103516 299.4400024414062 5.630000114440918
203.5099945068359 299.1799926757812 5.369999885559082
203.9799957275391 299.2900085449219 5.739999771118164
203.6100006103516 298.5199890136719 5.360000133514404
204.0800018310547 298.6300048828125 5.789999961853027
204.7299957275391 298.7900085449219 5.929999828338623
205.3600006103516 298.9400024414062 6.059999942779541
206.0899963378906 299.1199951171875 6.019999980926514
206.2400054931641 298.4100036621094 5.960000038146973
207.1300048828125 298.6300048828125 5.630000114440918
207.7899932861328 298.7900085449219 5.579999923706055
204.2700042724609 297.9299926757812 5.690000057220459
204.8200073242188 298.0599975585938 5.880000114440918
205.4900054931641 298.2200012207031 6.059999942779541
206.4400024414062 297.6400146484375 5.639999866485596
207.2100067138672 297.8299865722656 5.480000019073486
205.4700012207031 299.3999938964844 5.989999771118164
204.9400024414062 299.260009765625 5.96999979019165
204.3699951171875 299.1199951171875 5.829999923706055
203.8300018310547 298.9800109863281 5.539999961853027
207.7100067138672 299.2999877929688 5.460000038146973
207.1399993896484 299.1600036621094 5.659999847412109
205.8500061035156 298.8500061035156 6.070000171661377
205.2400054931641 298.7000122070312 6.039999961853027
204.6999969482422 298.5599975585938 5.909999847412109
204.1600036621094 298.4200134277344 5.78000020980835
203.6900024414062 298.2999877929688 5.21999979019165
207.4799957275391 298.6400146484375 5.579999923706055
206.2200012207031 298.3399963378906 6.050000190734863
205.6399993896484 298.1900024414062 6.03000020980835
205.0800018310547 298.0499877929688 5.960000038146973
204.5800018310547 297.9200134277344 5.679999828338623
207.7400054931641 298.0599975585938 5.519999980926514
207.1600036621094 297.9200134277344 5.539999961853027
206.5500030517578 297.7699890136719 5.690000057220459
204.6999969482422 297.9299926757812 5.739999771118164
203.75 298.3099975585938 5.590000152587891
204.3999938964844 298.4700012207031 5.800000190734863
204.9700012207031 298.6099853515625 6.019999980926514
203.8699951171875 299.0700073242188 5.639999866485596
204.4700012207031 299.2099914550781 5.800000190734863
205.0700073242188 299.3599853515625 5.96999979019165
206.8399963378906 297.9100036621094 5.639999866485596
207.3699951171875 298.0400085449219 5.550000190734863
207.9199981689453 298.1799926757812 5.389999866485596
206.2299957275391 297.75 5.679999828338623
205.3399963378906 298.0899963378906 6.019999980926514
205.8699951171875 298.2200012207031 6.03000020980835
206.4799957275391 298.3800048828125 5.889999866485596
207 298.510009765625 5.650000095367432
207.5599975585938 298.6499938964844 5.590000152587891
205.5800018310547 298.760009765625 6.050000190734863
206.1600036621094 298.9100036621094 6.03000020980835
207.2700042724609 299.1900024414062 5.599999904632568
207.8099975585938 299.3299865722656 5.369999885559082
205.6399993896484 299.5 5.829999923706055
205.0599975585938 299.3599853515625 5.980000019073486
204.2799987792969 299.1600036621094 5.730000019073486
207.9299926757812 299.4500122070312 5.190000057220459
207.4299926757812 299.3299865722656 5.590000152587891
206.7899932861328 299.1799926757812 5.769999980926514
206.2200012207031 299.0400085449219 6.019999980926514
205.5599975585938 298.8800048828125 6.059999942779541
204.9499969482422 298.7300109863281 6.070000171661377
204.1699981689453 298.5299987792969 5.75
207.8600006103516 298.7799987792969 5.5
207.2899932861328 298.6400146484375 5.630000114440918
206.1300048828125 298.3599853515625 6.03000020980835
205.4499969482422 298.1900024414062 6.03000020980835
204.6600036621094 297.989990234375 5.71999979019165
207.8000030517578 297.9800109863281 5.400000095367432
207.1699981689453 297.8299865722656 5.650000095367432
206.5399932861328 297.6700134277344 5.75
207.3999938964844 298.010009765625 5.590000152587891
207.5599975585938 298.6799926757812 5.570000171661377
207.7299957275391 299.3299865722656 5.489999771118164
207.0700073242188 299.25 5.590000152587891
205.6300048828125 298.3399963378906 6.050000190734863
205.8000030517578 299.0199890136719 6.119999885559082
205.9299926757812 299.510009765625 5.760000228881836
205 298.7099914550781 5.980000019073486
205.1699981689453 299.3800048828125 5.989999771118164
204.2599945068359 298.5400085449219 5.710000038146973
204.5700073242188 299.760009765625 5.510000228881836
203.9499969482422 299.5700073242188 5.550000190734863
207.9400024414062 299.2000122070312 5.179999828338623
207.8099975585938 298.6499938964844 5.53000020980835
207.6699981689453 298.0899963378906 5.510000228881836
207.3699951171875 299.239990234375 5.579999923706055
207.2400054931641 298.7000122070312 5.610000133514404
207.0800018310547 298.0899963378906 5.599999904632568
206.6999969482422 299.260009765625 5.690000057220459
206.0800018310547 299.25 5.980000019073486
205.9400024414062 298.6799926757812 6.039999961853027
205.7899932861328 298.1000061035156 6.019999980926514
205.6499938964844 299.7099914550781 5.869999885559082
205.5200042724609 299.2000122070312 6.050000190734863
205.3699951171875 298.5899963378906 6.059999942779541
205.2200012207031 298 5.980000019073486
204.8800048828125 299.1700134277344 5.960000038146973
204.1799926757812 299.1199951171875 5.769999980926514
204.0299987792969 298.5299987792969 5.75
203.6600036621094 298.8200073242188 5.059999942779541
204.1300048828125 297.9400024414062 5.599999904632568
204.25 298.4599914550781 5.769999980926514
204.3899993896484 299.0299987792969 5.78000020980835
204.8800048828125 298.1000061035156 5.909999847412109
205.0099945068359 298.6199951171875 6
205.1600036621094 299.239990234375 6.019999980926514
205.4900054931641 297.9200134277344 5.940000057220459
205.6300048828125 298.4599914550781 6.059999942779541
205.7700042724609 299.0199890136719 6.070000171661377
206.1399993896484 298.1499938964844 5.989999771118164
206.2799987792969 298.7200012207031 6.059999942779541
206.7899932861328 298.0199890136719 5.630000114440918
206.9199981689453 298.5700073242188 5.639999866485596
207.0599975585938 299.1400146484375 5.619999885559082
207.6000061035156 298.2799987792969 5.539999961853027
207.7299957275391 298.8200073242188 5.53000020980835
204.0899963378906 298.9200134277344 5.769999980926514
203.9299926757812 298.25 5.699999809265137
204.8899993896484 299.0299987792969 6.070000171661377
204.7299957275391 298.3800048828125 5.940000057220459
204.6000061035156 297.8699951171875 5.579999923706055
205.6000061035156 299.0899963378906 6.019999980926514
205.4199981689453 298.3500061035156 6.050000190734863
206.1100006103516 298.6900024414062 6.090000152587891
205.9299926757812 298 6.010000228881836
207.6300048828125 298.6300048828125 5.579999923706055
207.4600067138672 297.9500122070312 5.460000038146973
207.7700042724609 299.3099975585938 5.329999923706055
207.1399993896484 299.010009765625 5.630000114440918
207.3099975585938 298.3500061035156 5.559999942779541
206.4100036621094 299.510009765625 5.800000190734863
206.8000030517578 298.0299987792969 5.510000228881836
205.9199981689453 299.239990234375 6.050000190734863
206.0899963378906 298.5599975585938 6.03000020980835
205.2299957275391 299.4700012207031 5.940000057220459
205.3899993896484 298.8399963378906 6.070000171661377
205.5599975585938 298.1499938964844 6.03000020980835
204.4700012207031 299.5499877929688 5.679999828338623
204.7799987792969 298.2799987792969 5.900000095367432
203.9400024414062 299.1900024414062 5.730000019073486
204.0899963378906 298.5799865722656 5.769999980926514
204.1100006103516 298.3200073242188 5.769999980926514
203.9600067138672 298.8900146484375 5.730000019073486
204.8300018310547 298.010009765625 5.829999923706055
204.6799926757812 298.6199951171875 5.96999979019165
204.5500030517578 299.1499938964844 5.889999866485596
205.3699951171875 298.1600036621094 6.039999961853027
205.2200012207031 298.7300109863281 6.039999961853027
205.0700073242188 299.3099975585938 5.980000019073486
205.8500061035156 298.3999938964844 6.070000171661377
205.6999969482422 298.9800109863281 6.070000171661377
205.5700073242188 299.5 5.929999828338623
206.2599945068359 299.1600036621094 5.949999809265137
207.1999969482422 298.0899963378906 5.579999923706055
207.0599975585938 298.6700134277344 5.619999885559082
206.9199981689453 299.2200012207031 5.630000114440918
207.7899932861328 298.0199890136719 5.329999923706055
207.6399993896484 298.6600036621094 5.519999980926514
207.4900054931641 299.2699890136719 5.570000171661377
203.8300018310547 299.25 5.400000095367432
203.9700012207031 298.6000061035156 5.769999980926514
204.1199951171875 298.0400085449219 5.699999809265137
204.5 299.4299926757812 5.659999847412109
204.7899932861328 298.239990234375 5.880000114440918
205.2100067138672 299.1099853515625 6.039999961853027
205.3600006103516 298.5 6.03000020980835
205.4900054931641 297.9800109863281 5.960000038146973
205.7700042724609 299.2699890136719 6.039999961853027
205.9100036621094 298.7000122070312 6.059999942779541
206.0599975585938 298.1300048828125 6.010000228881836
206.3899993896484 299.5700073242188 5.75
206.8300018310547 297.8699951171875 5.559999942779541
207.2400054931641 299.3099975585938 5.610000133514404
207.3699951171875 298.7699890136719 5.590000152587891
207.5299987792969 298.1700134277344 5.53000020980835
207.9400024414062 299.2000122070312 5.159999847412109
204.3000030517578 298.239990234375 5.78000020980835
204.1199951171875 298.9700012207031 5.739999771118164
205.0299987792969 297.9599914550781 5.789999961853027
204.8800048828125 298.5599975585938 5.960000038146973
205.6999969482422 298.2200012207031 6.03000020980835
205.5299987792969 298.9100036621094 6.050000190734863
206.4100036621094 297.9100036621094 5.860000133514404
206.2700042724609 298.4800109863281 6.010000228881836
206.0899963378906 299.2200012207031 6
207.0399932861328 297.739990234375 5.449999809265137
207.6300048828125 298.1400146484375 5.510000228881836
207.4700012207031 298.7799987792969 5.590000152587891
207.3200073242188 299.4200134277344 5.690000057220459
