387.1799926757812 326.8399963378906 4.539999961853027
387.7699890136719 326.6900024414062 4.480000019073486
384.8299865722656 326.6600036621094 4.550000190734863
385.3500061035156 326.5299987792969 4.96999979019165
385.9700012207031 326.3699951171875 5.050000190734863
386.6000061035156 326.2200012207031 5.059999942779541
387.3900146484375 326.0299987792969 4.5
387.9500122070312 325.8900146484375 4.539999961853027
384.4599914550781 326.0700073242188 4.269999980926514
384.9500122070312 325.9400024414062 4.869999885559082
385.489990234375 325.7999877929688 5.010000228881836
386.1400146484375 325.6400146484375 5.059999942779541
386.739990234375 325.489990234375 4.96999979019165
387.4700012207031 325.3099975585938 4.590000152587891
384.6499938964844 325.4299926757812 4.309999942779541
385.2000122070312 325.2900085449219 4.610000133514404
385.8599853515625 325.1199951171875 4.550000190734863
388.5400085449219 326.2000122070312 4.389999866485596
387.9800109863281 326.3399963378906 4.510000228881836
387.4500122070312 326.4700012207031 4.559999942779541
386.8200073242188 326.6400146484375 4.900000095367432
386.2900085449219 326.7699890136719 4.739999771118164
388.1799926757812 325.6900024414062 4.480000019073486
387.5700073242188 325.8399963378906 4.559999942779541
387.0400085449219 325.9800109863281 4.980000019073486
386.4200134277344 326.1400146484375 5.039999961853027
385.8500061035156 326.2799987792969 5.039999961853027
385.239990234375 326.4299926757812 4.96999979019165
384.7200012207031 326.5599975585938 4.519999980926514
387.8200073242188 325.1300048828125 4.539999961853027
387.260009765625 325.2699890136719 4.559999942779541
386.6600036621094 325.4200134277344 4.960000038146973
386.1199951171875 325.5599975585938 5.019999980926514
385.5299987792969 325.7000122070312 4.989999771118164
384.9800109863281 325.8399963378906 4.920000076293945
384.4299926757812 325.9700012207031 4.150000095367432
385.0299987792969 325.1199951171875 4.539999961853027
386.6700134277344 326.7000122070312 4.960000038146973
387.2300109863281 326.5599975585938 4.650000095367432
387.7999877929688 326.4200134277344 4.539999961853027
388.3800048828125 326.2799987792969 4.380000114440918
384.5700073242188 326.5199890136719 4.670000076293945
385.239990234375 326.3399963378906 4.96999979019165
385.8900146484375 326.1799926757812 5.019999980926514
386.5299987792969 326.0199890136719 5.050000190734863
387.0599975585938 325.8900146484375 4.809999942779541
387.6300048828125 325.75 4.570000171661377
388.2300109863281 325.6000061035156 4.420000076293945
385.1400146484375 325.7699890136719 5.019999980926514
385.7300109863281 325.6199951171875 5
386.2999877929688 325.4800109863281 4.989999771118164
386.8399963378906 325.3399963378906 4.730000019073486
387.3999938964844 325.2000122070312 4.559999942779541
384.6799926757812 325.2000122070312 4.53000020980835
385.260009765625 325.0499877929688 4.559999942779541
388.1799926757812 326.6400146484375 4.440000057220459
387.5199890136719 326.8099975585938 4.570000171661377
388.260009765625 325.4200134277344 4.369999885559082
387.6700134277344 325.5700073242188 4.570000171661377
387.0700073242188 325.7300109863281 4.820000171661377
386.5 325.8699951171875 5.050000190734863
385.6900024414062 326.0799865722656 5.039999961853027
384.8500061035156 326.2900085449219 4.769999980926514
388.5 326.0199890136719 4.119999885559082
387.9800109863281 326.1600036621094 4.539999961853027
387.25 326.3500061035156 4.670000076293945
386.739990234375 326.4800109863281 5.010000228881836
385.9500122070312 326.6799926757812 5.03000020980835
386.5799865722656 325.1199951171875 4.5
385.9200134277344 325.2900085449219 4.739999771118164
385.2799987792969 325.4500122070312 4.869999885559082
387.8599853515625 325.1799926757812 4.480000019073486
388.1799926757812 325.8800048828125 4.5
387.5400085449219 325.7200012207031 4.550000190734863
386.7900085449219 325.5400085449219 4.96999979019165
386.1199951171875 325.3699951171875 4.989999771118164
385.6099853515625 325.239990234375 4.619999885559082
385.010009765625 325.0899963378906 4.550000190734863
387.8699951171875 326.4400024414062 4.53000020980835
386.4800109863281 326.1000061035156 5.019999980926514
385.7999877929688 325.9299926757812 5.039999961853027
385.239990234375 325.7900085449219 4.96999979019165
384.7300109863281 325.6499938964844 4.639999866485596
386.8699951171875 326.9200134277344 4.639999866485596
386.1900024414062 326.760009765625 4.809999942779541
385.489990234375 326.5799865722656 4.980000019073486
384.9800109863281 326.4500122070312 4.730000019073486
384.5 326.3200073242188 4.239999771118164
384.6300048828125 326.7999877929688 4.559999942779541
384.7999877929688 326.2900085449219 4.619999885559082
385.3599853515625 326.4299926757812 4.980000019073486
385.9700012207031 326.5799865722656 5
386.5 326.7099914550781 4.880000114440918
387.1300048828125 326.8699951171875 4.619999885559082
384.6199951171875 325.6099853515625 4.360000133514404
385.1799926757812 325.75 4.980000019073486
385.7099914550781 325.8800048828125 5.019999980926514
386.2799987792969 326.0199890136719 5.059999942779541
386.8500061035156 326.1600036621094 4.989999771118164
387.4299926757812 326.3099975585938 4.599999904632568
388.010009765625 326.4599914550781 4.5
386.1199951171875 325.2099914550781 4.570000171661377
386.6900024414062 325.3500061035156 4.889999866485596
387.2699890136719 325.5 4.570000171661377
387.8800048828125 325.6499938964844 4.539999961853027
388.4500122070312 325.7999877929688 4.159999847412109
388.0599975585938 325.2000122070312 4.5
388.5599975585938 325.9299926757812 3.779999971389771
388.1099853515625 325.8200073242188 4.510000228881836
387.510009765625 325.6700134277344 4.579999923706055
386.9400024414062 325.5400085449219 4.78000020980835
386.4299926757812 325.4100036621094 4.96999979019165
385.7200012207031 325.2300109863281 4.570000171661377
385.1400146484375 325.0899963378906 4.570000171661377
386.6300048828125 326.1300048828125 5.03000020980835
385.9800109863281 325.9700012207031 5.039999961853027
385.3399963378906 325.8099975585938 4.980000019073486
384.6300048828125 325.6300048828125 4.590000152587891
388.260009765625 326.5299987792969 4.389999866485596
387.7000122070312 326.3900146484375 4.590000152587891
387.1099853515625 326.25 4.690000057220459
387.1000061035156 327 4.639999866485596
386.5 326.8500061035156 4.599999904632568
386.010009765625 326.739990234375 4.920000076293945
385.3999938964844 326.5899963378906 4.960000038146973
384.7200012207031 326.4100036621094 4.579999923706055
385.260009765625 325.9800109863281 4.989999771118164
386.010009765625 326.1700134277344 5.010000228881836
386.75 326.3500061035156 5
387.3599853515625 326.5 4.739999771118164
387.9299926757812 326.6499938964844 4.489999771118164
385.5199890136719 326.7799987792969 4.739999771118164
387.0899963378906 325.239990234375 4.610000133514404
387.7999877929688 325.4200134277344 4.539999961853027
388.4100036621094 325.5700073242188 4.28000020980835
385.5 325.3999938964844 4.880000114440918
386.3399963378906 325.6099853515625 5.019999980926514
387.010009765625 325.7699890136719 4.829999923706055
387.6400146484375 325.9299926757812 4.630000114440918
388.260009765625 326.0899963378906 4.46999979019165
388.6099853515625 326.1799926757812 3.809999942779541
388.260009765625 325.9100036621094 4.440000057220459
388.4200134277344 326.5400085449219 4.320000171661377
387.5899963378906 325.6799926757812 4.590000152587891
387.739990234375 326.2999877929688 4.550000190734863
386.3299865722656 325.9100036621094 4.889999866485596
385.0899963378906 325.7300109863281 4.559999942779541
384.5599975585938 326.510009765625 4.150000095367432
385.260009765625 327.0599975585938 4.949999809265137
385.1099853515625 326.4599914550781 4.989999771118164
385.8699951171875 326.8299865722656 5
385.7200012207031 326.2200012207031 5.03000020980835
385.5799865722656 325.6700134277344 4.920000076293945
386.6799926757812 327.2300109863281 4.940000057220459
386.5299987792969 326.6199951171875 5.019999980926514
386.3999938964844 326.0899963378906 5.039999961853027
387.25 326.8200073242188 4.630000114440918
387.8900146484375 327.2300109863281 4.369999885559082
387.75 326.6499938964844 4.53000020980835
387.6099853515625 326.0899963378906 4.559999942779541
387.4800109863281 325.5499877929688 4.579999923706055
388.4700012207031 327 4.369999885559082
388.3200073242188 326.3900146484375 4.449999809265137
388.1799926757812 325.8599853515625 4.460000038146973
388.0400085449219 325.2799987792969 4.53000020980835
387.7799987792969 325.25 4.489999771118164
387.9299926757812 325.8299865722656 4.510000228881836
388.0700073242188 326.4299926757812 4.5
388.2300109863281 327.0400085449219 4.449999809265137
387.2000122070312 325.75 4.619999885559082
387.3500061035156 326.3200073242188 4.420000076293945
387.4800109863281 326.8699951171875 4.579999923706055
386.4800109863281 325.6000061035156 4.75
386.6000061035156 326.0899963378906 5.070000171661377
386.760009765625 326.7099914550781 5.03000020980835
385.8900146484375 325.4800109863281 4.800000190734863
386.0199890136719 326.0299987792969 5.039999961853027
386.1499938964844 326.5700073242188 5.059999942779541
386.3099975585938 327.1900024414062 4.800000190734863
385.0499877929688 324.760009765625 4.519999980926514
385.2000122070312 325.3699951171875 4.5
385.3200073242188 325.8800048828125 4.929999828338623
385.4500122070312 326.4200134277344 5.010000228881836
385.6000061035156 327.0400085449219 4.929999828338623
384.4700012207031 325.2900085449219 4.480000019073486
384.6300048828125 325.9400024414062 4.400000095367432
384.75 326.4500122070312 4.619999885559082
384.8999938964844 327.0299987792969 4.559999942779541
384.489990234375 326.7000122070312 4.25
385.1900024414062 326.5899963378906 5
385.0400085449219 325.9800109863281 4.809999942779541
384.9200134277344 325.489990234375 4.46999979019165
385.9200134277344 326.8299865722656 5.019999980926514
385.75 326.1600036621094 5.03000020980835
385.5899963378906 325.5299987792969 4.820000171661377
386.3800048828125 326.4200134277344 5.070000171661377
386.2300109863281 325.8200073242188 5.019999980926514
386.1099853515625 325.3399963378906 4.53000020980835
386.8699951171875 325.5899963378906 4.650000095367432
387.7000122070312 325.9299926757812 4.550000190734863
387.5700073242188 325.4100036621094 4.21999979019165
388.0400085449219 327.2699890136719 4.510000228881836
387.8800048828125 326.6199951171875 4.440000057220459
388.4599914550781 326.1600036621094 4.46999979019165
388.2999877929688 325.5499877929688 4.269999980926514
388.1900024414062 326.3999938964844 4.420000076293945
388.3599853515625 325.7000122070312 4.480000019073486
387.5799865722656 325.8599853515625 4.539999961853027
386.3699951171875 325.6799926757812 4.900000095367432
385.0299987792969 325.739990234375 4.619999885559082
384.7000122070312 326.0599975585938 4.269999980926514
384.5499877929688 326.6300048828125 4.190000057220459
385.4599914550781 325.7900085449219 4.960000038146973
385.2999877929688 326.4100036621094 4.980000019073486
384.8299865722656 325.5499877929688 4.519999980926514
386.1000061035156 325.489990234375 4.679999828338623
385.9599914550781 326.1000061035156 5.03000020980835
385.8299865722656 326.6400146484375 5.019999980926514
386.6799926757812 325.8399963378906 5.019999980926514
386.5400085449219 326.4200134277344 5.039999961853027
386.3800048828125 327.0400085449219 4.989999771118164
387.4800109863281 325.6400146484375 4.550000190734863
387.2000122070312 326.7799987792969 4.650000095367432
388.239990234375 325.3399963378906 4.489999771118164
388.1099853515625 325.8599853515625 4.449999809265137
387.9599914550781 326.5 4.53000020980835
387.8099975585938 327.0799865722656 4.489999771118164
388.6199951171875 326.1400146484375 3.710000038146973
388.5 326.7999877929688 4.360000133514404
388.0799865722656 327 4.429999828338623
388.2099914550781 326.4500122070312 4.510000228881836
388.3599853515625 325.8999938964844 4.360000133514404
387.5700073242188 326.7000122070312 4.550000190734863
387.7300109863281 326.1000061035156 4.570000171661377
387.8699951171875 325.5499877929688 4.420000076293945
386.8900146484375 326.7300109863281 4.989999771118164
387.1700134277344 325.6700134277344 4.599999904632568
386.0700073242188 326.9200134277344 4.980000019073486
386.2200012207031 326.3200073242188 5.070000171661377
386.3699951171875 325.7099914550781 4.989999771118164
385.3599853515625 327.1400146484375 4.650000095367432
385.5 326.510009765625 5.010000228881836
385.6400146484375 325.9599914550781 4.96999979019165
385.7799987792969 325.4599914550781 4.579999923706055
384.8399963378906 326.9400024414062 4.550000190734863
385 326.25 4.949999809265137
385.1499938964844 325.7200012207031 4.579999923706055
385.2900085449219 325.1600036621094 4.510000228881836
384.4700012207031 325.9700012207031 4.25
384.6199951171875 325.3500061035156 4.519999980926514
385.8399963378906 325.5700073242188 4.590000152587891
385.7099914550781 326.1199951171875 5.010000228881836
385.5499877929688 326.7799987792969 4.960000038146973
385.25 325.75 4.809999942779541
385.1099853515625 326.3399963378906 4.909999847412109
386.510009765625 325.3599853515625 4.420000076293945
386.4100036621094 325.7900085449219 5.010000228881836
386.25 326.4700012207031 5.03000020980835
387.1799926757812 325.760009765625 4.760000228881836
387.8999938964844 325.5 4.449999809265137
387.7300109863281 326.1900024414062 4.550000190734863
387.5799865722656 326.8099975585938 4.559999942779541
388.3500061035156 325.9500122070312 4.409999847412109
388.1700134277344 326.6700134277344 4.449999809265137
