291.3699951171875 309.8299865722656 5.489999771118164
290.7099914550781 309.989990234375 5.440000057220459
290.1099853515625 310.1400146484375 5.139999866485596
291.5299987792969 309.1799926757812 5.829999923706055
290.8099975585938 309.3599853515625 5.710000038146973
290.25 309.5 5.480000019073486
291.1199951171875 308.6199951171875 5.760000228881836
290.4700012207031 308.7799987792969 5.679999828338623
290 308.8900146484375 5.110000133514404
291.5299987792969 307.8099975585938 5.489999771118164
290.6900024414062 308.0199890136719 5.699999809265137
290.0799865722656 308.1700134277344 5.480000019073486
291.2000122070312 307.2200012207031 5.170000076293945
290.4100036621094 307.4200134277344 5.340000152587891
289.9500122070312 307.5299987792969 4.789999961853027
291.5599975585938 306.5400085449219 5.170000076293945
290.8099975585938 306.7300109863281 5.099999904632568
290.1499938964844 306.8900146484375 5.050000190734863
291.2000122070312 305.9299926757812 4.989999771118164
290.5599975585938 306.0799865722656 4.880000114440918
290.7900085449219 310.3500061035156 5.28000020980835
291.3800048828125 310.1900024414062 5.460000038146973
290.3500061035156 309.75 5.369999885559082
290.8999938964844 309.6000061035156 5.599999904632568
291.5199890136719 309.4500122070312 5.519999980926514
290.0400085449219 309.1700134277344 5.179999828338623
290.5299987792969 309.0400085449219 5.670000076293945
291.1600036621094 308.8800048828125 5.760000228881836
291.8399963378906 308.7200012207031 5.400000095367432
290.239990234375 308.5599975585938 5.349999904632568
290.75 308.4299926757812 5.710000038146973
291.3599853515625 308.2799987792969 5.730000019073486
290.3900146484375 307.8299865722656 5.539999961853027
290.9800109863281 307.6900024414062 5.610000133514404
291.7000122070312 307.510009765625 5.210000038146973
290.1099853515625 307.1600036621094 4.980000019073486
290.6300048828125 307.0299987792969 5.099999904632568
291.260009765625 306.8699951171875 5.179999828338623
291.8200073242188 306.7300109863281 5.179999828338623
290.3500061035156 306.4299926757812 4.96999979019165
290.9500122070312 306.2699890136719 5.019999980926514
291.5700073242188 306.1199951171875 5.059999942779541
291.6099853515625 310.1700134277344 5.320000171661377
291.0400085449219 310.3099975585938 5.329999923706055
290.4599914550781 310.4500122070312 5.21999979019165
291.8200073242188 309.4100036621094 5.309999942779541
291.260009765625 309.5499877929688 5.579999923706055
290.6600036621094 309.7000122070312 5.460000038146973
290.0499877929688 309.8500061035156 5.340000152587891
292.0700073242188 308.6000061035156 5.400000095367432
291.4800109863281 308.75 5.619999885559082
290.9700012207031 308.8800048828125 5.71999979019165
290.3299865722656 309.0400085449219 5.630000114440918
291.6400146484375 308.0400085449219 5.210000038146973
291.0799865722656 308.1799926757812 5.730000019073486
290.4800109863281 308.3299865722656 5.690000057220459
292.010009765625 307.3900146484375 5.230000019073486
291.4500122070312 307.5299987792969 5.5
290.8900146484375 307.6700134277344 5.599999904632568
290.3099975585938 307.8200073242188 5.519999980926514
291.739990234375 306.8399963378906 5.019999980926514
291.1400146484375 306.989990234375 5.159999847412109
290.5599975585938 307.1300048828125 5.079999923706055
289.9500122070312 307.2799987792969 5.139999866485596
291.3999938964844 306.260009765625 5.019999980926514
290.8699951171875 306.3900146484375 5.039999961853027
290.239990234375 306.5400085449219 4.960000038146973
290.4500122070312 310.4400024414062 5.440000057220459
291.0799865722656 310.2799987792969 5.369999885559082
291.6900024414062 310.1300048828125 5.369999885559082
290.2799987792969 309.8399963378906 5.420000076293945
290.8999938964844 309.6799926757812 5.5
291.5400085449219 309.5199890136719 5.53000020980835
291.9800109863281 309.4200134277344 4.929999828338623
290.7000122070312 309.1300048828125 5.659999847412109
291.3699951171875 308.9599914550781 5.710000038146973
291.8200073242188 308.8599853515625 5.230000019073486
290.3699951171875 308.510009765625 5.760000228881836
290.9800109863281 308.3599853515625 5.710000038146973
291.5400085449219 308.2200012207031 5.639999866485596
290.5700073242188 307.6900024414062 5.539999961853027
291.2200012207031 307.5299987792969 5.519999980926514
291.739990234375 307.3999938964844 5.230000019073486
290.239990234375 307.1000061035156 5.110000133514404
290.8599853515625 306.9500122070312 5.139999866485596
291.4800109863281 306.7900085449219 5.150000095367432
291.9299926757812 306.6799926757812 4.599999904632568
290.0299987792969 306.5700073242188 5.210000038146973
290.6000061035156 306.4299926757812 5
291.2799987792969 306.260009765625 4.989999771118164
291.75 306.1499938964844 4.610000133514404
289.8399963378906 309.6700134277344 5.03000020980835
290.4299926757812 309.8099975585938 5.389999866485596
291.1499938964844 309.9800109863281 5.449999809265137
290.2300109863281 309.0499877929688 5.590000152587891
290.8699951171875 309.2099914550781 5.71999979019165
291.6499938964844 309.3999938964844 5.630000114440918
290.1499938964844 308.3999938964844 5.559999942779541
290.8299865722656 308.5599975585938 5.71999979019165
290.0199890136719 307.6199951171875 4.579999923706055
290.260009765625 307.6700134277344 5.5
290.9200134277344 307.8299865722656 5.690000057220459
291.6300048828125 308 5.690000057220459
290.4800109863281 306.8699951171875 5.130000114440918
291.1400146484375 307.0199890136719 5.199999809265137
291.760009765625 307.1700134277344 5.46999979019165
290.5 306.1300048828125 4.949999809265137
291.1600036621094 306.2900085449219 5.070000171661377
291.3200073242188 306.489990234375 5.090000152587891
290.7200012207031 306.3399963378906 5.019999980926514
290.1700134277344 306.2000122070312 4.679999828338623
291.6400146484375 307.1900024414062 5.239999771118164
291.0299987792969 307.0400085449219 5.139999866485596
290.4800109863281 306.8999938964844 5.110000133514404
289.8699951171875 306.739990234375 4.960000038146973
291.8200073242188 307.8900146484375 5.369999885559082
291.2000122070312 307.739990234375 5.650000095367432
290.5799865722656 307.5799865722656 5.539999961853027
290.0599975585938 307.4400024414062 5.090000152587891
291.5 308.5599975585938 5.579999923706055
290.8599853515625 308.3999938964844 5.710000038146973
290.2900085449219 308.260009765625 5.639999866485596
291.8500061035156 309.3200073242188 5.389999866485596
291.1700134277344 309.1600036621094 5.730000019073486
290.5700073242188 309.010009765625 5.679999828338623
290.0700073242188 308.8800048828125 5.119999885559082
291.5899963378906 309.8500061035156 5.46999979019165
290.9599914550781 309.7000122070312 5.570000171661377
290.3900146484375 309.5499877929688 5.460000038146973
291.3399963378906 310.3800048828125 5.260000228881836
290.6700134277344 310.2200012207031 5.389999866485596
290.0899963378906 310.0700073242188 5.239999771118164
290.4800109863281 309.989990234375 5.409999847412109
291.010009765625 310.1300048828125 5.429999828338623
291.5700073242188 310.2699890136719 5.130000114440918
290.2999877929688 309.1499938964844 5.599999904632568
290.8900146484375 309.2999877929688 5.699999809265137
291.4800109863281 309.4500122070312 5.519999980926514
290.7099914550781 308.5299987792969 5.699999809265137
291.2900085449219 308.6799926757812 5.730000019073486
291.7799987792969 308.8099975585938 5.070000171661377
290.1499938964844 308.3999938964844 5.320000171661377
290.4500122070312 307.8099975585938 5.599999904632568
291.0499877929688 307.9599914550781 5.710000038146973
291.6300048828125 308.1099853515625 5.269999980926514
290.2699890136719 307.1000061035156 5.070000171661377
290.8500061035156 307.239990234375 5.25
291.3900146484375 307.3699951171875 5.389999866485596
290.510009765625 306.3999938964844 5.019999980926514
291.1400146484375 306.5599975585938 5.139999866485596
291.7099914550781 306.7000122070312 5.039999961853027
290.8299865722656 305.8399963378906 4.900000095367432
291.3999938964844 305.989990234375 4.75
291.8900146484375 306.6499938964844 4.860000133514404
291.3200073242188 306.510009765625 5.070000171661377
290.5899963378906 306.3299865722656 4.960000038146973
291.3800048828125 310.5199890136719 5.090000152587891
290.7999877929688 310.3800048828125 5.179999828338623
290.2200012207031 310.239990234375 5.409999847412109
291.8200073242188 309.9400024414062 5.170000076293945
291.2999877929688 309.8200073242188 5.510000228881836
290.7099914550781 309.6700134277344 5.489999771118164
291.8200073242188 309.3099975585938 5.25
291.3800048828125 309.2000122070312 5.690000057220459
290.6700134277344 309.0299987792969 5.670000076293945
291.6700134277344 308.6000061035156 5.300000190734863
291.2000122070312 308.489990234375 5.739999771118164
290.5499877929688 308.3299865722656 5.679999828338623
291.6900024414062 307.8500061035156 5.210000038146973
291.1400146484375 307.7200012207031 5.599999904632568
290.3999938964844 307.5400085449219 5.340000152587891
291.4800109863281 307.1600036621094 5.239999771118164
290.8500061035156 307 5.119999885559082
290.2000122070312 306.8399963378906 5.070000171661377
