53.63000106811523 463.8599853515625 13.6899995803833
54.54000091552734 462.8900146484375 13.85000038146973
53.97999954223633 463.0299987792969 13.61999988555908
53.31999969482422 463.2000122070312 13.68000030517578
52.77000045776367 463.3299865722656 13.59000015258789
52.2400016784668 462.7699890136719 13.57999992370605
54.08000183105469 462.3099975585938 13.6899995803833
53.41999816894531 462.4700012207031 13.6899995803833
52.81000137329102 462.6199951171875 13.71000003814697
53.70999908447266 461.7699890136719 13.76000022888184
52.9900016784668 461.9599914550781 14.15999984741211
52.36000061035156 462.1099853515625 14.11999988555908
51.88999938964844 462.2300109863281 13.64000034332275
53.20999908447266 461.2300109863281 13.9399995803833
52.52000045776367 461.4100036621094 14.1899995803833
51.90999984741211 461.5599975585938 14.15999984741211
51.43999862670898 461.6700134277344 13.69999980926514
52.84000015258789 460.6499938964844 14.11999988555908
52.25 460.7999877929688 14.14999961853027
51.56999969482422 460.9700012207031 14.13000011444092
51.06000137329102 461.0899963378906 13.72999954223633
52.47000122070312 460.1199951171875 13.9399995803833
51.83000183105469 460.2799987792969 14.02999973297119
51.2400016784668 460.4299926757812 13.93000030517578
50.68999862670898 460.5599975585938 13.73999977111816
51.70000076293945 459.75 13.80000019073486
51.02999877929688 459.9200134277344 13.77000045776367
50.52999877929688 460.0400085449219 13.5
51.09000015258789 459.5599975585938 13.56999969482422
51.63000106811523 459.4200134277344 13.63000011444092
50.38999938964844 460.3099975585938 13.71000003814697
50.95999908447266 460.1700134277344 13.80000019073486
51.52999877929688 460.0199890136719 13.81999969482422
52.04999923706055 459.8900146484375 13.82999992370605
50.75 460.8999938964844 13.6899995803833
51.29999923706055 460.75 14.02000045776367
51.81999969482422 460.6199951171875 14.10999965667725
52.41999816894531 460.4800109863281 14.09000015258789
51.22000122070312 461.5 13.69999980926514
51.7599983215332 461.3599853515625 14.14999961853027
52.27999877929688 461.2300109863281 14.19999980926514
52.84999847412109 461.0799865722656 14.15999984741211
53.40000152587891 460.9500122070312 13.69999980926514
51.68999862670898 462.0400085449219 13.72999954223633
52.20000076293945 461.8999938964844 14.15999984741211
52.79999923706055 461.75 14.11999988555908
53.40000152587891 461.6099853515625 13.97000026702881
53.95000076293945 461.4700012207031 13.77000045776367
52.15999984741211 462.4800109863281 13.61999988555908
52.70999908447266 462.3399963378906 13.76000022888184
53.2400016784668 462.2099914550781 13.68000030517578
53.81000137329102 462.0700073242188 13.6899995803833
52.56000137329102 463.0400085449219 13.6899995803833
53.13000106811523 462.8999938964844 13.69999980926514
53.7400016784668 462.75 13.68000030517578
54.27999877929688 462.6199951171875 13.60000038146973
53.06000137329102 463.6600036621094 13.63000011444092
53.59000015258789 463.5199890136719 13.60999965667725
54.15000152587891 463.3900146484375 13.63000011444092
53.88000106811523 463.2900085449219 13.59000015258789
53.33000183105469 463.4299926757812 13.63000011444092
54.31999969482422 462.5899963378906 13.5600004196167
53.75 462.739990234375 13.6899995803833
53.11999893188477 462.8999938964844 13.72999954223633
52.56999969482422 463.0400085449219 13.75
54.04999923706055 462 13.55000019073486
53.52999877929688 462.1300048828125 13.76000022888184
52.93999862670898 462.2799987792969 13.73999977111816
52.34999847412109 462.4400024414062 13.85000038146973
53.81000137329102 461.3399963378906 13.69999980926514
53.27999877929688 461.4800109863281 14.01000022888184
52.70999908447266 461.6199951171875 14.15999984741211
52.11000061035156 461.7799987792969 14.15999984741211
52.95999908447266 460.8800048828125 13.89999961853027
52.36999893188477 461.0299987792969 14.18000030517578
51.81000137329102 461.1700134277344 14.18000030517578
51.08000183105469 461.3500061035156 13.77000045776367
52.65999984741211 460.3599853515625 13.72000026702881
52.13000106811523 460.5 14.10000038146973
51.5099983215332 460.6600036621094 14.13000011444092
50.81000137329102 460.8299865722656 13.80000019073486
52.43999862670898 459.7699890136719 13.57999992370605
51.91999816894531 459.9100036621094 13.89999961853027
51.29000091552734 460.0700073242188 13.77999973297119
50.70999908447266 460.2200012207031 13.8100004196167
51.52999877929688 459.3200073242188 13.53999996185303
50.95999908447266 459.4700012207031 13.80000019073486
51.40999984741211 459.5400085449219 13.76000022888184
51.97000122070312 459.3999938964844 13.39000034332275
51.09999847412109 460.2300109863281 13.78999996185303
51.91999816894531 460.0199890136719 13.97000026702881
52.45999908447266 459.8900146484375 13.48999977111816
51.52000045776367 460.6600036621094 14.09000015258789
52.27000045776367 460.4700012207031 14.09000015258789
52.7599983215332 460.3500061035156 13.65999984741211
52 461.2200012207031 14.17000007629395
52.7400016784668 461.0299987792969 14.14999961853027
53.18000030517578 460.9299926757812 13.65999984741211
52.40999984741211 461.8800048828125 14.11999988555908
53.09999847412109 461.7099914550781 14.06999969482422
53.61000061035156 461.5799865722656 13.76000022888184
52.15000152587891 462.6600036621094 13.89000034332275
52.86000061035156 462.4800109863281 13.81999969482422
53.52000045776367 462.3099975585938 13.76000022888184
54.15000152587891 462.1600036621094 13.60999965667725
53.13000106811523 463 13.71000003814697
53.83000183105469 462.8299865722656 13.67000007629395
54.45999908447266 462.6700134277344 13.47000026702881
53.52000045776367 463.5599975585938 13.57999992370605
54.13000106811523 463.4100036621094 13.38000011444092
52.63000106811523 463.4599914550781 13.5600004196167
53.2599983215332 463.6199951171875 13.5600004196167
52.06000137329102 462.5499877929688 13.59000015258789
52.63000106811523 462.6900024414062 13.69999980926514
53.27999877929688 462.8500061035156 13.72000026702881
53.93999862670898 463.0199890136719 13.61999988555908
51.40999984741211 461.7200012207031 13.48999977111816
51.84999847412109 461.8200073242188 14.09000015258789
52.45999908447266 461.9700012207031 14.14000034332275
53.25 462.1799926757812 13.65999984741211
53.95000076293945 462.3500061035156 13.67000007629395
50.79000091552734 460.989990234375 13.56999969482422
51.2400016784668 461.1000061035156 14.03999996185303
51.81999969482422 461.239990234375 14.17000007629395
52.43999862670898 461.3999938964844 14.22999954223633
53.11000061035156 461.5599975585938 14.13000011444092
53.90000152587891 461.7699890136719 13.71000003814697
51.90999984741211 460.6600036621094 14.11999988555908
52.54999923706055 460.8099975585938 14.13000011444092
50.75 460.3699951171875 13.78999996185303
51.31999969482422 460.510009765625 13.98999977111816
50.93000030517578 459.6799926757812 13.55000019073486
51.47000122070312 459.8099975585938 13.81999969482422
52.11000061035156 459.9700012207031 13.85000038146973
51.56999969482422 459.1799926757812 13.51000022888184
52.13999938964844 459.7300109863281 13.72000026702881
51.58000183105469 459.5799865722656 13.72999954223633
53.29000091552734 460.7699890136719 13.78999996185303
52.70000076293945 460.6300048828125 14.07999992370605
52.09000015258789 460.4700012207031 14.07999992370605
51.56999969482422 460.3399963378906 13.92000007629395
51.02000045776367 460.2000122070312 13.80000019073486
53.40999984741211 461.5 13.84000015258789
52.84999847412109 461.3699951171875 14.14000034332275
52.25 461.2099914550781 14.15999984741211
51.70000076293945 461.0799865722656 14.14000034332275
51.18000030517578 460.9400024414062 13.92000007629395
50.61000061035156 460.7999877929688 13.64999961853027
54.06999969482422 462.2900085449219 13.67000007629395
53.5099983215332 462.1499938964844 13.72000026702881
52.90999984741211 462 14.09000015258789
52.33000183105469 461.8599853515625 14.14999961853027
51.72000122070312 461.7099914550781 14.09000015258789
51.20999908447266 461.5700073242188 13.67000007629395
54.13999938964844 462.9700012207031 13.60999965667725
53.56000137329102 462.8200073242188 13.69999980926514
52.9900016784668 462.6799926757812 13.71000003814697
52.43000030517578 462.5400085449219 13.84000015258789
53.65000152587891 463.6099853515625 13.5600004196167
53.09000015258789 463.4700012207031 13.64999961853027
52.79000091552734 463.3900146484375 13.6899995803833
53.36000061035156 463.5299987792969 13.60999965667725
53.88999938964844 463.6600036621094 13.47999954223633
52.02000045776367 462.5299987792969 13.82999992370605
52.58000183105469 462.6600036621094 13.72000026702881
53.20999908447266 462.8200073242188 13.76000022888184
53.79999923706055 462.9599914550781 13.65999984741211
51.9900016784668 461.9100036621094 14.11999988555908
52.54999923706055 462.0400085449219 14.10000038146973
53.61000061035156 462.3099975585938 13.72999954223633
54.18000030517578 462.4500122070312 13.61999988555908
51.13000106811523 461.0499877929688 13.85999965667725
51.84000015258789 461.2200012207031 14.17000007629395
52.40000152587891 461.3599853515625 14.1899995803833
52.9900016784668 461.5 14.13000011444092
53.52000045776367 461.6300048828125 13.80000019073486
54.09000015258789 461.7799987792969 13.53999996185303
50.97999954223633 460.2799987792969 13.78999996185303
51.68000030517578 460.4400024414062 14.21000003814697
52.31999969482422 460.6000061035156 14.11999988555908
52.83000183105469 460.7200012207031 13.93000030517578
53.33000183105469 460.8500061035156 13.57999992370605
51.31000137329102 459.7200012207031 13.78999996185303
51.91999816894531 459.8699951171875 13.85000038146973
52.47000122070312 460 13.60999965667725
51.88000106811523 459.3200073242188 13.64999961853027
52.75 460.1499938964844 13.52999973297119
52.20000076293945 460.0199890136719 13.80000019073486
51.41999816894531 459.8299865722656 13.77999973297119
52.9900016784668 460.9100036621094 13.68000030517578
52.47000122070312 460.7799987792969 14.15999984741211
51.77000045776367 460.6099853515625 14.1899995803833
50.83000183105469 460.3800048828125 13.8100004196167
53.86999893188477 461.9299926757812 13.61999988555908
53.33000183105469 461.7999877929688 13.94999980926514
52.77000045776367 461.6600036621094 14.19999980926514
52.02999877929688 461.4800109863281 14.15999984741211
51.16999816894531 461.2699890136719 13.92000007629395
54.18999862670898 462.7300109863281 13.63000011444092
53.5 462.5599975585938 13.76000022888184
52.15000152587891 462.2300109863281 14.05000019073486
54.20999908447266 463.3599853515625 13.47999954223633
53.61000061035156 463.2200012207031 13.65999984741211
52.93999862670898 463.0599975585938 13.73999977111816
52.29999923706055 462.8999938964844 13.82999992370605
