327.7799987792969 435.0400085449219 5.119999885559082
328.3900146484375 435.0499877929688 5.130000114440918
329.0299987792969 435.1199951171875 5.190000057220459
329.6400146484375 435.2200012207031 5.130000114440918
330.1199951171875 434.9700012207031 4.559999942779541
330.7300109863281 434.989990234375 4.409999847412109
331.4400024414062 434.9800109863281 4.789999961853027
332.1000061035156 435.0199890136719 4.909999847412109
332.6900024414062 435.1199951171875 5.090000152587891
333.3200073242188 435.0899963378906 5.010000228881836
334.2099914550781 435.75 5.199999809265137
334.0400085449219 435.2200012207031 5.070000171661377
334.739990234375 435.1900024414062 5.079999923706055
335.2799987792969 435.1199951171875 3.950000047683716
336.6000061035156 435.0700073242188 4.159999847412109
337.25 435.0400085449219 4.659999847412109
337.8099975585938 435.1600036621094 4.860000133514404
338.4299926757812 435.1700134277344 4.949999809265137
339.1000061035156 435.2300109863281 5.019999980926514
339.6400146484375 435.0599975585938 4.199999809265137
328.7699890136719 435.1400146484375 5.119999885559082
329.4299926757812 434.9800109863281 5.179999828338623
329.989990234375 434.9700012207031 5.119999885559082
330.6799926757812 434.8999938964844 5.179999828338623
331.4200134277344 434.8900146484375 5.119999885559082
332 434.260009765625 5.03000020980835
331.8699951171875 433.739990234375 5.019999980926514
332.1199951171875 434.8399963378906 5.199999809265137
332.7799987792969 434.8500061035156 5.130000114440918
333.4299926757812 434.8399963378906 5.110000133514404
334.3200073242188 435.3299865722656 5.269999980926514
337.7099914550781 435.3500061035156 4.849999904632568
338.8099975585938 434.9400024414062 4.71999979019165
328.6499938964844 435.0899963378906 5.099999904632568
329.9800109863281 435.1099853515625 4.869999885559082
330.4500122070312 435.0299987792969 5.099999904632568
331.0700073242188 435.1600036621094 4.610000133514404
331.5599975585938 434.4400024414062 5.050000190734863
331.760009765625 435.0799865722656 5.130000114440918
332.3999938964844 435.239990234375 4.760000228881836
332.9500122070312 435.1300048828125 5.059999942779541
333.5899963378906 435.2200012207031 4.920000076293945
334.2099914550781 434.9800109863281 5.179999828338623
334.8500061035156 435.1099853515625 4.929999828338623
336.010009765625 435.0400085449219 4.989999771118164
336.739990234375 435.2099914550781 4.400000095367432
337.8399963378906 435.1700134277344 4.730000019073486
339.1199951171875 435.0899963378906 4.96999979019165
339.7999877929688 435.2200012207031 4.679999828338623
338.5700073242188 435 4.860000133514404
338.010009765625 435.1400146484375 4.710000038146973
335.5700073242188 435.0700073242188 4.900000095367432
336.1700134277344 434.9299926757812 5.03000020980835
334.989990234375 435.2099914550781 4.760000228881836
334.1799926757812 435.3999938964844 5.099999904632568
332.489990234375 435.1099853515625 5.010000228881836
333.1700134277344 434.989990234375 5.110000133514404
330.5 434.9400024414062 5.159999847412109
331.8099975585938 434.6499938964844 5
331.6600036621094 434.6799926757812 3.940000057220459
329.9800109863281 435.1000061035156 5.010000228881836
331.9200134277344 434.0700073242188 4.96999979019165
328.1300048828125 435.010009765625 5.070000171661377
331.7300109863281 434.1099853515625 3.940000057220459
339.5599975585938 435.25 4.869999885559082
337.6199951171875 434.9800109863281 4.739999771118164
338.2000122070312 434.8299865722656 4.760000228881836
337.0700073242188 435.1300048828125 4.920000076293945
334.6400146484375 435.0400085449219 4.96999979019165
334.0899963378906 435.1499938964844 4.929999828338623
331.6300048828125 435.1300048828125 5.130000114440918
332.2000122070312 434.989990234375 5.130000114440918
329.1099853515625 435.0299987792969 5.190000057220459
331.8099975585938 434.3599853515625 5.050000190734863
329.6199951171875 434.8999938964844 5.130000114440918
331.4800109863281 433.7200012207031 4.980000019073486
338.260009765625 435.2200012207031 4.820000171661377
336.3299865722656 435.0799865722656 4.96999979019165
334.2099914550781 435.6199951171875 5.21999979019165
336.8599853515625 434.9500122070312 4.909999847412109
333.8500061035156 435.0199890136719 5.079999923706055
333.2999877929688 435.1400146484375 5.179999828338623
331.2799987792969 434.9100036621094 4.920000076293945
330.2099914550781 435.2000122070312 5.139999866485596
330.739990234375 435.0499877929688 5.079999923706055
328.1900024414062 434.989990234375 5.059999942779541
331.5299987792969 434.1300048828125 5.090000152587891
334.9400024414062 435.0199890136719 4.869999885559082
334.3999938964844 435.1700134277344 5.090000152587891
332.7099914550781 435.010009765625 5.019999980926514
332.1499938964844 435.1900024414062 5.079999923706055
330.2300109863281 434.9800109863281 4.900000095367432
329.6799926757812 435.0799865722656 5.059999942779541
331.7999877929688 434.5700073242188 3.980000019073486
331.6900024414062 434.6199951171875 5.010000228881836
331.8200073242188 433.8200073242188 4.400000095367432
327.8699951171875 434.8999938964844 4.690000057220459
328.4800109863281 435.0499877929688 5.130000114440918
329.1600036621094 434.9800109863281 4.03000020980835
329.8200073242188 434.9299926757812 4.75
330.5 435 4.96999979019165
331.1099853515625 435.1099853515625 5.150000095367432
331.7999877929688 434.760009765625 4.960000038146973
332.3999938964844 434.9299926757812 4.659999847412109
333.1199951171875 434.989990234375 4.960000038146973
333.6300048828125 435.1199951171875 5.03000020980835
334.1799926757812 435.1000061035156 5.110000133514404
334.760009765625 435.1600036621094 5.210000038146973
335.5 435.0199890136719 4.079999923706055
336.1000061035156 434.9800109863281 4.760000228881836
336.6900024414062 434.9800109863281 4.809999942779541
337.25 435.0199890136719 4.78000020980835
337.989990234375 434.9700012207031 4.710000038146973
338.6000061035156 435.0799865722656 4.880000114440918
339.1900024414062 435.1000061035156 4.789999961853027
327.75 434.9700012207031 5.130000114440918
328.4299926757812 434.8900146484375 5.090000152587891
329.2300109863281 434.8200073242188 5.179999828338623
331.1400146484375 435.1799926757812 5.150000095367432
331.8900146484375 435.1300048828125 5.159999847412109
332.6400146484375 434.9100036621094 5.130000114440918
333.260009765625 434.8399963378906 5.050000190734863
336.0199890136719 435.1799926757812 4.929999828338623
336.6700134277344 435.25 4.920000076293945
337.4800109863281 435.260009765625 4.769999980926514
338.1499938964844 435.2999877929688 4.710000038146973
338.7999877929688 435.2699890136719 4.71999979019165
327.8399963378906 434.9200134277344 5.139999866485596
328.989990234375 435.1199951171875 4.980000019073486
329.7000122070312 434.8599853515625 5.170000076293945
330.3999938964844 435.1199951171875 4.880000114440918
331.0199890136719 434.9100036621094 5.099999904632568
331.6400146484375 434.6400146484375 5.010000228881836
331.5499877929688 435.1300048828125 4.769999980926514
331.8299865722656 433.9800109863281 5
332.2099914550781 434.989990234375 5.090000152587891
332.9200134277344 435.260009765625 4.539999961853027
333.5400085449219 435.1600036621094 4.860000133514404
334.1799926757812 434.9500122070312 5.150000095367432
334.75 435.239990234375 4.909999847412109
335.5199890136719 435.0899963378906 5.019999980926514
336.1400146484375 435 5.039999961853027
337.4500122070312 435.1300048828125 4.550000190734863
338.2099914550781 435.0799865722656 4.849999904632568
338.9200134277344 435.0499877929688 4.940000057220459
339.5499877929688 435.0599975585938 3.910000085830688
330.1600036621094 435.0899963378906 5.110000133514404
329.6199951171875 434.9599914550781 4.909999847412109
329.0199890136719 434.7699890136719 4.929999828338623
334.2000122070312 435.3800048828125 5.03000020980835
332.4100036621094 434.9299926757812 4.940000057220459
331.7000122070312 434.739990234375 4.980000019073486
332.9500122070312 435.0400085449219 5.070000171661377
333.6199951171875 435.239990234375 5.079999923706055
331.6600036621094 433.9400024414062 4.329999923706055
336.3800048828125 435.1099853515625 4.949999809265137
335.7799987792969 434.9800109863281 4.869999885559082
339.1799926757812 435.1400146484375 4.78000020980835
339.6300048828125 435.25 5.239999771118164
338.6000061035156 434.9800109863281 4.659999847412109
338.0499877929688 434.8500061035156 4.539999961853027
328.7799987792969 435.1700134277344 5.119999885559082
328.2799987792969 435.0400085449219 5.139999866485596
333.4700012207031 435.6799926757812 5.639999866485596
330.7799987792969 434.9800109863281 5.150000095367432
331.3299865722656 435.1300048828125 5.139999866485596
330.25 434.8599853515625 5.170000076293945
334.3900146484375 435.3500061035156 5.199999809265137
333.8599853515625 435.1900024414062 5.179999828338623
332.8500061035156 434.9599914550781 5.21999979019165
331.7799987792969 434.6600036621094 5.03000020980835
333.3699951171875 435.0899963378906 5.139999866485596
336.3900146484375 435.2200012207031 4.920000076293945
335.8599853515625 435.0899963378906 4.900000095367432
335.3200073242188 434.9400024414062 4.949999809265137
339.510009765625 435.260009765625 4.829999923706055
337.9500122070312 434.8699951171875 4.739999771118164
338.4700012207031 434.989990234375 4.75
339.010009765625 435.1700134277344 4.730000019073486
327.9400024414062 435.0599975585938 5.179999828338623
330.6600036621094 435.0599975585938 5.079999923706055
330.1199951171875 434.9500122070312 5.159999847412109
331.2000122070312 435.1900024414062 5.059999942779541
331.7300109863281 434.739990234375 4.949999809265137
334.2999877929688 435.3800048828125 4.170000076293945
332.8500061035156 434.9800109863281 5.170000076293945
333.3800048828125 435.1199951171875 5.079999923706055
332.3299865722656 434.8800048828125 5.199999809265137
331.760009765625 434.0899963378906 5.039999961853027
335.7099914550781 435.0400085449219 4.940000057220459
336.2000122070312 435.1600036621094 4.900000095367432
335.1499938964844 434.9200134277344 5.050000190734863
328.3999938964844 435.1400146484375 4.960000038146973
327.8299865722656 435 5.110000133514404
331.5899963378906 435.3099975585938 4.880000114440918
330.3399963378906 434.9700012207031 5.079999923706055
330.9400024414062 435.1099853515625 5.019999980926514
334.3699951171875 435.2999877929688 3.980000019073486
334.2999877929688 435.2900085449219 5.119999885559082
331.5899963378906 434.6099853515625 5.110000133514404
333.6099853515625 435.1199951171875 5.03000020980835
331.75 434.6700134277344 4.070000171661377
331.8399963378906 433.9299926757812 4.550000190734863
