173.6100006103516 346.3299865722656 6.980000019073486
174.3000030517578 346.1799926757812 6.869999885559082
175.9400024414062 360.7999877929688 6.889999866485596
175.5800018310547 356.5700073242188 6.400000095367432
176.0800018310547 361.3900146484375 6.989999771118164
175.8899993896484 363.7900085449219 7
176.0299987792969 364.4100036621094 7.03000020980835
176.0599975585938 367.4100036621094 7.039999961853027
175.8999938964844 368.9100036621094 6.789999961853027
175.8999938964844 366.6600036621094 6.940000057220459
176.0299987792969 369.5700073242188 6.940000057220459
175.8600006103516 349.3399963378906 7
175.0500030517578 346.0899963378906 6.570000171661377
175.6900024414062 348.6700134277344 6.929999828338623
176.0800018310547 350.0400085449219 7
175.8999938964844 352.4500122070312 7.03000020980835
176.4100036621094 351.3299865722656 5.949999809265137
175.75 351.7799987792969 6.940000057220459
175.7899932861328 354.7999877929688 6.909999847412109
175.9499969482422 355.4200134277344 7.010000228881836
175.8099975585938 346.3699951171875 6.96999979019165
175.7799987792969 346.0799865722656 6.210000038146973
175.1000061035156 346.4100036621094 6.989999771118164
174.3999938964844 346.4700012207031 6.03000020980835
173.8600006103516 346.4299926757812 6.809999942779541
175.9100036621094 346.7000122070312 7.130000114440918
175.7799987792969 346.2699890136719 6.519999980926514
176.3699951171875 351.5700073242188 7.039999961853027
175.8500061035156 349.25 7.110000133514404
175.9600067138672 349.7699890136719 7.119999885559082
175.6799926757812 348.6600036621094 7.079999923706055
175.6600036621094 351.2999877929688 7.050000190734863
175.9199981689453 352.3399963378906 7.090000152587891
175.75 351.8099975585938 7.090000152587891
176.0700073242188 352.9599914550781 6.949999809265137
175.6999969482422 353.7999877929688 6.829999923706055
175.8500061035156 354.3299865722656 6.980000019073486
175.9900054931641 354.8699951171875 7.090000152587891
175.6799926757812 356.3200073242188 7.050000190734863
175.8099975585938 356.8999938964844 7.079999923706055
175.8899993896484 360.0400085449219 7.079999923706055
176.0200042724609 360.5599975585938 7.150000095367432
175.8699951171875 362.6799926757812 6.639999866485596
175.9900054931641 363.1600036621094 7.070000171661377
175.7100067138672 364.4800109863281 7.039999961853027
175.9799957275391 365.6000061035156 7.110000133514404
175.8500061035156 365.0400085449219 7.059999942779541
176.1199951171875 368.7000122070312 7.039999961853027
176.6300048828125 370.7200012207031 8.090000152587891
175.9600067138672 368.1499938964844 7.070000171661377
175.8500061035156 367.5899963378906 6.989999771118164
175.8699951171875 370.7200012207031 7.03000020980835
175.3000030517578 370.8900146484375 7.909999847412109
173.9199981689453 346.1499938964844 6.949999809265137
174.5500030517578 346.2999877929688 7.019999980926514
175.9600067138672 368.4800109863281 7.059999942779541
176.1100006103516 369.0599975585938 6.980000019073486
176.4600067138672 370.6700134277344 8.149999618530273
175.7899932861328 367.9400024414062 7.079999923706055
175.8600006103516 365.2300109863281 7
175.9900054931641 365.75 6.960000038146973
175.6999969482422 364.7099914550781 7.039999961853027
175.9400024414062 363.1400146484375 7.070000171661377
175.7899932861328 362.5899963378906 6.260000228881836
175.8000030517578 362.6000061035156 7.099999904632568
175.9700012207031 360.5 7.079999923706055
175.8899993896484 360 7.090000152587891
175.9700012207031 357.2999877929688 7.019999980926514
175.8699951171875 356.8099975585938 7.050000190734863
175.7299957275391 356.2699890136719 7.050000190734863
175.9400024414062 354.1700134277344 6.940000057220459
176.0399932861328 354.6700134277344 6.96999979019165
175.8099975585938 353.6400146484375 6.980000019073486
175.9299926757812 351.6499938964844 7.050000190734863
175.6499938964844 350.5199890136719 7.099999904632568
175.7899932861328 351.1000061035156 7.059999942779541
175.8300018310547 348.510009765625 7.050000190734863
175.6900024414062 348.0400085449219 7.090000152587891
175.3200073242188 346.3800048828125 7.039999961853027
175.5700073242188 347.4800109863281 7.079999923706055
174.8999938964844 346.510009765625 6.659999847412109
174.1999969482422 346.4100036621094 6.769999980926514
175.6300048828125 346.8500061035156 6.989999771118164
175.8999938964844 348 6.769999980926514
175.75 347.4800109863281 6.96999979019165
175.4499969482422 346.3200073242188 7.019999980926514
175.9900054931641 350.9599914550781 7.03000020980835
175.7299957275391 349.7799987792969 7.019999980926514
175.8500061035156 350.3399963378906 6.989999771118164
176.1300048828125 351.510009765625 6.929999828338623
175.8600006103516 353.1900024414062 6.960000038146973
175.5700073242188 352.0199890136719 7.059999942779541
175.75 352.5799865722656 7.03000020980835
176 353.6700134277344 6.710000038146973
175.8099975585938 355.4299926757812 7.059999942779541
175.6399993896484 354.8699951171875 6.989999771118164
175.9199981689453 355.989990234375 6.75
175.8000030517578 357.6099853515625 6.909999847412109
175.8999938964844 358.1300048828125 6.800000190734863
175.8600006103516 360.4200134277344 6.989999771118164
175.9600067138672 360.9400024414062 6.949999809265137
175.7200012207031 359.989990234375 5.889999866485596
175.9900054931641 363.7699890136719 6.829999923706055
175.8399963378906 363.1600036621094 7.039999961853027
175.8899993896484 365.9100036621094 6.769999980926514
175.7700042724609 365.3200073242188 6.900000095367432
175.8999938964844 368.1499938964844 7.03000020980835
176.0299987792969 368.6700134277344 6.909999847412109
175.7799987792969 367.4800109863281 6.920000076293945
175.9700012207031 370.7999877929688 7
175.3200073242188 370.9800109863281 8.149999618530273
175.9100036621094 370.4200134277344 6.920000076293945
176.1399993896484 369.75 6.860000133514404
175.8800048828125 369.1499938964844 6.809999942779541
175.9600067138672 368.3599853515625 6.960000038146973
175.8000030517578 367.0799865722656 6.789999961853027
175.6900024414062 365.6000061035156 6.820000171661377
175.8699951171875 364.8299865722656 7
176.1000061035156 364.0899963378906 7
175.8899993896484 363.3999938964844 6.96999979019165
176.0899963378906 362.510009765625 6.889999866485596
175.7899932861328 362.6000061035156 6.090000152587891
175.8000030517578 361.8299865722656 6.769999980926514
175.9400024414062 361.1400146484375 7
175.6999969482422 360.489990234375 6.820000171661377
175.8500061035156 356.2000122070312 6.989999771118164
176.0500030517578 355.5299987792969 6.949999809265137
175.7700042724609 355.5899963378906 5.920000076293945
175.8000030517578 354.8800048828125 7.010000228881836
175.8600006103516 354.0700073242188 7.03000020980835
176.0800018310547 353.2900085449219 6.989999771118164
175.7400054931641 352.7200012207031 6.400000095367432
175.7899932861328 351.9700012207031 7.059999942779541
175.9499969482422 351.1700134277344 6.989999771118164
175.6199951171875 350.489990234375 6.71999979019165
175.7200012207031 349.8200073242188 7
175.6399993896484 348.3900146484375 6.769999980926514
175.8399963378906 347.6799926757812 7.079999923706055
175.7100067138672 347.0400085449219 6.179999828338623
175.1699981689453 346.4500122070312 7.010000228881836
175.7400054931641 346.2799987792969 7.119999885559082
174.7400054931641 346.4700012207031 7.059999942779541
175.2700042724609 346.3699951171875 7.019999980926514
175.8000030517578 346.2200012207031 6.949999809265137
175.8500061035156 347.6499938964844 7.070000171661377
175.6999969482422 348.3599853515625 7.079999923706055
175.8000030517578 349.6400146484375 7.070000171661377
175.6399993896484 350.4100036621094 7.090000152587891
176.0200042724609 351.0700073242188 7.090000152587891
175.8300018310547 351.7200012207031 7.070000171661377
176.3500061035156 351.5899963378906 7.099999904632568
175.9299926757812 353.0700073242188 7
175.7599945068359 353.7999877929688 7.03000020980835
176.0800018310547 354.3099975585938 6.920000076293945
175.7299957275391 355.0799865722656 7.079999923706055
175.6399993896484 355.8299865722656 7.03000020980835
175.9299926757812 356.3999938964844 7.050000190734863
175.7299957275391 356.9500122070312 7.079999923706055
175.9100036621094 357.5400085449219 6.980000019073486
175.7799987792969 358.3299865722656 7.090000152587891
176.0399932861328 358.9700012207031 6.889999866485596
175.8399963378906 359.5400085449219 7.070000171661377
176 360.1300048828125 6.989999771118164
175.8600006103516 360.8599853515625 7.070000171661377
175.9400024414062 362.1700134277344 7
176.0099945068359 363.5400085449219 7.03000020980835
175.75 364.3200073242188 7.03000020980835
175.8000030517578 365.6300048828125 6.989999771118164
175.7100067138672 366.4299926757812 6.949999809265137
176.0599975585938 367.0700073242188 6.980000019073486
175.9199981689453 367.7000122070312 6.980000019073486
176.1399993896484 368.2799987792969 7
176 369.1000061035156 7
176.0899963378906 370.3800048828125 7.03000020980835
175.9100036621094 370.260009765625 6.960000038146973
176 368.9599914550781 6.809999942779541
175.9900054931641 368.2999877929688 6.900000095367432
175.7700042724609 367.6000061035156 7.090000152587891
175.9900054931641 366.8699951171875 6.550000190734863
175.9600067138672 366.2900085449219 6.739999771118164
175.8999938964844 365.6700134277344 6.909999847412109
175.8200073242188 364.9800109863281 6.96999979019165
175.6999969482422 364.3399963378906 7.110000133514404
175.6499938964844 363.7799987792969 7.070000171661377
175.9900054931641 363 6.369999885559082
175.9400024414062 362.3099975585938 6.860000133514404
175.8699951171875 361.7300109863281 7.03000020980835
175.7400054931641 361.2099914550781 7.090000152587891
175.7200012207031 360.5299987792969 7.119999885559082
176.1799926757812 359.6900024414062 7.03000020980835
175.9900054931641 359.0400085449219 6.949999809265137
175.8999938964844 358.5199890136719 6.909999847412109
175.75 357.8999938964844 7.090000152587891
175.7100067138672 357.2099914550781 7.150000095367432
175.9100036621094 356.4500122070312 6.829999923706055
175.8600006103516 355.8399963378906 6.96999979019165
175.7400054931641 355.1600036621094 7.070000171661377
176.0700073242188 354.3200073242188 7.010000228881836
175.8699951171875 353.7099914550781 7.059999942779541
175.7899932861328 353.1000061035156 7.110000133514404
175.7700042724609 352.3699951171875 7.139999866485596
176.1100006103516 351.5 6.920000076293945
175.6499938964844 351.6199951171875 7.139999866485596
175.9199981689453 350.260009765625 7.010000228881836
175.7400054931641 349.6700134277344 7.079999923706055
175.75 348.9400024414062 7.150000095367432
175.8899993896484 347.6000061035156 6.860000133514404
175.8300018310547 346.989990234375 6.909999847412109
175.6499938964844 346.3399963378906 7.059999942779541
173.5599975585938 346.3599853515625 6.989999771118164
173.6100006103516 346.2900085449219 5.840000152587891
174.2700042724609 346.2099914550781 6.360000133514404
174.9400024414062 346.260009765625 6.880000114440918
175.9100036621094 367.989990234375 7.010000228881836
175.1900024414062 370.9599914550781 8.010000228881836
176.0500030517578 367.3599853515625 6.860000133514404
176.0899963378906 369.9500122070312 6.860000133514404
175.9299926757812 370.6300048828125 7.050000190734863
175.8699951171875 365.5799865722656 7.03000020980835
176 365.010009765625 6.769999980926514
176 362.4800109863281 6.909999847412109
176.1799926757812 361.8500061035156 6.699999809265137
175.8500061035156 363.0799865722656 7.010000228881836
175.9100036621094 357.5400085449219 6.940000057220459
175.7299957275391 358.1600036621094 7.090000152587891
176.0200042724609 356.9800109863281 6.650000095367432
175.8899993896484 360.1099853515625 6.929999828338623
176.0099945068359 359.5199890136719 6.630000114440918
175.7200012207031 355.8099975585938 7.079999923706055
175.5200042724609 356.7200012207031 6.730000019073486
175.8999938964844 355.1300048828125 7.090000152587891
176.0399932861328 354.6099853515625 6.699999809265137
176.1699981689453 351.3500061035156 6.989999771118164
175.8500061035156 352.75 7.079999923706055
176.0099945068359 352.1700134277344 6.929999828338623
175.6699981689453 350.4100036621094 7.099999904632568
175.8300018310547 349.7699890136719 6.960000038146973
175.7200012207031 347.8999938964844 7.079999923706055
175.8699951171875 347.2099914550781 6.980000019073486
175.5800018310547 346.2799987792969 7.059999942779541
174.7400054931641 346.3099975585938 6.929999828338623
173.9199981689453 346.3900146484375 6.920000076293945
176.0200042724609 369.9500122070312 7.010000228881836
175.8399963378906 370.5599975585938 7.119999885559082
176.1600036621094 369.4599914550781 6.96999979019165
175.7200012207031 371.010009765625 7.269999980926514
175.8699951171875 367.7200012207031 6.96999979019165
176.1600036621094 366.6900024414062 6.849999904632568
176.0200042724609 367.1900024414062 6.869999885559082
175.6799926757812 366.1900024414062 7.010000228881836
175.9900054931641 365.0599975585938 6.880000114440918
175.8300018310547 365.5899963378906 7.059999942779541
175.8399963378906 363.4400024414062 7.010000228881836
176.1199951171875 362.3599853515625 6.929999828338623
176.0200042724609 362.8900146484375 7.050000190734863
175.6999969482422 363.989990234375 6.949999809265137
175.8300018310547 361.1700134277344 6.96999979019165
176.1300048828125 360.0599975585938 6.900000095367432
176.0599975585938 355.5700073242188 7.090000152587891
176.0099945068359 360.5700073242188 7.059999942779541
175.8300018310547 358.8500061035156 7.110000133514404
175.7700042724609 354.6000061035156 7.039999961853027
176.0599975585938 353.5299987792969 6.940000057220459
175.9199981689453 354.0299987792969 6.949999809265137
175.9299926757812 358.3099975585938 6.880000114440918
175.8800048828125 356.2000122070312 7.03000020980835
176.0299987792969 351.3599853515625 6.28000020980835
175.7899932861328 352.3299865722656 7.019999980926514
176.0399932861328 351.2099914550781 6.909999847412109
175.8999938964844 351.7799987792969 7.039999961853027
175.75 356.739990234375 6.920000076293945
175.6399993896484 350 7.070000171661377
175.9199981689453 348.8800048828125 7.059999942779541
175.8000030517578 349.3999938964844 7.099999904632568
175.8699951171875 346.7000122070312 7.019999980926514
175.5700073242188 347.8099975585938 7.099999904632568
175.7400054931641 347.2699890136719 7.050000190734863
175.4199981689453 346.2699890136719 6.840000152587891
173.6600036621094 346.3399963378906 6.980000019073486
174.3800048828125 346.2000122070312 7.03000020980835
175.0399932861328 346.1300048828125 7.059999942779541
175.6399993896484 346.5899963378906 7.079999923706055
175.7899932861328 349.2999877929688 7.099999904632568
175.6399993896484 349.7799987792969 7.039999961853027
175.9100036621094 348.7699890136719 7.050000190734863
175.6799926757812 352.3999938964844 7.090000152587891
175.9600067138672 351.3099975585938 7.090000152587891
175.8300018310547 351.8599853515625 7.079999923706055
176.0599975585938 353.239990234375 6.989999771118164
175.8000030517578 354.3399963378906 7.079999923706055
175.9199981689453 353.8299865722656 6.989999771118164
175.6600036621094 354.8800048828125 7.059999942779541
175.8399963378906 356.9700012207031 7.079999923706055
175.9499969482422 356.4400024414062 7.019999980926514
175.6799926757812 360.7099914550781 7.059999942779541
175.9799957275391 359.5899963378906 7.050000190734863
175.8999938964844 362.6499938964844 6.349999904632568
175.9299926757812 362.7000122070312 7.050000190734863
176.0299987792969 362.1499938964844 7.03000020980835
175.7700042724609 363.2099914550781 7.059999942779541
176.0299987792969 364.7999877929688 6.940000057220459
175.8999938964844 365.3599853515625 7
175.6699981689453 366.4100036621094 7
175.7700042724609 365.8399963378906 7.010000228881836
175.9499969482422 367.9700012207031 7.070000171661377
175.8399963378906 368.510009765625 7.010000228881836
176.1000061035156 367.4599914550781 6.980000019073486
176.0899963378906 370.5799865722656 7.019999980926514
174.4900054931641 346.4599914550781 6.360000133514404
173.8899993896484 346.4500122070312 6.949999809265137
175.9900054931641 369.6799926757812 6.869999885559082
176.1199951171875 369.1499938964844 7.019999980926514
175.8600006103516 370.2300109863281 6.909999847412109
175.6600036621094 368.25 7.019999980926514
175.8200073242188 367.6000061035156 6.949999809265137
175.9900054931641 366.9700012207031 7.010000228881836
175.5500030517578 365.6000061035156 7.03000020980835
175.7299957275391 364.9700012207031 6.980000019073486
175.9799957275391 363.7699890136719 7.070000171661377
175.8399963378906 364.3900146484375 7.039999961853027
175.8600006103516 361.7999877929688 6.909999847412109
175.6999969482422 362.3599853515625 6.71999979019165
175.9900054931641 361.2000122070312 6.989999771118164
175.6600036621094 360.3599853515625 6.869999885559082
175.8899993896484 359.260009765625 7.190000057220459
175.9799957275391 356.4700012207031 7.019999980926514
175.6399993896484 354.8699951171875 7.03000020980835
175.9299926757812 353.6400146484375 7.039999961853027
175.7799987792969 354.2099914550781 7.039999961853027
175.7899932861328 351.5400085449219 6.920000076293945
175.6300048828125 352.1799926757812 6.889999866485596
175.9199981689453 351.0199890136719 7.050000190734863
175.6699981689453 347.239990234375 7.059999942779541
175.5299987792969 347.8200073242188 6.949999809265137
175.7799987792969 346.7099914550781 7.039999961853027
175.5800018310547 350.0199890136719 6.889999866485596
175.8699951171875 348.8500061035156 7.059999942779541
175.7299957275391 349.4200134277344 6.980000019073486
175.1900024414062 346.3099975585938 6.980000019073486
173.7799987792969 346.4299926757812 6.940000057220459
176.0200042724609 370.9599914550781 7.800000190734863
175.8600006103516 370.9100036621094 6.53000020980835
176.0099945068359 370.1199951171875 6.980000019073486
176.0599975585938 369.5 7.010000228881836
175.8200073242188 368.7999877929688 6.480000019073486
175.8399963378906 368.1300048828125 6.820000171661377
176.1000061035156 367.3900146484375 7.050000190734863
175.7200012207031 366.5899963378906 6.769999980926514
175.9499969482422 366.0599975585938 6.940000057220459
175.75 365.3699951171875 6.769999980926514
176.0399932861328 364.7000122070312 6.989999771118164
175.7299957275391 363.9599914550781 6.699999809265137
175.9799957275391 363.3599853515625 7.050000190734863
175.8399963378906 362.6099853515625 6.760000228881836
175.9700012207031 361.8900146484375 5.909999847412109
175.7400054931641 361.7999877929688 6.650000095367432
175.9400024414062 361.2099914550781 6.980000019073486
175.7700042724609 360.5299987792969 6.980000019073486
175.7299957275391 356.7999877929688 7
175.4199981689453 356.760009765625 6.190000057220459
175.7899932861328 356.0499877929688 5.980000019073486
175.8099975585938 355.2900085449219 6.980000019073486
175.8000030517578 354.6400146484375 5.940000057220459
175.8399963378906 353.9500122070312 6.940000057220459
175.7299957275391 353.1900024414062 6.420000076293945
175.8200073242188 352.5799865722656 6.96999979019165
175.6900024414062 351.9500122070312 6.480000019073486
175.9499969482422 351.3200073242188 7.039999961853027
175.8300018310547 350.4800109863281 6.989999771118164
175.6300048828125 349.7099914550781 6.650000095367432
175.75 349.1400146484375 6.980000019073486
175.6300048828125 348.4299926757812 6.699999809265137
175.7700042724609 347.6499938964844 7.03000020980835
175.5500030517578 346.8999938964844 6.53000020980835
175.6699981689453 346.239990234375 7.019999980926514
174.9199981689453 346.3800048828125 7.039999961853027
174.4299926757812 346.25 6.989999771118164
175.4600067138672 346.510009765625 7.099999904632568
175.6900024414062 347.2000122070312 7.079999923706055
175.6799926757812 348.5599975585938 7.070000171661377
175.9600067138672 349.2999877929688 7.070000171661377
175.5700073242188 349.8299865722656 7.190000057220459
175.7899932861328 350.5599975585938 7.110000133514404
175.9400024414062 351.3399963378906 7.099999904632568
175.75 351.8900146484375 7.099999904632568
175.9199981689453 352.5 7.099999904632568
175.6399993896484 353.0899963378906 7.050000190734863
175.7899932861328 353.8699951171875 7.050000190734863
175.7400054931641 355.1099853515625 7.039999961853027
175.9199981689453 355.7999877929688 7.059999942779541
175.5599975585938 356.4800109863281 7
175.8200073242188 357.2200012207031 7.039999961853027
175.7799987792969 359.3099975585938 7.090000152587891
176.0299987792969 359.9700012207031 7.039999961853027
175.7299957275391 360.4599914550781 7.079999923706055
175.9400024414062 361.1400146484375 7.03000020980835
175.8399963378906 362.5299987792969 7.059999942779541
175.8500061035156 362.5299987792969 6.400000095367432
176.0299987792969 363.1600036621094 7.039999961853027
175.6900024414062 363.7099914550781 7.019999980926514
175.8999938964844 364.4800109863281 6.960000038146973
175.7200012207031 365.1400146484375 6.960000038146973
175.8999938964844 365.8399963378906 6.889999866485596
175.7700042724609 367.2099914550781 7.019999980926514
176.0099945068359 367.9400024414062 7.039999961853027
175.8899993896484 369.2300109863281 7.039999961853027
176.0599975585938 370 7.070000171661377
176.25 370.75 8.079999923706055
173.8300018310547 346.4400024414062 6.989999771118164
175.9299926757812 370.6700134277344 7.090000152587891
176.25 370.7200012207031 8.170000076293945
176.1199951171875 369.4400024414062 6.679999828338623
176.0299987792969 368.7900085449219 6.699999809265137
176.0399932861328 368.0299987792969 6.880000114440918
175.8899993896484 367.2699890136719 6.989999771118164
175.7299957275391 366.6199951171875 7.039999961853027
175.7400054931641 365.9299926757812 7.090000152587891
175.9600067138672 365.2200012207031 6.480000019073486
175.9700012207031 364.5199890136719 6.760000228881836
175.8399963378906 363.8900146484375 7.010000228881836
175.8500061035156 363.2000122070312 7.059999942779541
175.7299957275391 362.3999938964844 7.079999923706055
176.0399932861328 361.760009765625 6.650000095367432
176 361.1600036621094 6.769999980926514
176 360.5400085449219 6.889999866485596
175.9299926757812 359.8200073242188 6.909999847412109
175.8200073242188 359.1199951171875 7.070000171661377
175.7400054931641 358.4400024414062 7.099999904632568
176.0800018310547 357.1199951171875 6.760000228881836
175.8800048828125 356.4200134277344 6.940000057220459
175.7400054931641 355.7999877929688 7.059999942779541
175.6999969482422 355.0799865722656 7.110000133514404
176.0500030517578 354.3399963378906 6.989999771118164
175.8699951171875 353.6300048828125 7.050000190734863
175.7100067138672 352.989990234375 7.199999809265137
176.0399932861328 351.6199951171875 7
175.9100036621094 350.9100036621094 6.920000076293945
175.75 350.2300109863281 7.090000152587891
175.6900024414062 349.5400085449219 7.079999923706055
175.8600006103516 348.2300109863281 6.909999847412109
175.5899963378906 346.8800048828125 7.099999904632568
