329.7099914550781 125 4.860000133514404
330.3299865722656 125.1699981689453 5.150000095367432
330.9800109863281 124.9300003051758 4.670000076293945
331.7699890136719 125.0800018310547 4.980000019073486
332.4599914550781 125.1699981689453 5.059999942779541
333.0799865722656 124.9599990844727 4.71999979019165
333.8399963378906 125.0699996948242 5.019999980926514
334.7000122070312 125.370002746582 5.059999942779541
335.239990234375 124.8199996948242 5.03000020980835
335.9299926757812 125.1600036621094 5.070000171661377
336.6799926757812 125.3399963378906 5.139999866485596
337.3999938964844 125.1399993896484 5.03000020980835
338.1000061035156 125.1500015258789 5.190000057220459
338.0199890136719 124.6900024414062 4.75
338.6400146484375 124.879997253418 5.03000020980835
339.3099975585938 124.9599990844727 5.159999847412109
339.9700012207031 124.7399978637695 4.829999923706055
340.1199951171875 125.25 5.139999866485596
340.7999877929688 125.3399963378906 5.090000152587891
341.3500061035156 125.1999969482422 4.960000038146973
342.1000061035156 125.3000030517578 5.039999961853027
342.7799987792969 125.0699996948242 4.860000133514404
343.4299926757812 125.1399993896484 4.949999809265137
344.7099914550781 125.1399993896484 4.980000019073486
346.739990234375 125.3600006103516 5.079999923706055
348.0899963378906 125.3199996948242 5.059999942779541
348.8599853515625 125.5100021362305 5.070000171661377
349.3599853515625 125.2699966430664 5.139999866485596
349.8699951171875 124.8300018310547 6.920000076293945
350.7200012207031 125.2200012207031 5.059999942779541
351.3999938964844 125.3899993896484 5.059999942779541
351.8999938964844 125.2399978637695 4.960000038146973
352.6400146484375 125.4700012207031 5.079999923706055
353.3900146484375 125.2799987792969 4.920000076293945
354.0700073242188 125.3199996948242 5.070000171661377
354.5899963378906 125.2200012207031 4.690000057220459
355.2699890136719 125.379997253418 5.099999904632568
355.9400024414062 125.2200012207031 4.900000095367432
356.6700134277344 125.3499984741211 5.150000095367432
357.2300109863281 125.2099990844727 4.949999809265137
357.8900146484375 125.3899993896484 5.170000076293945
358.5499877929688 125.1999969482422 4.949999809265137
328.6199951171875 125.1500015258789 5.050000190734863
329.4100036621094 125.3499984741211 5.110000133514404
330.1300048828125 125.0899963378906 5.179999828338623
330.9800109863281 125.3899993896484 5.150000095367432
331.5400085449219 125.2300033569336 5.019999980926514
332.3299865722656 125.5100021362305 5.139999866485596
332.9800109863281 125.2799987792969 5.090000152587891
334.1700134277344 125.370002746582 5.079999923706055
334.6799926757812 125.0299987792969 5.110000133514404
335.3999938964844 125.3899993896484 5.139999866485596
335.9200134277344 125.2200012207031 5.110000133514404
337.0700073242188 125.3399963378906 5.090000152587891
337.6600036621094 125.0699996948242 5.159999847412109
338.239990234375 124.8899993896484 5.150000095367432
339.5499877929688 125.120002746582 5.130000114440918
340.2699890136719 124.9899978637695 5.199999809265137
340.3599853515625 125.5299987792969 5.150000095367432
341.010009765625 125.3499984741211 5.059999942779541
341.6099853515625 125.1900024414062 5.079999923706055
342.4200134277344 125.4599990844727 5.130000114440918
343.1000061035156 125.3600006103516 5.059999942779541
344.4599914550781 125.5400009155273 5.159999847412109
345.0299987792969 125.2300033569336 5.070000171661377
346.4299926757812 125.4599990844727 5.050000190734863
346.9100036621094 125.3399963378906 5.019999980926514
348.2300109863281 125.4800033569336 5.070000171661377
348.8299865722656 125.3300018310547 5.070000171661377
349.3599853515625 125.0199966430664 6.809999942779541
349.3699951171875 125.1600036621094 5.190000057220459
349.989990234375 124.9199981689453 6.789999961853027
350.1300048828125 125.5599975585938 5.170000076293945
350.7699890136719 125.370002746582 5.25
350.6400146484375 124.7399978637695 6.480000019073486
351.4500122070312 125.3199996948242 5.079999923706055
352.7699890136719 125.5199966430664 5.150000095367432
353.4400024414062 125.4000015258789 4.849999904632568
354.1499938964844 125.3600006103516 4.949999809265137
354.7099914550781 125.2399978637695 5.099999904632568
355.4800109863281 125.5999984741211 5.190000057220459
356.1300048828125 125.4000015258789 5.139999866485596
356.7200012207031 125.3000030517578 5.150000095367432
357.2699890136719 125.1500015258789 5.139999866485596
357.4299926757812 125.7300033569336 5.210000038146973
358 125.5800018310547 5.139999866485596
358.489990234375 124.9199981689453 4.809999942779541
358.6199951171875 125.4199981689453 5.199999809265137
328.6000061035156 125.2099990844727 4.949999809265137
329.2900085449219 125.1399993896484 5.039999961853027
329.9299926757812 125.2099990844727 5.019999980926514
330.6300048828125 125.2300033569336 4.880000114440918
331.3900146484375 125.1999969482422 4.929999828338623
332.0599975585938 125.2200012207031 4.989999771118164
332.6700134277344 125.1900024414062 5.139999866485596
333.3500061035156 125.2600021362305 4.96999979019165
334.0799865722656 125.2099990844727 5.039999961853027
334.7699890136719 125.2300033569336 4.889999866485596
335.3599853515625 125.2600021362305 4.860000133514404
336.010009765625 125.3300018310547 4.840000152587891
336.7200012207031 125.3600006103516 4.900000095367432
337.3999938964844 125.3099975585938 4.889999866485596
337.8699951171875 124.8499984741211 5.099999904632568
338.0299987792969 125.4199981689453 5.139999866485596
338.5499877929688 124.879997253418 5.039999961853027
339.2900085449219 124.9499969482422 5.079999923706055
340.0899963378906 125.5 5.119999885559082
339.9700012207031 124.9400024414062 5.150000095367432
340.7000122070312 125.5199966430664 4.960000038146973
342.1499938964844 125.5999984741211 4.989999771118164
343.3399963378906 125.129997253418 5.139999866485596
346.8699951171875 125.2300033569336 5.079999923706055
347.5599975585938 125.3000030517578 5.079999923706055
348.2699890136719 125.2699966430664 5.039999961853027
348.8900146484375 125.3899993896484 4.909999847412109
349.3900146484375 124.7900009155273 6.710000038146973
350.1000061035156 124.8099975585938 6.590000152587891
350.3299865722656 125.5599975585938 5.059999942779541
350.7999877929688 124.8899993896484 6.28000020980835
350.9100036621094 125.1800003051758 5.230000019073486
351.489990234375 125.2300033569336 5.150000095367432
352.2000122070312 125.370002746582 4.909999847412109
352.9700012207031 125.379997253418 4.809999942779541
354.8900146484375 125.1999969482422 5.190000057220459
355.6600036621094 125.2399978637695 5.190000057220459
356.3999938964844 125.2099990844727 5.190000057220459
357.0599975585938 125.3499984741211 5.170000076293945
357.760009765625 125.3300018310547 5.179999828338623
358.5199890136719 125.4400024414062 5.090000152587891
358.9599914550781 125.3199996948242 3.930000066757202
358.9200134277344 125.0299987792969 5.860000133514404
358.3399963378906 124.9899978637695 3.769999980926514
358.489990234375 125.5599975585938 4.849999904632568
357.8399963378906 125.4199981689453 5.179999828338623
357.1000061035156 125.2300033569336 5.239999771118164
357.1799926757812 125.5800018310547 4.53000020980835
356.510009765625 125.5999984741211 5.03000020980835
355.9400024414062 125.370002746582 5.199999809265137
355.3099975585938 125.6100006103516 4.949999809265137
354.6300048828125 125.4599990844727 5.139999866485596
353.9400024414062 125.3300018310547 3.970000028610229
353.3999938964844 125.4800033569336 4.869999885559082
352.6799926757812 125.4400024414062 5.139999866485596
351.9200134277344 125.2300033569336 3.980000019073486
351.3599853515625 125.5899963378906 4.989999771118164
351.1799926757812 124.8000030517578 6.050000190734863
350.7799987792969 125.4000015258789 5.289999961853027
350.0700073242188 125.2200012207031 3.980000019073486
349.5 125.5599975585938 5.130000114440918
349.3999938964844 125.0100021362305 6.579999923706055
348.8299865722656 125.5199966430664 5.099999904632568
346.9599914550781 125.370002746582 5.059999942779541
345.8200073242188 125.4700012207031 4.929999828338623
345.1600036621094 125.4199981689453 5.210000038146973
344.4500122070312 125.4800033569336 4.789999961853027
343.760009765625 125.4199981689453 4.920000076293945
342.5799865722656 125.4599990844727 4.880000114440918
341.8399963378906 125.2600021362305 5.079999923706055
341.2300109863281 125.5299987792969 4.610000133514404
340.6799926757812 125.3899993896484 5.090000152587891
340.0199890136719 125.120002746582 5.059999942779541
338.1099853515625 125.120002746582 5.019999980926514
337.5700073242188 125.5100021362305 4.889999866485596
336.7999877929688 125.3399963378906 5.079999923706055
336.1600036621094 125.1800003051758 5.130000114440918
335.6600036621094 125.4800033569336 4.900000095367432
335.5400085449219 125.0299987792969 5.269999980926514
335.010009765625 125.3300018310547 5.059999942779541
329.2200012207031 125.4599990844727 4.739999771118164
330.510009765625 125.3300018310547 5
329.8299865722656 125.2099990844727 5.159999847412109
331.1099853515625 125.4300003051758 4.800000190734863
333.6900024414062 125.4599990844727 4.900000095367432
333.1099853515625 125.2799987792969 5.079999923706055
358.4700012207031 125.6900024414062 6.369999885559082
358.9700012207031 125.5599975585938 5.159999847412109
356.25 125.4800033569336 5.079999923706055
356.7699890136719 125.3300018310547 5.239999771118164
354.489990234375 125.1399993896484 5.090000152587891
353.9100036621094 125.2799987792969 5.010000228881836
350.4599914550781 125.5 4.960000038146973
351.6700134277344 125.1999969482422 5.170000076293945
351.0400085449219 125.3300018310547 5.159999847412109
349.5299987792969 125 6.639999866485596
350.1000061035156 124.8499984741211 6.650000095367432
348.9100036621094 125.120002746582 5.070000171661377
347.6199951171875 125.4400024414062 5.130000114440918
348.239990234375 125.3199996948242 5.010000228881836
350.8999938964844 124.6900024414062 6.409999847412109
344.8900146484375 125.4100036621094 5.099999904632568
345.489990234375 125.2300033569336 5.079999923706055
342.5899963378906 125.2399978637695 5.170000076293945
341.989990234375 125.379997253418 5.050000190734863
339.9400024414062 125.2600021362305 5.050000190734863
340.4800109863281 125.129997253418 5.159999847412109
338.4299926757812 124.8499984741211 5.099999904632568
337.739990234375 125.0400009155273 5.090000152587891
337.1000061035156 125.1999969482422 5.079999923706055
336.5 125.3199996948242 4.989999771118164
334.3999938964844 125.0599975585938 5.090000152587891
333.2000122070312 125.370002746582 4.929999828338623
333.7699890136719 125.25 5.050000190734863
330.989990234375 125.1999969482422 5.050000190734863
330.3599853515625 125.3499984741211 5
331.5799865722656 125.0599975585938 5.050000190734863
328.7999877929688 125.120002746582 5.179999828338623
329.1000061035156 125.1399993896484 5.179999828338623
328.5499877929688 125.25 5.170000076293945
332.0299987792969 125.1100006103516 5.090000152587891
330.9599914550781 125.3899993896484 5.070000171661377
331.489990234375 125.2399978637695 5.070000171661377
334.4299926757812 125.2600021362305 5.079999923706055
335 125.129997253418 5.119999885559082
333.9100036621094 125.4100036621094 5.099999904632568
335.510009765625 125 5.25
336.9400024414062 125.3199996948242 5.099999904632568
337.4800109863281 125.1900024414062 5.099999904632568
339.1199951171875 124.7600021362305 5.139999866485596
337.989990234375 125.0400009155273 5.110000133514404
338.5499877929688 124.9000015258789 5.110000133514404
340.4200134277344 125.0299987792969 5.139999866485596
339.9400024414062 125.1399993896484 5.039999961853027
341.8200073242188 125.370002746582 5.119999885559082
342.8399963378906 125.120002746582 5.210000038146973
342.2999877929688 125.2300033569336 5.079999923706055
344.7699890136719 125.3199996948242 5.130000114440918
345.3299865722656 125.1999969482422 5.150000095367432
344.1900024414062 125.5 5.130000114440918
347.7999877929688 125.2699966430664 5.130000114440918
349.260009765625 124.879997253418 6.679999828338623
349.5400085449219 124.8399963378906 4.170000076293945
347.2900085449219 125.4100036621094 5.110000133514404
346.7000122070312 125.5199966430664 5.079999923706055
350.1900024414062 125.2399978637695 5.199999809265137
349.1799926757812 125.4599990844727 5.360000133514404
349.7000122070312 125.3300018310547 5.190000057220459
352.7699890136719 125.2200012207031 5.110000133514404
352.1799926757812 125.370002746582 5.150000095367432
351.6900024414062 125.5100021362305 5.070000171661377
354.7699890136719 125.4599990844727 5.170000076293945
355.3299865722656 125.3000030517578 5.170000076293945
355.8599853515625 125.1999969482422 5.090000152587891
354.2799987792969 125.5500030517578 5.21999979019165
357.4299926757812 125.4599990844727 5.199999809265137
356.8399963378906 125.620002746582 5.25
358.489990234375 125.2099990844727 5.050000190734863
357.989990234375 125.3399963378906 5.150000095367432
355.5400085449219 125.4599990844727 5.210000038146973
356.6499938964844 125.1999969482422 5.159999847412109
356.0799865722656 125.3000030517578 5.199999809265137
353.4200134277344 125.2200012207031 4.849999904632568
352.9299926757812 125.379997253418 5.260000228881836
352.4200134277344 125.4899978637695 5.170000076293945
350.260009765625 125.2600021362305 5.170000076293945
349.2099914550781 125.5400009155273 5.139999866485596
349.75 125.379997253418 5.170000076293945
347.0199890136719 125.4100036621094 5.130000114440918
349.5299987792969 124.7900009155273 6.670000076293945
347.5799865722656 125.25 5.110000133514404
346.4700012207031 125.5299987792969 5.139999866485596
345.0799865722656 125.2799987792969 5.130000114440918
344.5 125.4199981689453 5.090000152587891
345.5799865722656 125.1500015258789 5.070000171661377
341.8999938964844 125.4100036621094 5.079999923706055
342.489990234375 125.2399978637695 5.059999942779541
340.3399963378906 125.0299987792969 5
339.8399963378906 125.1900024414062 5.070000171661377
337.1199951171875 125.1699981689453 5.099999904632568
338.2300109863281 124.9000015258789 5.159999847412109
337.6700134277344 125.0500030517578 5.210000038146973
338.7300109863281 124.75 4.989999771118164
336.5700073242188 125.3099975585938 5.119999885559082
335.510009765625 124.9899978637695 5.179999828338623
333.8800048828125 125.3899993896484 5.110000133514404
334.989990234375 125.0999984741211 5.119999885559082
334.4299926757812 125.2600021362305 5.139999866485596
331.7699890136719 125.2699966430664 5.110000133514404
331.25 125.4199981689453 5.150000095367432
332.8599853515625 125.0500030517578 5.130000114440918
332.2999877929688 125.129997253418 5.110000133514404
329.0299987792969 125.2600021362305 5.130000114440918
329.5799865722656 125.1399993896484 5.079999923706055
330.2000122070312 124.9599990844727 5.170000076293945
329.8299865722656 125.2200012207031 5.070000171661377
330.4500122070312 125.0999984741211 5.070000171661377
332.1300048828125 125.3300018310547 5.099999904632568
332.7900085449219 125.1699981689453 5.119999885559082
335.6499938964844 125.0199966430664 5.019999980926514
335.0400085449219 125.1800003051758 5.079999923706055
337.3099975585938 125.3000030517578 5.079999923706055
338.5899963378906 124.9300003051758 5.079999923706055
339.1600036621094 124.8000030517578 4.78000020980835
337.9200134277344 125.1399993896484 5.050000190734863
340.3200073242188 125.2399978637695 5.110000133514404
341.8200073242188 125.5100021362305 5.03000020980835
343.1300048828125 125.1900024414062 4.960000038146973
342.4400024414062 125.3399963378906 4.96999979019165
344.0400085449219 125.5 5.070000171661377
344.6600036621094 125.370002746582 5.059999942779541
345.3099975585938 125.1900024414062 5.010000228881836
346.9200134277344 125.4499969482422 5.03000020980835
347.5899963378906 125.2799987792969 4.949999809265137
349.1499938964844 124.9300003051758 4.159999847412109
352.1700134277344 125.5 5.139999866485596
352.8699951171875 125.3199996948242 5.130000114440918
353.4299926757812 125.1399993896484 4.880000114440918
349.3200073242188 125.5500030517578 5.190000057220459
350.6300048828125 125.25 5.130000114440918
349.989990234375 125.3899993896484 5.159999847412109
329 124.9000015258789 4.75
329.5700073242188 125.120002746582 5.039999961853027
330.2699890136719 125.1699981689453 5.130000114440918
331.739990234375 125.0100021362305 4.809999942779541
332.3500061035156 125.1699981689453 5.079999923706055
332.9800109863281 125.3000030517578 5.199999809265137
333.8099975585938 125.0699996948242 4.840000152587891
334.4500122070312 125.1100006103516 5.039999961853027
334.989990234375 125.2200012207031 5.150000095367432
335.7099914550781 125.0800018310547 4.960000038146973
336.4200134277344 125.3499984741211 5.090000152587891
337.1300048828125 125.0599975585938 4.880000114440918
337.8299865722656 124.7300033569336 4.789999961853027
337.7099914550781 125.2200012207031 5.170000076293945
338.4400024414062 124.9100036621094 5.099999904632568
339.2200012207031 124.9300003051758 4.289999961853027
339.9200134277344 124.8300018310547 4.949999809265137
340.489990234375 125.1399993896484 5
341.1600036621094 125.2900009155273 5.070000171661377
341.9599914550781 125.120002746582 4.679999828338623
342.5400085449219 125.1399993896484 4.800000190734863
343.1099853515625 125.2799987792969 5.130000114440918
344.5499877929688 125.25 4.980000019073486
345.25 125.2799987792969 5.119999885559082
346.4299926757812 125.2699966430664 4.960000038146973
347.1799926757812 125.4599990844727 5.119999885559082
347.8800048828125 125.1900024414062 4.829999923706055
348.5 125.2600021362305 5.050000190734863
349.3399963378906 124.7900009155273 7.099999904632568
349.1600036621094 125.4000015258789 5.360000133514404
349.1700134277344 125.1800003051758 4.159999847412109
349.9400024414062 125.2300033569336 4.809999942779541
350.6099853515625 125.1999969482422 5.099999904632568
351.1199951171875 125.4599990844727 5.199999809265137
351.8200073242188 125.2799987792969 4.610000133514404
352.5499877929688 125.3899993896484 5.179999828338623
353.2099914550781 125.4899978637695 5.260000228881836
353.239990234375 125.1800003051758 4.480000019073486
353.7999877929688 125.2799987792969 4.800000190734863
354.3599853515625 125.3300018310547 5.179999828338623
355.1199951171875 125.2699966430664 4.420000076293945
355.8500061035156 125.2099990844727 4.920000076293945
356.4200134277344 125.4000015258789 5.170000076293945
357.1000061035156 125.25 4.320000171661377
357.0400085449219 125.5500030517578 5.210000038146973
357.8500061035156 125.2799987792969 4.550000190734863
358.5400085449219 125.2399978637695 5.090000152587891
358.1799926757812 125.0899963378906 4.909999847412109
357.3999938964844 125.5199966430664 5.210000038146973
356.7900085449219 125.379997253418 5.210000038146973
356.9299926757812 124.8600006103516 5
355.3299865722656 125.5999984741211 5.210000038146973
354.7200012207031 125.4700012207031 5.159999847412109
354.1799926757812 125.4000015258789 5.170000076293945
352.75 125.4499969482422 5.150000095367432
352.1499938964844 125.25 5.099999904632568
351.6300048828125 125.1699981689453 5.170000076293945
351.0799865722656 124.879997253418 6.389999866485596
350.9200134277344 125.5100021362305 5.170000076293945
350.239990234375 125.3899993896484 5.159999847412109
349.6600036621094 125.1999969482422 5.150000095367432
349.6900024414062 125.0800018310547 6.650000095367432
328.6199951171875 125.3099975585938 5.119999885559082
329.9400024414062 125.1800003051758 5.110000133514404
331.1799926757812 125.2200012207031 5.090000152587891
332.6700134277344 125.0699996948242 5.179999828338623
333.3299865722656 125.3099975585938 5.079999923706055
333.8800048828125 125.5 5.119999885559082
334.7200012207031 125.1100006103516 5.099999904632568
335.4299926757812 125.3300018310547 5.170000076293945
336.7000122070312 125.0999984741211 5.090000152587891
337.3200073242188 125.1900024414062 5.090000152587891
338.1000061035156 124.8499984741211 5.050000190734863
338 125.3600006103516 5.150000095367432
338.6600036621094 125.0199966430664 5.059999942779541
339.8900146484375 124.8099975585938 5.110000133514404
341.1000061035156 125.2200012207031 5.070000171661377
341.6600036621094 125.3899993896484 5.050000190734863
343.0899963378906 125.1800003051758 5.039999961853027
343.6900024414062 125.4100036621094 5.070000171661377
344.25 125.5100021362305 5.070000171661377
345.760009765625 125.2900009155273 5
347.7099914550781 125.3399963378906 5.130000114440918
348.4400024414062 125.4100036621094 5.079999923706055
348.9700012207031 125.629997253418 5.230000019073486
349.1000061035156 125.1399993896484 5.170000076293945
328.7200012207031 125.2399978637695 5.019999980926514
329.3399963378906 125.25 5.059999942779541
330.0400085449219 125.2799987792969 5.119999885559082
330.8500061035156 125.3600006103516 4.860000133514404
331.5700073242188 125.2799987792969 4.960000038146973
332.2099914550781 125.2900009155273 4.920000076293945
332.9299926757812 125.3300018310547 4.960000038146973
333.75 125.3600006103516 4.920000076293945
334.489990234375 125.3600006103516 4.829999923706055
335.1900024414062 125.370002746582 4.869999885559082
336.7099914550781 125.0500030517578 5.239999771118164
337.4200134277344 125.0800018310547 5.110000133514404
338.0299987792969 125.0599975585938 4.909999847412109
338.6900024414062 125.1999969482422 4.800000190734863
339.5599975585938 124.7900009155273 5.269999980926514
340.0899963378906 125.4400024414062 5.090000152587891
340.2099914550781 124.8300018310547 5.21999979019165
340.7099914550781 125.3499984741211 4.929999828338623
341.3500061035156 125.5 4.860000133514404
342.1600036621094 125.5400009155273 4.789999961853027
342.9200134277344 125.1800003051758 5.130000114440918
343.5799865722656 125.1500015258789 5.079999923706055
344.25 125.3499984741211 5.050000190734863
345 125.3000030517578 5.070000171661377
345.6400146484375 125.3600006103516 5.019999980926514
346.2699890136719 125.4100036621094 5.019999980926514
346.9599914550781 125.5100021362305 4.880000114440918
348.3599853515625 125.5199966430664 4.760000228881836
349.1300048828125 125.0899963378906 5.159999847412109
348.9700012207031 125.5299987792969 4.78000020980835
350.5899963378906 125.2399978637695 5.21999979019165
351.2900085449219 125.2799987792969 5.130000114440918
351.8900146484375 125.3600006103516 5.110000133514404
352.6199951171875 125.4700012207031 5.079999923706055
354.7799987792969 125.3000030517578 5.150000095367432
355.4700012207031 125.4400024414062 5.159999847412109
357.0199890136719 125.1600036621094 5.21999979019165
357.6300048828125 125.379997253418 5.199999809265137
358.2699890136719 125.4800033569336 5.110000133514404
328.7999877929688 125.3000030517578 4.96999979019165
330.0499877929688 125.129997253418 5.190000057220459
329.4200134277344 125.25 4.559999942779541
330.75 125.2399978637695 5.070000171661377
331.2799987792969 125.4199981689453 4.75
331.8599853515625 125.2300033569336 4.239999771118164
331.8699951171875 125.1100006103516 5.269999980926514
333.1499938964844 125.3199996948242 5.039999961853027
332.4400024414062 125.3300018310547 5.139999866485596
334.3099975585938 125.1100006103516 5.21999979019165
334.2999877929688 125.2200012207031 4.159999847412109
333.7200012207031 125.370002746582 4.489999771118164
334.7900085449219 125.2699966430664 5.150000095367432
335.489990234375 125.3000030517578 5.110000133514404
336.1499938964844 125.4100036621094 4.630000114440918
337.4100036621094 125.2799987792969 5.119999885559082
338.9100036621094 124.879997253418 5.150000095367432
338.239990234375 125.129997253418 4.739999771118164
340.0799865722656 125.1900024414062 5.119999885559082
339.4800109863281 124.9499969482422 5.210000038146973
341.2900085449219 125.4800033569336 4.739999771118164
340.7300109863281 125.3600006103516 5.139999866485596
342.3999938964844 125.4599990844727 4.960000038146973
343.6799926757812 125.4599990844727 4.949999809265137
344.25 125.3399963378906 4.289999961853027
345.4500122070312 125.4000015258789 5.070000171661377
346.0400085449219 125.5199966430664 4.769999980926514
348.0400085449219 125.4700012207031 4.889999866485596
349.3500061035156 124.8000030517578 6.570000171661377
349.2099914550781 125.4100036621094 5.170000076293945
348.6799926757812 125.4100036621094 4.119999885559082
348.7099914550781 125.2699966430664 5.199999809265137
349.9200134277344 124.9599990844727 6.480000019073486
350.5799865722656 125.3300018310547 4.03000020980835
350.6000061035156 125.2600021362305 5.320000171661377
351.1799926757812 125.4199981689453 5.119999885559082
351.7099914550781 125.4599990844727 4.96999979019165
353.0599975585938 125.3899993896484 4.03000020980835
353.0199890136719 125.3199996948242 5.349999904632568
352.260009765625 125.5599975585938 4.909999847412109
353.6099853515625 125.4599990844727 5.059999942779541
354.25 125.5100021362305 4.690000057220459
354.7999877929688 125.5199966430664 4.619999885559082
355.5700073242188 125.3499984741211 3.880000114440918
355.5400085449219 125.3600006103516 5.21999979019165
356.6499938964844 125.5 5.190000057220459
356.1300048828125 125.4000015258789 3.900000095367432
356.1099853515625 125.4100036621094 5.190000057220459
357.2799987792969 125.4400024414062 5.170000076293945
357.9800109863281 125.5400009155273 5.050000190734863
358.6000061035156 125.5899963378906 4.920000076293945
329.3900146484375 125.0800018310547 5.059999942779541
329.9700012207031 125.2200012207031 5.179999828338623
330.6000061035156 125.3600006103516 5.150000095367432
331.5299987792969 125.0100021362305 5.03000020980835
332.1300048828125 125.1699981689453 5.010000228881836
332.75 125.3099975585938 5.130000114440918
334.3599853515625 125.0199966430664 5
334.9700012207031 125.1600036621094 5.099999904632568
335.5299987792969 125.2900009155273 5.110000133514404
337.8699951171875 125.0999984741211 5.159999847412109
339.5199890136719 124.8499984741211 5.150000095367432
340.1099853515625 125 5.150000095367432
340.8200073242188 125.1800003051758 5.019999980926514
341.3599853515625 125.3199996948242 5.039999961853027
342 125.4800033569336 5.139999866485596
338.9100036621094 124.6900024414062 5.019999980926514
343.7300109863281 125.3000030517578 5.039999961853027
344.4100036621094 125.5 5.039999961853027
343.0499877929688 125.1600036621094 5.03000020980835
345.989990234375 125.2399978637695 4.960000038146973
346.6700134277344 125.4000015258789 5.050000190734863
348.9500122070312 125.1900024414062 5.070000171661377
350.1099853515625 125.4599990844727 5.159999847412109
349.5199890136719 125.2900009155273 5.159999847412109
351.7900085449219 125.129997253418 5.019999980926514
350.3800048828125 124.8000030517578 7.090000152587891
352.989990234375 125.4499969482422 5.239999771118164
352.4200134277344 125.2799987792969 5.110000133514404
354.7699890136719 125.2099990844727 5
355.3500061035156 125.3499984741211 5.110000133514404
355.9500122070312 125.5199966430664 5.130000114440918
356.9200134277344 125.0599975585938 5.090000152587891
357.5700073242188 125.2200012207031 5.050000190734863
358.2000122070312 125.370002746582 5.139999866485596
358.8299865722656 125.5199966430664 5.170000076293945
358.9599914550781 125.5500030517578 6.440000057220459
358.8699951171875 124.75 5.800000190734863
330.7099914550781 125.3399963378906 5.119999885559082
329.6400146484375 125.0999984741211 5.159999847412109
330.2099914550781 125.2399978637695 5.190000057220459
333.0799865722656 125.3099975585938 5.110000133514404
333.6000061035156 125.4400024414062 5.159999847412109
332.5899963378906 125.2200012207031 5.150000095367432
335.9700012207031 125.3600006103516 5.070000171661377
335.3500061035156 125.2300033569336 5.190000057220459
334.8599853515625 125.0899963378906 5.110000133514404
338.3399963378906 125.1500015258789 5.150000095367432
337.739990234375 125.0400009155273 5.139999866485596
341.7999877929688 125.3899993896484 5.130000114440918
340.6799926757812 125.1100006103516 5.130000114440918
341.1900024414062 125.2200012207031 5.099999904632568
342.3099975585938 125.4899978637695 5.130000114440918
340.1300048828125 124.9800033569336 5.150000095367432
339.6700134277344 124.8300018310547 5.130000114440918
344.0799865722656 125.3499984741211 5.119999885559082
343.6000061035156 125.2200012207031 5.099999904632568
344.6000061035156 125.4700012207031 5.139999866485596
346.3999938964844 125.3300018310547 5.090000152587891
346.9400024414062 125.4300003051758 5.070000171661377
347.4700012207031 125.5599975585938 5.090000152587891
349.760009765625 125.4300003051758 5.199999809265137
349.25 125.3300018310547 5.190000057220459
350.2999877929688 125.5800018310547 5.159999847412109
348.6900024414062 125.1699981689453 5.119999885559082
351.6499938964844 125.2900009155273 5.110000133514404
352.6900024414062 125.5800018310547 5.130000114440918
349.7900085449219 124.8499984741211 6.639999866485596
352.1600036621094 125.4499969482422 5.139999866485596
350.3500061035156 125.0100021362305 7.03000020980835
353.9599914550781 125.2900009155273 4.880000114440918
354.9800109863281 125.5899963378906 5.159999847412109
354.4500122070312 125.4400024414062 5.170000076293945
357.8500061035156 125.6600036621094 5.159999847412109
356.1900024414062 125.2600021362305 5.179999828338623
357.3099975585938 125.5299987792969 5.150000095367432
356.7000122070312 125.3499984741211 5.21999979019165
359.0299987792969 125.25 5.960000038146973
358.6199951171875 125.1500015258789 4.730000019073486
329.2999877929688 125.3199996948242 5.119999885559082
328.7000122070312 125.1500015258789 5.059999942779541
332.1799926757812 125.25 5.059999942779541
332.7099914550781 125.4100036621094 5.070000171661377
331.5799865722656 125.0999984741211 5.119999885559082
334.9400024414062 125.2600021362305 5.050000190734863
334.4100036621094 125.1399993896484 5.110000133514404
333.8399963378906 124.9800033569336 5.090000152587891
336.7000122070312 125.0800018310547 5.119999885559082
337.260009765625 125.1999969482422 5.110000133514404
337.7999877929688 125.3399963378906 5.210000038146973
337.9400024414062 124.6999969482422 5.090000152587891
339.0299987792969 124.9700012207031 5.099999904632568
340.75 125.4100036621094 5.079999923706055
339.6099853515625 125.120002746582 5.159999847412109
338.5400085449219 124.8600006103516 5.070000171661377
340.1400146484375 125.3000030517578 5.150000095367432
343.010009765625 125.2300033569336 5.070000171661377
344.1499938964844 125.5100021362305 5.090000152587891
343.5700073242188 125.4000015258789 5.019999980926514
346.2999877929688 125.4899978637695 5
345.260009765625 125.1900024414062 5.159999847412109
345.75 125.3600006103516 5.079999923706055
348.5199890136719 125.5100021362305 5.03000020980835
347.9800109863281 125.3399963378906 5.079999923706055
347.4700012207031 125.2099990844727 5.110000133514404
349.2200012207031 125.0800018310547 5.059999942779541
350.2999877929688 125.3499984741211 5.170000076293945
350.8500061035156 125.4599990844727 5.21999979019165
349.7099914550781 125.2099990844727 5.190000057220459
351.2200012207031 124.8300018310547 6.230000019073486
353.1600036621094 125.3099975585938 5.21999979019165
353.6300048828125 125.4499969482422 5.010000228881836
354.2699890136719 125.5999984741211 5.230000019073486
352.6099853515625 125.1699981689453 5.159999847412109
355.4100036621094 125.2600021362305 5.159999847412109
355.8900146484375 125.3899993896484 5.170000076293945
356.4500122070312 125.5 5.150000095367432
357.5700073242188 125.2099990844727 5.119999885559082
357.0400085449219 125.0699996948242 5.119999885559082
358.1600036621094 125.3899993896484 5.150000095367432
356.8099975585938 125.6100006103516 5.170000076293945
356.1900024414062 125.4800033569336 5.170000076293945
355.489990234375 125.2799987792969 5.130000114440918
354.0599975585938 125.5199966430664 5.179999828338623
352.7699890136719 125.2200012207031 5.210000038146973
353.3399963378906 125.3600006103516 5.059999942779541
351.239990234375 124.8399963378906 6.110000133514404
354.6199951171875 125.6399993896484 4.949999809265137
351.760009765625 125.629997253418 4.920000076293945
351.1700134277344 125.4899978637695 5.019999980926514
349.1400146484375 124.9800033569336 5.039999961853027
349.3800048828125 125.0800018310547 6.829999923706055
350.6000061035156 125.3099975585938 5.28000020980835
348.3200073242188 125.5299987792969 4.900000095367432
347.8200073242188 125.379997253418 5.159999847412109
347.1000061035156 125.1900024414062 5.03000020980835
345.0899963378906 125.3399963378906 5.099999904632568
345.7099914550781 125.5199966430664 4.96999979019165
342.4500122070312 125.2699966430664 5.099999904632568
343.1199951171875 125.4700012207031 5.050000190734863
340.9299926757812 125.5599975585938 4.900000095367432
340.3200073242188 125.4300003051758 5.110000133514404
339.6700134277344 125.2600021362305 5.050000190734863
337.7200012207031 124.7699966430664 5.289999961853027
339.0400085449219 125.0699996948242 5.03000020980835
338.3900146484375 124.9199981689453 5.130000114440918
336.8699951171875 125.3600006103516 5.039999961853027
337.5499877929688 125.4899978637695 4.909999847412109
336.3200073242188 125.1999969482422 5.150000095367432
333.4800109863281 125.2200012207031 5.070000171661377
332.9200134277344 125.0800018310547 5.210000038146973
334.1000061035156 125.3899993896484 4.980000019073486
332.1000061035156 125.5699996948242 4.929999828338623
331.4100036621094 125.4100036621094 5.059999942779541
330.7300109863281 125.2300033569336 5.050000190734863
330.1499938964844 125.0599975585938 5.230000019073486
328.6600036621094 125.370002746582 4.920000076293945
