249.6300048828125 489.8399963378906 7.170000076293945
248.9799957275391 489.8200073242188 6.829999923706055
248.2200012207031 489.8200073242188 6.550000190734863
247.5800018310547 489.8200073242188 6.269999980926514
247.0700073242188 489.9400024414062 7.309999942779541
247 489.8399963378906 6.079999923706055
246.3899993896484 489.9299926757812 7.050000190734863
245.6999969482422 489.8399963378906 7.079999923706055
245.0399932861328 489.8200073242188 6.820000171661377
244.4799957275391 489.8200073242188 6.71999979019165
243.8800048828125 489.9400024414062 7.320000171661377
243.2299957275391 489.9599914550781 7.199999809265137
242.5899963378906 489.8399963378906 7
242.0399932861328 489.8599853515625 6.730000019073486
241.4900054931641 490.0199890136719 7.159999847412109
240.8600006103516 490.0499877929688 7.059999942779541
240.1499938964844 489.989990234375 6.860000133514404
240.0500030517578 489.4400024414062 6.579999923706055
239.4400024414062 489.2900085449219 6.480000019073486
239.6000061035156 489.9200134277344 6.519999980926514
239 490.0599975585938 7.059999942779541
238.8500061035156 489.4500122070312 7.079999923706055
249.6900024414062 489.8800048828125 7.329999923706055
249.0800018310547 489.7799987792969 6.139999866485596
249.0200042724609 489.7000122070312 7.300000190734863
248.3300018310547 489.7000122070312 6.150000095367432
246.9499969482422 490.010009765625 7.170000076293945
246.3500061035156 489.8599853515625 6.179999828338623
246.3399963378906 489.7999877929688 7.239999771118164
246.2100067138672 489.3500061035156 6.210000038146973
245.6399993896484 489.75 7.170000076293945
244.8800048828125 489.6600036621094 7.159999847412109
244.2899932861328 490.0899963378906 7.210000038146973
244.1600036621094 489.6199951171875 7.150000095367432
243.6600036621094 490 7.289999961853027
242.25 489.8699951171875 7.179999828338623
241.4900054931641 489.760009765625 7.199999809265137
240.0500030517578 489.1400146484375 6.489999771118164
240.1699981689453 489.6600036621094 6.570000171661377
239.3800048828125 489.6199951171875 6.510000228881836
238.7799987792969 489.9599914550781 7.099999904632568
238.6499938964844 489.4200134277344 7.099999904632568
249.4299926757812 489.5899963378906 7.289999961853027
249.4799957275391 489.8900146484375 6.090000152587891
248.7400054931641 489.9500122070312 7.230000019073486
248.0599975585938 489.75 7.230000019073486
247.5399932861328 490.0199890136719 6.849999904632568
246.7899932861328 489.8900146484375 7.239999771118164
246.0599975585938 489.7900085449219 7.190000057220459
245.3099975585938 489.6000061035156 7.070000171661377
245.3600006103516 489.9100036621094 6.139999866485596
244.7799987792969 489.9299926757812 6.96999979019165
244.0800018310547 489.6900024414062 7.090000152587891
243.4400024414062 489.9500122070312 6.579999923706055
242.7700042724609 489.8699951171875 7.070000171661377
242.1000061035156 489.5899963378906 7.03000020980835
241.4799957275391 489.8999938964844 7.059999942779541
240.8300018310547 489.9599914550781 6.099999904632568
239.9799957275391 489.260009765625 6.579999923706055
240.1300048828125 489.8599853515625 6.800000190734863
239.4900054931641 489.5299987792969 6.630000114440918
238.8000030517578 489.3900146484375 7.099999904632568
238.8999938964844 489.9299926757812 7
249.3500061035156 489.8599853515625 6.420000076293945
249.3099975585938 489.7300109863281 7.400000095367432
248.6499938964844 489.9299926757812 6.849999904632568
247.9199981689453 489.8399963378906 7.329999923706055
247.9799957275391 489.8800048828125 6.150000095367432
247.1300048828125 489.75 7.460000038146973
247.1600036621094 489.8599853515625 6.320000171661377
245.6300048828125 489.75 7.199999809265137
245.6600036621094 489.9800109863281 6.260000228881836
246.3699951171875 489.8599853515625 6.989999771118164
244.9900054931641 489.9100036621094 6.78000020980835
244.2200012207031 489.8800048828125 6.989999771118164
243.3699951171875 489.75 7.269999980926514
242.6499938964844 489.8900146484375 6.840000152587891
243.4499969482422 489.8699951171875 6.25
242.0700073242188 489.8800048828125 6.28000020980835
241.9900054931641 489.7099914550781 7.25
240.5399932861328 489.8299865722656 7.039999961853027
239.8099975585938 490.010009765625 6.610000133514404
241.3600006103516 489.9500122070312 6.78000020980835
239.2100067138672 490.0400085449219 6.099999904632568
239.1399993896484 489.8800048828125 7.039999961853027
236.9100036621094 489.9500122070312 6.239999771118164
239.5599975585938 489.4700012207031 6.400000095367432
238.9499969482422 489.6300048828125 6.570000171661377
240.0500030517578 489.3699951171875 6.599999904632568
240.5 489.8800048828125 6.960000038146973
240.0099945068359 490.010009765625 6.809999942779541
243.8600006103516 489.760009765625 7.110000133514404
243.3099975585938 489.8800048828125 6.96999979019165
242.75 490 6.880000114440918
246.0299987792969 489.8500061035156 7.130000114440918
246.6100006103516 489.739990234375 7.289999961853027
245.5299987792969 490.010009765625 6.929999828338623
248.2299957275391 489.8999938964844 7.190000057220459
249.3500061035156 489.6000061035156 7.289999961853027
248.75 489.760009765625 7.320000171661377
247.6799926757812 490.0299987792969 7.099999904632568
240.1999969482422 489.510009765625 6.579999923706055
239.0899963378906 489.739990234375 6.53000020980835
239.6499938964844 489.6099853515625 6.519999980926514
241.75 489.7900085449219 7.190000057220459
242.2400054931641 489.6799926757812 7.179999828338623
241.2200012207031 489.9100036621094 7.199999809265137
243.6900024414062 489.8800048828125 7.239999771118164
244.2299957275391 489.760009765625 7.170000076293945
244.8000030517578 489.6099853515625 7.170000076293945
243.1300048828125 490.0400085449219 7.110000133514404
247.2700042724609 489.6600036621094 7.079999923706055
246.1600036621094 489.9200134277344 6.650000095367432
246.6900024414062 489.7799987792969 7.199999809265137
249.25 489.8900146484375 7.340000152587891
250.2799987792969 489.6400146484375 7.230000019073486
249.7700042724609 489.739990234375 7.300000190734863
249.2799987792969 489.8999938964844 6.090000152587891
238.6499938964844 489.739990234375 6.920000076293945
240.2899932861328 489.3200073242188 6.5
239.1399993896484 489.6499938964844 6.480000019073486
239.6999969482422 489.510009765625 6.550000190734863
241.4400024414062 489.7000122070312 7.230000019073486
240.8699951171875 489.8299865722656 7.25
244.0700073242188 489.739990234375 7.159999847412109
243.5399932861328 489.8599853515625 7.300000190734863
247.2599945068359 489.7099914550781 7.03000020980835
246.2700042724609 489.9400024414062 7.440000057220459
246.0599975585938 490.010009765625 6.650000095367432
246.6999969482422 489.8299865722656 7.159999847412109
248.7599945068359 489.9800109863281 7.199999809265137
249.4499969482422 489.8500061035156 7.340000152587891
249.1199951171875 489.8800048828125 6.159999847412109
249.6100006103516 489.7900085449219 6.139999866485596
249.9499969482422 489.6799926757812 7.329999923706055
250.0700073242188 489.75 6.099999904632568
249.4900054931641 489.6300048828125 5.989999771118164
249.4600067138672 489.8299865722656 7.239999771118164
248.8399963378906 489.739990234375 6.670000076293945
248.0800018310547 489.9400024414062 7.300000190734863
248.1499938964844 489.6799926757812 6.300000190734863
247.5099945068359 489.7999877929688 7.170000076293945
246.9600067138672 489.7099914550781 6.760000228881836
246.2799987792969 489.8500061035156 7.389999866485596
245.5899963378906 489.7799987792969 7.090000152587891
245 489.7699890136719 6.75
244.3600006103516 489.7799987792969 6.489999771118164
243.6600036621094 489.8200073242188 7.260000228881836
242.8899993896484 489.7799987792969 6.800000190734863
242.1300048828125 490 7.110000133514404
241.5500030517578 489.8900146484375 7.119999885559082
240.8699951171875 489.7999877929688 6.489999771118164
240.1199951171875 489.6300048828125 6.510000228881836
240.2799987792969 489.0499877929688 6.46999979019165
239.9900054931641 490.0799865722656 6.96999979019165
239.5200042724609 489.260009765625 6.53000020980835
239.3500061035156 489.8800048828125 6.619999885559082
238.7100067138672 490.0799865722656 7.289999961853027
238.8300018310547 489.4299926757812 7.21999979019165
238.0500030517578 490.0400085449219 6.199999809265137
238.7799987792969 489.4200134277344 7.199999809265137
238.6799926757812 489.9700012207031 7.21999979019165
239.2700042724609 489.9299926757812 7.039999961853027
239.4100036621094 489.4200134277344 6.579999923706055
248.4400024414062 489.8500061035156 7.170000076293945
247.7599945068359 489.8399963378906 7.119999885559082
247.1499938964844 489.7699890136719 7.119999885559082
246.4700012207031 489.8200073242188 7.230000019073486
245.75 489.6900024414062 7.079999923706055
245.1100006103516 489.5899963378906 7.03000020980835
242.7899932861328 490.010009765625 7.190000057220459
242.1000061035156 490.0199890136719 7.25
241.4100036621094 490.0599975585938 7.28000020980835
240.0899963378906 489.5 6.550000190734863
250.0599975585938 489.7300109863281 7.309999942779541
249.4299926757812 489.8800048828125 5.989999771118164
249.5099945068359 489.5899963378906 7.309999942779541
248.7299957275391 490.0499877929688 7.210000038146973
248.8000030517578 489.8399963378906 6.449999809265137
248.0200042724609 489.8800048828125 7.230000019073486
247.3699951171875 489.8500061035156 7.289999961853027
246.8099975585938 489.6700134277344 7.309999942779541
246.75 490.0499877929688 6.570000171661377
246.1100006103516 489.8999938964844 6.760000228881836
245.4499969482422 489.8399963378906 7.079999923706055
244.8399963378906 489.8200073242188 7.139999866485596
244.3899993896484 489.6700134277344 7.199999809265137
243.7299957275391 489.9100036621094 6.570000171661377
243.0299987792969 489.7900085449219 7.050000190734863
242.4299926757812 489.7300109863281 7.179999828338623
241.8600006103516 489.8500061035156 6.329999923706055
241.2200012207031 489.8800048828125 6.989999771118164
239.9700012207031 489.4500122070312 6.559999942779541
239.8600006103516 490.0700073242188 6.71999979019165
239.3099975585938 489.7900085449219 6.71999979019165
239.4400024414062 489.2000122070312 6.579999923706055
238.6900024414062 489.739990234375 7.170000076293945
238.8099975585938 489.2300109863281 7.239999771118164
249.9299926757812 489.8900146484375 7.010000228881836
248.5700073242188 489.8900146484375 6.690000057220459
247.8899993896484 489.8200073242188 7.420000076293945
247 489.989990234375 6.480000019073486
247.0299987792969 489.7799987792969 7.369999885559082
246.3399963378906 489.739990234375 7.489999771118164
246.2899932861328 490.0199890136719 6.630000114440918
245.7100067138672 489.7000122070312 7.130000114440918
245.6600036621094 489.9500122070312 6.409999847412109
245.0500030517578 489.75 7.190000057220459
244.9700012207031 489.9500122070312 6.309999942779541
244.2200012207031 489.9400024414062 6.199999809265137
244.2400054931641 489.7799987792969 7.230000019073486
243.4799957275391 489.9700012207031 6.710000038146973
242.8200073242188 489.9500122070312 6.670000076293945
241.3699951171875 489.9299926757812 6.940000057220459
242.1199951171875 489.9599914550781 6.860000133514404
240.6699981689453 489.8999938964844 7.010000228881836
240.0399932861328 489.7999877929688 6.809999942779541
239.2799987792969 489.8999938964844 7.03000020980835
239.2200012207031 490.25 6.420000076293945
238.3999938964844 490.1000061035156 6.230000019073486
237.6699981689453 489.9599914550781 6.210000038146973
237.0099945068359 489.989990234375 6.210000038146973
248.0099945068359 489.7200012207031 6.340000152587891
248.8300018310547 489.9100036621094 7.309999942779541
248.5700073242188 489.8800048828125 6.420000076293945
248.3000030517578 489.7900085449219 7.170000076293945
246.3600006103516 489.8500061035156 7.329999923706055
246.1999969482422 489.8099975585938 6.110000133514404
246.6199951171875 489.9200134277344 6.579999923706055
245.8600006103516 489.7200012207031 7.059999942779541
245.3200073242188 489.6099853515625 6.960000038146973
243.3999938964844 489.7200012207031 7.179999828338623
243.9900054931641 489.8900146484375 7.150000095367432
239.9299926757812 489.5599975585938 6.539999961853027
241 489.8200073242188 6.980000019073486
239.2799987792969 489.4400024414062 6.570000171661377
241.5399932861328 489.9400024414062 7.179999828338623
238.7200012207031 489.2699890136719 6.599999904632568
239.0800018310547 490.010009765625 6.900000095367432
238.6300048828125 489.9299926757812 6.53000020980835
249.8300018310547 489.9200134277344 7.320000171661377
249.3200073242188 489.7799987792969 7.360000133514404
248.7700042724609 489.6499938964844 7.28000020980835
249.8999938964844 489.9299926757812 5.980000019073486
249.3600006103516 489.7900085449219 6.059999942779541
245.6699981689453 489.6700134277344 7.139999866485596
246.7200012207031 489.9200134277344 6.639999866485596
246.1799926757812 489.7699890136719 7.320000171661377
246.7200012207031 489.8999938964844 7.340000152587891
247.2200012207031 490.0199890136719 7.289999961853027
246.1900024414062 489.75 6.489999771118164
244.2299957275391 489.9800109863281 7.119999885559082
243.6900024414062 489.8399963378906 7.239999771118164
243.0899963378906 489.7099914550781 7.179999828338623
240.1199951171875 489.5799865722656 6.539999961853027
241.7299957275391 489.989990234375 7.150000095367432
239.5399932861328 489.4500122070312 6.559999942779541
241.1600036621094 489.8599853515625 7.239999771118164
239.0200042724609 489.2699890136719 6.570000171661377
238.5700073242188 489.8999938964844 7.179999828338623
239.1000061035156 490 7.190000057220459
249.9499969482422 489.6700134277344 7.409999847412109
247.6399993896484 489.7699890136719 7.179999828338623
248.1799926757812 489.9100036621094 7.159999847412109
248.7599945068359 490.0599975585938 7.139999866485596
245.5800018310547 489.9599914550781 6.21999979019165
245.8200073242188 489.989990234375 7.070000171661377
245.2799987792969 489.8900146484375 7.090000152587891
244.7100067138672 489.7200012207031 7.159999847412109
242.4799957275391 489.7999877929688 7.139999866485596
241.8500061035156 489.6600036621094 7.130000114440918
240.0200042724609 489.2000122070312 6.579999923706055
243.0200042724609 489.9500122070312 7.03000020980835
239.5200042724609 489.7699890136719 6.650000095367432
240.1799926757812 489.9400024414062 6.769999980926514
