385.3200073242188 227.6000061035156 4.289999961853027
385.9800109863281 227.8999938964844 4.690000057220459
386.6400146484375 227.7599945068359 4.300000190734863
387.5499877929688 231.5299987792969 4.610000133514404
387.4100036621094 230.8200073242188 4.679999828338623
387.7300109863281 229.2200012207031 4.75
387.8999938964844 229.8699951171875 4.699999809265137
387.3599853515625 227.7799987792969 3.559999942779541
387.3800048828125 227.9400024414062 4.739999771118164
387.5400085449219 228.6000061035156 4.650000095367432
387.7900085449219 228.3000030517578 4.760000228881836
387.6099853515625 229.9900054931641 4.710000038146973
387.510009765625 229.4499969482422 4.710000038146973
387.9200134277344 231.0800018310547 4.769999980926514
387.6400146484375 230.1100006103516 3.789999961853027
387.0700073242188 227.8600006103516 4.369999885559082
387.7999877929688 230.5899963378906 4.739999771118164
386.4700012207031 227.8800048828125 4.670000076293945
385.7900085449219 227.9199981689453 4.670000076293945
385.4400024414062 227.8899993896484 4.739999771118164
386.1499938964844 227.8800048828125 4.630000114440918
387.5400085449219 230.5500030517578 4.619999885559082
386.9200134277344 227.8899993896484 4.679999828338623
387.6900024414062 231.1600036621094 4.699999809265137
387.8699951171875 228.9700012207031 4.71999979019165
387.75 228.3800048828125 4.75
387.5899963378906 227.8699951171875 4.900000095367432
387.7799987792969 228.4700012207031 4.75
387.6199951171875 227.8200073242188 4.900000095367432
387.6499938964844 228.1300048828125 4.010000228881836
386.989990234375 228.0099945068359 4.289999961853027
387.5199890136719 230.1799926757812 4.730000019073486
387.6799926757812 230.8600006103516 4.710000038146973
386.4500122070312 227.9900054931641 4.619999885559082
385.7699890136719 227.9299926757812 3.730000019073486
385.2000122070312 227.9499969482422 4.769999980926514
385.9100036621094 227.8200073242188 4.739999771118164
387.5199890136719 228.0800018310547 4.78000020980835
387.4700012207031 228.6100006103516 4.050000190734863
387.5799865722656 229.2700042724609 3.480000019073486
387.6199951171875 229.2299957275391 4.71999979019165
387.5199890136719 229.9700012207031 3.970000028610229
387.6000061035156 230.6300048828125 4.539999961853027
387.5499877929688 231.2100067138672 3.640000104904175
385.2799987792969 227.6799926757812 4.820000171661377
387.3599853515625 227.9199981689453 4.739999771118164
386.7999877929688 228.0299987792969 4.75
387.6700134277344 228.4799957275391 4.75
387.760009765625 230.0399932861328 4.710000038146973
387.6000061035156 230.8300018310547 4.690000057220459
387.7099914550781 230.8000030517578 3.789999961853027
387.7999877929688 231.4900054931641 4.639999866485596
385.7200012207031 227.7799987792969 4.730000019073486
385.2200012207031 227.9299926757812 4.769999980926514
385.0599975585938 227.9499969482422 4.010000228881836
387.510009765625 228.0599975585938 4.730000019073486
387.6000061035156 228.8000030517578 4.699999809265137
387.7000122070312 229.4700012207031 4.840000152587891
385.25 228.0200042724609 3.940000057220459
386.2000122070312 227.7899932861328 4.570000171661377
385.6700134277344 227.9100036621094 4.800000190734863
385.3299865722656 227.7599945068359 4.289999961853027
385.9299926757812 227.8000030517578 4.460000038146973
386.5899963378906 227.8000030517578 4.5
387.3399963378906 227.8500061035156 4.679999828338623
387.7699890136719 229 4.679999828338623
387.5700073242188 229.6600036621094 4.75
387.8500061035156 230.8699951171875 4.730000019073486
385.9800109863281 227.8899993896484 4.679999828338623
386.5599975585938 227.9199981689453 4.679999828338623
387.1199951171875 227.9299926757812 4.690000057220459
387.5199890136719 229.1100006103516 4.75
387.7699890136719 228.0700073242188 4.800000190734863
387.6400146484375 228.6100006103516 4.769999980926514
387.8099975585938 230.3500061035156 4.679999828338623
387.7000122070312 230.9499969482422 4.739999771118164
387.5499877929688 231.4600067138672 4.619999885559082
385.1799926757812 227.6999969482422 4.75
385.8399963378906 227.7799987792969 4.730000019073486
386.6400146484375 227.6999969482422 4.739999771118164
387.3500061035156 227.6799926757812 4.789999961853027
387.739990234375 228.6600036621094 4.710000038146973
387.4599914550781 229.7400054931641 4.639999866485596
387.5899963378906 229.2200012207031 4.710000038146973
387.8900146484375 230.8699951171875 4.789999961853027
387.7799987792969 231.4100036621094 4.650000095367432
385.5499877929688 227.9499969482422 3.720000028610229
385.6099853515625 227.8300018310547 4.840000152587891
386.260009765625 228.0099945068359 4.099999904632568
386.9200134277344 228.0099945068359 4.420000076293945
387.4800109863281 228.4100036621094 4.110000133514404
387.5499877929688 228.0099945068359 4.760000228881836
387.8200073242188 229.8000030517578 4.690000057220459
387.6400146484375 230.4299926757812 4.610000133514404
387.4800109863281 231.0500030517578 4.630000114440918
387.510009765625 231.5800018310547 4.320000171661377
387.5799865722656 230.8800048828125 4.119999885559082
387.5700073242188 230.2700042724609 3.799999952316284
387.7200012207031 230.2599945068359 4.730000019073486
387.6499938964844 229.6799926757812 4.699999809265137
387.5199890136719 229.6699981689453 3.5
387.6099853515625 228.9600067138672 4.679999828338623
386.7900085449219 228 4.78000020980835
385.6900024414062 227.75 4.289999961853027
386.1700134277344 227.8399963378906 4.690000057220459
387.510009765625 228.1799926757812 4.510000228881836
387.6700134277344 227.9400024414062 4.880000114440918
387.2000122070312 227.7799987792969 4.769999980926514
385.2300109863281 228 4.760000228881836
385.8099975585938 228.1499938964844 4.739999771118164
387.6799926757812 229.2299957275391 4.710000038146973
387.8399963378906 230.0099945068359 4.75
387.5499877929688 230.6199951171875 4.559999942779541
387.8800048828125 231.3600006103516 4.659999847412109
387.6400146484375 231.3899993896484 4.570000171661377
387.489990234375 228.1699981689453 4.769999980926514
386.3599853515625 227.8999938964844 4.730000019073486
386.9100036621094 228 4.690000057220459
385.8099975585938 227.7599945068359 4.739999771118164
