417.8200073242188 113.0999984741211 3.809999942779541
417.8399963378906 111.0699996948242 3.859999895095825
417.8200073242188 108.1800003051758 4.480000019073486
417.8900146484375 108.4199981689453 3.779999971389771
418.0199890136719 106.1399993896484 4.389999866485596
418.2799987792969 104.4899978637695 3.259999990463257
417.989990234375 103.4100036621094 4.409999847412109
418.0299987792969 101.4899978637695 4.190000057220459
418.6300048828125 101.2600021362305 4.190000057220459
419.4400024414062 101.2900009155273 3.400000095367432
420.1199951171875 101.2699966430664 4.199999809265137
420.7999877929688 101.7399978637695 4.420000076293945
420.7200012207031 101.25 3.829999923706055
421.3999938964844 101.4499969482422 4.349999904632568
422.1099853515625 101.379997253418 4.179999828338623
421.8900146484375 101.5 4.349999904632568
421.3800048828125 101.5800018310547 4.309999942779541
420.7200012207031 101.5999984741211 4.289999961853027
419.8599853515625 101.25 4.260000228881836
420.0199890136719 101.7399978637695 3.819999933242798
419.2099914550781 101.3099975585938 4.230000019073486
418.6400146484375 101.3600006103516 4.25
417.9500122070312 104.1699981689453 4.5
418.0499877929688 104.7600021362305 3.549999952316284
417.8200073242188 103.629997253418 4.369999885559082
417.8500061035156 106.4499969482422 4.440000057220459
417.9800109863281 107.0199966430664 4.369999885559082
417.8599853515625 108.7699966430664 4.380000114440918
417.9700012207031 109.25 4.480000019073486
417.9100036621094 111.5199966430664 4.420000076293945
417.7300109863281 110.9599990844727 4.5
417.8099975585938 113.0899963378906 4.46999979019165
417.8099975585938 110.1800003051758 4.5
417.9700012207031 107.7600021362305 4.449999809265137
417.8599853515625 107.2399978637695 4.429999828338623
417.9800109863281 104.870002746582 4.460000038146973
417.9100036621094 104.7099990844727 3.690000057220459
417.989990234375 102.5999984741211 4.46999979019165
418.3900146484375 101.3199996948242 4.360000133514404
419.1199951171875 101.3099975585938 4.409999847412109
419.989990234375 101.6699981689453 4.039999961853027
419.8399963378906 101.1900024414062 4.380000114440918
421.3200073242188 101.5199966430664 3.920000076293945
420.6099853515625 101.6600036621094 3.220000028610229
420.6000061035156 101.5100021362305 4.179999828338623
419.9599914550781 101.629997253418 3.710000038146973
419.8500061035156 101.2900009155273 4.329999923706055
419.3900146484375 101.5400009155273 4.050000190734863
418.739990234375 101.5199966430664 3.650000095367432
418.0299987792969 101.5800018310547 4.050000190734863
418.1499938964844 104.6100006103516 3.599999904632568
417.8800048828125 103.5800018310547 4.360000133514404
417.9100036621094 108.4400024414062 4.389999866485596
417.7200012207031 110.6399993896484 3.670000076293945
417.6799926757812 112.9400024414062 3.559999942779541
417.760009765625 112.2799987792969 4.440000057220459
417.739990234375 112.2699966430664 3.130000114440918
418.2000122070312 112.1800003051758 3.450000047683716
417.7099914550781 111.7099990844727 4.059999942779541
417.6900024414062 111.0100021362305 3.900000095367432
417.7999877929688 110.2399978637695 4.230000019073486
417.7000122070312 109.4700012207031 3.839999914169312
417.7999877929688 108.8199996948242 4.179999828338623
417.6799926757812 108.1399993896484 3.859999895095825
417.8299865722656 107.3499984741211 4.230000019073486
417.6900024414062 106.6100006103516 3.900000095367432
417.8800048828125 105.9400024414062 4.25
417.75 105.2399978637695 4.159999847412109
417.7099914550781 104.4499969482422 3.5
417.7799987792969 103.6999969482422 4.159999847412109
417.7799987792969 103.0999984741211 3.529999971389771
421.1499938964844 101.5299987792969 4.360000133514404
421.489990234375 101.4400024414062 3.650000095367432
421.8599853515625 101.379997253418 4.170000076293945
417.8999938964844 102.3499984741211 4.28000020980835
418.8599853515625 101.3300018310547 4.349999904632568
417.7999877929688 101.5800018310547 3.839999914169312
418.1900024414062 101.5299987792969 4.420000076293945
418.7099914550781 101.5599975585938 4.28000020980835
418.1099853515625 101.6999969482422 4.349999904632568
419.760009765625 101.2900009155273 4.389999866485596
419.2000122070312 101.4300003051758 4.300000190734863
417.9200134277344 102.4400024414062 3.990000009536743
421.1799926757812 101.6600036621094 4.309999942779541
421.75 101.5100021362305 4.289999961853027
417.9100036621094 103.8099975585938 3.75
417.9599914550781 105.1999969482422 4.210000038146973
417.9100036621094 106.4599990844727 4.090000152587891
418 107.8099975585938 4.369999885559082
417.8599853515625 108.4300003051758 3.859999895095825
417.9500122070312 109.7600021362305 4.440000057220459
417.8900146484375 110.4199981689453 4.260000228881836
417.760009765625 111.0899963378906 3.670000076293945
418.0499877929688 111.6999969482422 4.449999809265137
417.8999938964844 112.4300003051758 4.21999979019165
417.8200073242188 113.129997253418 3.789999961853027
417.7200012207031 112.2699966430664 4.460000038146973
417.9200134277344 111.4199981689453 4.159999847412109
417.8399963378906 109.2600021362305 4.429999828338623
417.8200073242188 106.5599975585938 4.440000057220459
417.8299865722656 105.8499984741211 4.300000190734863
417.9400024414062 104.5100021362305 3.599999904632568
417.7300109863281 103.2699966430664 4.360000133514404
422.0700073242188 101.5599975585938 4.130000114440918
417.760009765625 102.629997253418 4.380000114440918
421.5400085449219 101.6500015258789 4.349999904632568
420.489990234375 101.3300018310547 4.340000152587891
419.9400024414062 101.4599990844727 4.320000171661377
419.4299926757812 101.6100006103516 4.320000171661377
417.8599853515625 102.0199966430664 4.449999809265137
421.0899963378906 101.1999969482422 4.309999942779541
417.9100036621094 101.3199996948242 4.400000095367432
418.4100036621094 101.1900024414062 4.400000095367432
418.0199890136719 101.7200012207031 3.759999990463257
418.8900146484375 101.5199966430664 4.320000171661377
419.4500122070312 101.3600006103516 4.269999980926514
422.0199890136719 101.379997253418 3.779999971389771
421.5400085449219 101.5100021362305 4.300000190734863
418 102.4000015258789 3.559999942779541
420.7999877929688 101.7099990844727 4.119999885559082
417.9500122070312 103.1500015258789 4.130000114440918
418.0599975585938 103.8399963378906 3.789999961853027
417.8900146484375 104.4300003051758 4.159999847412109
418.0199890136719 104.4300003051758 3.130000114440918
417.9599914550781 105.0599975585938 3.990000009536743
417.6499938964844 105.870002746582 4.090000152587891
417.8999938964844 105.8099975585938 3.299999952316284
417.9299926757812 106.4700012207031 4.289999961853027
417.9100036621094 107.0299987792969 3.740000009536743
417.9500122070312 107.6600036621094 3.509999990463257
417.8800048828125 112.8499984741211 4
417.8599853515625 112.25 4.21999979019165
417.9299926757812 111.6500015258789 3.269999980926514
417.9400024414062 110.9800033569336 3.839999914169312
417.8399963378906 110.2600021362305 4.329999923706055
417.9200134277344 109.5699996948242 3.240000009536743
417.7300109863281 109.5999984741211 4.239999771118164
417.9500122070312 109.0100021362305 3.740000009536743
417.8800048828125 108.3899993896484 4.039999961853027
417.9100036621094 101.3099975585938 4.320000171661377
417.9200134277344 104.5999984741211 3.710000038146973
418.6900024414062 101.3600006103516 4.260000228881836
419.3900146484375 101.3199996948242 4.239999771118164
417.9100036621094 107.2799987792969 4.329999923706055
417.9100036621094 109.6800003051758 4.440000057220459
417.760009765625 110.25 4.409999847412109
420.0199890136719 101.3000030517578 4.059999942779541
420.5899963378906 101.3000030517578 4.230000019073486
417.8999938964844 112.1699981689453 4.409999847412109
421.3299865722656 101.370002746582 4.190000057220459
421.9800109863281 101.370002746582 4.130000114440918
422.3299865722656 101.5400009155273 4.039999961853027
421.6099853515625 101.4800033569336 4.309999942779541
420.9400024414062 101.4899978637695 4.320000171661377
418 113.2399978637695 4.480000019073486
417.8399963378906 111.5800018310547 4.440000057220459
417.9800109863281 111.120002746582 4.46999979019165
417.6799926757812 112.1500015258789 4.46999979019165
420.3800048828125 101.4499969482422 4.309999942779541
417.7799987792969 109.3600006103516 4.449999809265137
417.8999938964844 108.8399963378906 4.46999979019165
419.8299865722656 101.3399963378906 4.309999942779541
417.9299926757812 106 4.449999809265137
417.8200073242188 106.5400009155273 4.460000038146973
419.1700134277344 101.2200012207031 4.289999961853027
417.8800048828125 103.8000030517578 4.389999866485596
417.7699890136719 104.379997253418 4.539999961853027
417.8800048828125 101.6500015258789 4.380000114440918
418.0299987792969 102.4300003051758 4.360000133514404
418.3299865722656 101.3199996948242 4.369999885559082
417.9100036621094 103.0699996948242 4.409999847412109
419.0299987792969 101.3300018310547 4.369999885559082
417.8699951171875 105.8300018310547 4.369999885559082
417.7699890136719 106.4000015258789 4.420000076293945
417.9500122070312 108.0699996948242 4.46999979019165
417.8200073242188 108.6100006103516 4.480000019073486
420.3599853515625 101.2799987792969 4.360000133514404
417.9200134277344 110.9599990844727 4.5
417.8099975585938 111.5500030517578 4.489999771118164
421.1499938964844 101.2300033569336 4.340000152587891
421.8200073242188 101.3399963378906 4.409999847412109
417.9299926757812 101.6399993896484 3.079999923706055
417.8999938964844 101.5599975585938 4.260000228881836
418.5599975585938 101.4199981689453 4.320000171661377
417.739990234375 107.6500015258789 4.110000133514404
419.2900085449219 101.3099975585938 4.420000076293945
419.2200012207031 101.5999984741211 3.569999933242798
420.7099914550781 101.5299987792969 4.03000020980835
417.7799987792969 110.8099975585938 3.799999952316284
420.0299987792969 101.5299987792969 3.819999933242798
421.3900146484375 101.4300003051758 4.380000114440918
417.7999877929688 113.3899993896484 4.239999771118164
417.7699890136719 112.6600036621094 3.420000076293945
417.7200012207031 111.9199981689453 3.740000009536743
417.7699890136719 111.3300018310547 4.170000076293945
417.8200073242188 110.6399993896484 3.190000057220459
417.8500061035156 110.620002746582 4.409999847412109
417.7699890136719 109.8000030517578 3.829999923706055
417.7900085449219 109.1600036621094 3.960000038146973
417.8200073242188 108.6100006103516 4.179999828338623
417.8900146484375 108.0299987792969 4.289999961853027
417.760009765625 107.2799987792969 3.730000019073486
417.760009765625 106.620002746582 3.839999914169312
417.7900085449219 106.0800018310547 4.159999847412109
417.8800048828125 105.4400024414062 4.210000038146973
417.7799987792969 104.7300033569336 3.519999980926514
417.8099975585938 104.1100006103516 3.660000085830688
417.8099975585938 103.5199966430664 4.050000190734863
417.9100036621094 102.8099975585938 4.369999885559082
417.8699951171875 102 3.569999933242798
418.2300109863281 101.4499969482422 4.360000133514404
417.8299865722656 101.3499984741211 3.819999933242798
419.7699890136719 101.25 4.150000095367432
420.3800048828125 101.4199981689453 4.300000190734863
422.1400146484375 101.8499984741211 3.210000038146973
421.0199890136719 101.5800018310547 4.340000152587891
421.9200134277344 101.7300033569336 4.039999961853027
420.2000122070312 101.3199996948242 4.320000171661377
420.75 101.4400024414062 4.329999923706055
421.2799987792969 101.5899963378906 4.360000133514404
418.5 101.5299987792969 4.360000133514404
417.9200134277344 101.3600006103516 4.309999942779541
418.0299987792969 102.8399963378906 4.519999980926514
417.9700012207031 103.5299987792969 4.369999885559082
417.9100036621094 104.1100006103516 4.159999847412109
417.9100036621094 104.7699966430664 3.430000066757202
417.8399963378906 113.2099990844727 4.309999942779541
417.8099975585938 111.25 3.829999923706055
417.7900085449219 110.6399993896484 3.799999952316284
417.9100036621094 109.9899978637695 4.389999866485596
417.8200073242188 107.5400009155273 3.730000019073486
417.8699951171875 106.9300003051758 4.199999809265137
417.989990234375 106.2900009155273 4.460000038146973
417.9100036621094 113.0800018310547 4.389999866485596
417.9700012207031 112.4400024414062 4.380000114440918
417.6900024414062 110.9800033569336 4.400000095367432
417.7699890136719 110.370002746582 4.5
417.8999938964844 109.7799987792969 4.349999904632568
417.739990234375 108.2699966430664 4.480000019073486
417.75 107.6399993896484 4.449999809265137
417.8500061035156 107.1100006103516 4.409999847412109
417.8200073242188 105.0599975585938 4.420000076293945
417.8900146484375 104.4599990844727 4.170000076293945
418.2799987792969 104.5699996948242 3.220000028610229
418.0499877929688 103.870002746582 4.400000095367432
417.7699890136719 102.4499969482422 4.360000133514404
417.9700012207031 101.879997253418 4.449999809265137
418.6700134277344 101.4000015258789 4.349999904632568
419.7099914550781 101.6600036621094 4.170000076293945
419.1799926757812 101.5599975585938 4.320000171661377
418.1300048828125 101.2799987792969 4.340000152587891
422.0199890136719 101.5400009155273 4.090000152587891
421.510009765625 101.4100036621094 4.360000133514404
420.9400024414062 101.2600021362305 4.329999923706055
417.9200134277344 110.4700012207031 3.619999885559082
417.8599853515625 111.0800018310547 4.079999923706055
417.8099975585938 111.6699981689453 4.429999828338623
417.8599853515625 112.3099975585938 3.920000076293945
417.8699951171875 112.9300003051758 4.130000114440918
417.8399963378906 109.7699966430664 4.449999809265137
417.9100036621094 109.0100021362305 3.609999895095825
417.7999877929688 108.370002746582 4.28000020980835
417.9400024414062 107.7900009155273 3.680000066757202
417.9100036621094 107.0800018310547 3.460000038146973
417.8800048828125 106.2900009155273 4.039999961853027
417.9200134277344 105.5100021362305 3.450000047683716
417.9299926757812 104.8899993896484 3.910000085830688
417.9500122070312 104.1900024414062 3.619999885559082
417.9599914550781 103.4400024414062 4.139999866485596
417.9400024414062 102.7900009155273 3.730000019073486
417.9500122070312 102.1800003051758 4.329999923706055
418.1099853515625 101.5 4.349999904632568
421.2000122070312 101.5 3.230000019073486
421.6900024414062 101.6399993896484 4.28000020980835
421.0400085449219 101.4700012207031 4.28000020980835
420.489990234375 101.3399963378906 4.369999885559082
419.7300109863281 101.1699981689453 4.230000019073486
