253.2899932861328 301.6900024414062 5.519999980926514
252.2599945068359 302.7999877929688 5.940000057220459
251.6699981689453 303.2799987792969 5.889999866485596
251.0599975585938 303.6600036621094 5.960000038146973
250.5500030517578 304.1000061035156 5.929999828338623
250.0099945068359 304.5499877929688 5.940000057220459
249.4199981689453 304.9299926757812 5.960000038146973
248.7899932861328 305.4700012207031 5.800000190734863
248.25 305.8800048828125 5.650000095367432
247.8099975585938 306.260009765625 5.619999885559082
247.25 306.6799926757812 5.820000171661377
246.6399993896484 307.239990234375 5.389999866485596
246.0299987792969 307.6700134277344 5.360000133514404
245.0299987792969 308.5400085449219 5.239999771118164
244.3899993896484 308.9400024414062 5.320000171661377
244.4700012207031 309.2999877929688 6.010000228881836
245.1699981689453 308.489990234375 5.760000228881836
244.6399993896484 309.010009765625 6.03000020980835
243.9400024414062 308.4400024414062 6.239999771118164
246.7799987792969 307.3999938964844 6.119999885559082
247.9299926757812 306.3500061035156 6.039999961853027
247.3399963378906 306.9100036621094 6.050000190734863
248.5299987792969 305.9500122070312 5.800000190734863
249 305.5 5.829999923706055
250.1199951171875 304.3800048828125 5.829999923706055
249.5200042724609 304.9200134277344 5.869999885559082
250.6499938964844 303.8399963378906 5.769999980926514
251.2700042724609 303.8699951171875 5.960000038146973
252.3600006103516 302.7000122070312 5.989999771118164
253.3999938964844 301.7099914550781 5.559999942779541
252.8899993896484 302.1700134277344 5.920000076293945
253.2700042724609 301.6499938964844 6.03000020980835
252.7100067138672 302.239990234375 5.980000019073486
250.9600067138672 303.5299987792969 6.03000020980835
250.3999938964844 304.1199951171875 5.929999828338623
249.9299926757812 304.75 5.670000076293945
249.2400054931641 304.8900146484375 6.039999961853027
249.3999938964844 305.3900146484375 5.25
248.6499938964844 305.6400146484375 5.860000133514404
248.8200073242188 306.0899963378906 5.340000152587891
247.5200042724609 306.2999877929688 6.190000057220459
246.9400024414062 306.9500122070312 6.110000133514404
246.3399963378906 307.6000061035156 6.139999866485596
245.1900024414062 308.2699890136719 6.130000114440918
244.6999969482422 308.9700012207031 6.119999885559082
253.0599975585938 302.1499938964844 5.699999809265137
252.3699951171875 302.3699951171875 5.96999979019165
251.8899993896484 303.0799865722656 5.630000114440918
251.3800048828125 303.3900146484375 6.070000171661377
250.7799987792969 303.6499938964844 6.150000095367432
250.8500061035156 304.0400085449219 5.619999885559082
250.1900024414062 304.4500122070312 5.909999847412109
249.6300048828125 304.739990234375 6.079999923706055
249.1999969482422 305.489990234375 5.949999809265137
248.5299987792969 305.6799926757812 6.110000133514404
248.0200042724609 306.3900146484375 5.849999904632568
247.4400024414062 306.7099914550781 6.059999942779541
247 307.1199951171875 5.170000076293945
246.4600067138672 307.5899963378906 6.010000228881836
245.8399963378906 308.0199890136719 5.320000171661377
245.3099975585938 308.510009765625 5.989999771118164
244.8399963378906 308.9200134277344 5.329999923706055
244.1199951171875 308.7900085449219 6.050000190734863
243.9799957275391 308.2799987792969 6.170000076293945
245.4900054931641 308.3800048828125 6.110000133514404
244.9600067138672 308.5 5.96999979019165
246.8999938964844 307.2200012207031 6.130000114440918
248.1999969482422 306.1600036621094 6.090000152587891
249.7100067138672 305.1400146484375 5.920000076293945
249.1399993896484 305.260009765625 5.869999885559082
250.5599975585938 304.1799926757812 5.849999904632568
249.9100036621094 304.3599853515625 5.860000133514404
251.0899963378906 304.0599975585938 5.940000057220459
251.8600006103516 303.1099853515625 6.070000171661377
252.7100067138672 302.1300048828125 5.880000114440918
253.1300048828125 301.9700012207031 6.019999980926514
252.6699981689453 302.1099853515625 6.019999980926514
251.9499969482422 302.9599914550781 6.070000171661377
251.3000030517578 303.7000122070312 5.71999979019165
250.7400054931641 303.8699951171875 5.949999809265137
250.1699981689453 303.9700012207031 5.949999809265137
249.9299926757812 304.7000122070312 5.860000133514404
250.4799957275391 304.5599975585938 5.710000038146973
249.3999938964844 304.8399963378906 5.929999828338623
248.6699981689453 305.760009765625 5.760000228881836
248.1499938964844 305.8699951171875 6
247.5299987792969 306.6799926757812 6.079999923706055
246.1399993896484 307.5199890136719 6.059999942779541
246.6999969482422 307.4100036621094 6.150000095367432
245.3699951171875 308.3599853515625 6.090000152587891
244.6699981689453 309.239990234375 5.989999771118164
244.1199951171875 309.239990234375 5.849999904632568
244.0500030517578 308.6000061035156 5.699999809265137
245.7700042724609 308.1600036621094 5.949999809265137
245.2599945068359 308.260009765625 6.159999847412109
246.8999938964844 307.1000061035156 6.070000171661377
248.8500061035156 305.8900146484375 5.440000057220459
247.8500061035156 306.1499938964844 6.099999904632568
248.9400024414062 305.3399963378906 6.03000020980835
249.4900054931641 305.2000122070312 5.579999923706055
250.0099945068359 304.3999938964844 6.019999980926514
250.4900054931641 304.239990234375 5.769999980926514
251.6499938964844 303.239990234375 5.96999979019165
251.1100006103516 303.3399963378906 6.079999923706055
253.1999969482422 302.1199951171875 5.940000057220459
252.6399993896484 302.2799987792969 5.980000019073486
252.8000030517578 302.1600036621094 5.670000076293945
251.9600067138672 302.8599853515625 5.570000171661377
251.0200042724609 303.6199951171875 5.650000095367432
250.8800048828125 304.1300048828125 6.010000228881836
250.1799926757812 304.3800048828125 5.539999961853027
250.0399932861328 304.8200073242188 5.929999828338623
249.3800048828125 304.9500122070312 5.849999904632568
248.4199981689453 305.8399963378906 5.539999961853027
247.4100036621094 306.8599853515625 6.110000133514404
246.6499938964844 307.2099914550781 5.570000171661377
246.5500030517578 307.5700073242188 6.190000057220459
245.8699951171875 307.9500122070312 5.789999961853027
245 308.7000122070312 5.860000133514404
244.1900024414062 308.739990234375 6.119999885559082
243.9199981689453 308.4599914550781 6.230000019073486
245.2299957275391 308.6499938964844 6.150000095367432
246.0700073242188 307.8800048828125 6.150000095367432
246.8399963378906 307.1099853515625 6.010000228881836
247.6000061035156 306.4299926757812 5.949999809265137
248.5200042724609 305.760009765625 5.949999809265137
249.3099975585938 305.0400085449219 5.929999828338623
249.9100036621094 304.8500061035156 5.860000133514404
250.0599975585938 304.25 5.909999847412109
250.7799987792969 303.9299926757812 5.940000057220459
251.6199951171875 303.260009765625 5.96999979019165
253.2200012207031 301.7300109863281 5.860000133514404
252.4499969482422 302.4500122070312 6.010000228881836
252.8600006103516 302.2099914550781 5.989999771118164
252.0899963378906 302.6199951171875 6.039999961853027
251.1900024414062 303.6000061035156 5.849999904632568
250.4499969482422 304 6.039999961853027
250.3200073242188 304.4700012207031 5.789999961853027
249.2899932861328 305.3999938964844 5.599999904632568
249.4600067138672 304.8599853515625 5.949999809265137
248.5399932861328 305.6799926757812 5.889999866485596
247.75 306.6300048828125 6.159999847412109
246.9499969482422 307.0299987792969 6.090000152587891
246.0200042724609 307.8200073242188 6.130000114440918
245.1799926757812 308.7200012207031 6.090000152587891
245.2899932861328 308.1099853515625 6.269999980926514
244.4700012207031 308.9500122070312 6.170000076293945
244.0099945068359 308.3099975585938 6.239999771118164
253.2299957275391 301.8599853515625 5.960000038146973
252.5399932861328 302.4500122070312 5.789999961853027
251.8899993896484 302.989990234375 5.880000114440918
251.0099945068359 304.0799865722656 5.519999980926514
251.1000061035156 303.6600036621094 5.920000076293945
250.1799926757812 304.6499938964844 5.559999942779541
250.2899932861328 304.1799926757812 6.039999961853027
249.4799957275391 304.8900146484375 5.96999979019165
249.3800048828125 305.4599914550781 5.710000038146973
248.6600036621094 306.0700073242188 5.75
248.7899932861328 305.489990234375 5.960000038146973
247.9600067138672 306.2000122070312 6.019999980926514
247.0899963378906 306.8099975585938 6.110000133514404
246.3000030517578 307.4599914550781 6.099999904632568
245.5399932861328 308.1300048828125 6.099999904632568
244.8000030517578 308.7300109863281 6.159999847412109
244.1199951171875 308.7799987792969 6.380000114440918
244.5099945068359 309.1600036621094 6.070000171661377
245.0599975585938 308.5299987792969 5.889999866485596
245.8899993896484 308.0599975585938 6.119999885559082
246.4600067138672 307.5599975585938 6.130000114440918
246.9100036621094 306.9599914550781 5.71999979019165
247.9700012207031 306.3599853515625 6.139999866485596
248.4499969482422 305.8099975585938 5.920000076293945
248.9799957275391 305.3200073242188 5.639999866485596
249.8899993896484 304.8900146484375 5.940000057220459
250.3600006103516 304.2099914550781 5.889999866485596
250.8999938964844 303.6499938964844 5.570000171661377
251.3500061035156 303.7799987792969 5.920000076293945
251.6399993896484 303.2099914550781 6.070000171661377
252.1600036621094 302.6799926757812 5.900000095367432
253.0899963378906 302.1199951171875 5.96999979019165
252.4299926757812 302.5799865722656 6.050000190734863
251.5500030517578 303.0700073242188 6.090000152587891
251.1699981689453 303.75 5.869999885559082
250.8500061035156 304.3200073242188 5.710000038146973
250.3800048828125 304.1799926757812 5.96999979019165
250.0299987792969 304.6499938964844 5.840000152587891
249.6999969482422 305.2099914550781 5.650000095367432
249.1300048828125 305.0400085449219 6.019999980926514
248.7299957275391 305.6600036621094 5.840000152587891
247.5299987792969 306.5599975585938 6.079999923706055
247.1499938964844 307.1099853515625 6.210000038146973
246.3000030517578 307.5700073242188 6.110000133514404
245.2700042724609 308.5700073242188 6.090000152587891
244.3399963378906 309.0499877929688 6.199999809265137
244.1100006103516 309.0199890136719 6.300000190734863
244.5899963378906 309.1400146484375 5.880000114440918
245.0899963378906 308.5899963378906 6.099999904632568
243.8899993896484 308.2699890136719 6.139999866485596
245.7899932861328 308 5.289999961853027
246.4400024414062 307.4400024414062 6.099999904632568
247.1999969482422 306.9599914550781 5.53000020980835
247.6699981689453 306.4299926757812 6
248.6600036621094 305.9299926757812 5.690000057220459
249 305.3399963378906 5.96999979019165
249.4100036621094 305.4700012207031 5.409999847412109
249.8500061035156 304.8999938964844 5.489999771118164
249.4799957275391 304.8099975585938 6.070000171661377
250.3800048828125 304.3500061035156 5.880000114440918
251.2899932861328 303.8299865722656 5.570000171661377
250.8500061035156 303.6700134277344 6.110000133514404
251.6900024414062 303.25 5.920000076293945
252.0399932861328 302.6799926757812 6.110000133514404
252.9400024414062 302.2200012207031 5.809999942779541
