338.7000122070312 189.2400054931641 4.820000171661377
339.3900146484375 189.1600036621094 4.21999979019165
340.1099853515625 189.2299957275391 4.739999771118164
340.8200073242188 189.3399963378906 4.960000038146973
340.8099975585938 189.1699981689453 4.03000020980835
341.4400024414062 189.4700012207031 4.019999980926514
341.3699951171875 189.1900024414062 4.71999979019165
342.0499877929688 189.1999969482422 3.930000066757202
342.7999877929688 189.2799987792969 4.340000152587891
343.4400024414062 189.25 4.800000190734863
344.6700134277344 189.2599945068359 4.769999980926514
345.4599914550781 189.4299926757812 4.940000057220459
346.7799987792969 189.4700012207031 4.53000020980835
347.489990234375 189.6100006103516 4.730000019073486
348.3099975585938 189.8899993896484 4.46999979019165
348.1900024414062 189.4400024414062 4.079999923706055
348.8800048828125 189.3600006103516 4.690000057220459
356.1400146484375 204.3999938964844 5.150000095367432
356.2799987792969 202.1300048828125 5.150000095367432
356.1400146484375 201.5099945068359 5.059999942779541
355.8099975585938 200.1900024414062 5.139999866485596
355.9599914550781 197.8000030517578 3.990000009536743
356.0700073242188 198.1600036621094 4.670000076293945
353.8099975585938 189.3800048828125 4.300000190734863
356.3399963378906 199.3000030517578 4.980000019073486
356.1799926757812 198.6100006103516 5.099999904632568
356.4299926757812 196.9400024414062 4.929999828338623
356.1099853515625 195.6399993896484 5.019999980926514
356.2999877929688 196.3200073242188 4.840000152587891
354.510009765625 189.4400024414062 4.639999866485596
356.2300109863281 193.8399963378906 5.320000171661377
356.4100036621094 194.6100006103516 4.949999809265137
356.2799987792969 193.0399932861328 5.269999980926514
356.4200134277344 193.6199951171875 5.25
356.1499938964844 192.4799957275391 5.369999885559082
356.2300109863281 195.5099945068359 4.880000114440918
354.75 189.5500030517578 4.599999904632568
356.3800048828125 196.0299987792969 4.860000133514404
354.2000122070312 189.6699981689453 4.699999809265137
356.2000122070312 197.7200012207031 5.039999961853027
355.8200073242188 196.1600036621094 5.170000076293945
356.0799865722656 197.1900024414062 5.230000019073486
356.3699951171875 198.3099975585938 4.960000038146973
353.6000061035156 189.7899932861328 4.820000171661377
356.2799987792969 200.6100006103516 5.139999866485596
356.4299926757812 201.1600036621094 5.119999885559082
356.1400146484375 200.1300048828125 5.070000171661377
352.8599853515625 189.4600067138672 4.699999809265137
356.0799865722656 202.4900054931641 5.070000171661377
356.2200012207031 203.0899963378906 5.150000095367432
356.3599853515625 203.6399993896484 5.159999847412109
352.2999877929688 189.7200012207031 4.789999961853027
352.1799926757812 189.3699951171875 3.730000019073486
351.7099914550781 189.4100036621094 4.659999847412109
348.760009765625 189.5200042724609 4.199999809265137
348.1300048828125 189.6699981689453 4.789999961853027
347.3800048828125 189.5 3.75
346.7799987792969 189.5899963378906 4.71999979019165
345.9299926757812 189.3399963378906 4.369999885559082
345.239990234375 189.5500030517578 4.880000114440918
345.2200012207031 189.6300048828125 4.03000020980835
339.2000122070312 189.5599975585938 4.940000057220459
339.0899963378906 189.0099945068359 4.789999961853027
339.8099975585938 189.2899932861328 4.71999979019165
340.4299926757812 189.1100006103516 4.639999866485596
341.1199951171875 189.4900054931641 3.960000038146973
341.1400146484375 189.4199981689453 4.949999809265137
341.6300048828125 189.1799926757812 4.860000133514404
342.3099975585938 189.3899993896484 4.900000095367432
342.3299865722656 189.4600067138672 3.930000066757202
343 189.1799926757812 4.699999809265137
343.7999877929688 189.5099945068359 4.869999885559082
344.4400024414062 189.3500061035156 4.340000152587891
339 189.3699951171875 4.630000114440918
339.739990234375 189.3000030517578 4.170000076293945
340.3200073242188 189.2700042724609 4.130000114440918
341.0599975585938 189.3000030517578 4.079999923706055
341.8399963378906 189.3800048828125 4.489999771118164
342.5199890136719 189.3399963378906 4.059999942779541
343.1600036621094 189.3800048828125 4.059999942779541
343.8299865722656 189.4799957275391 3.839999914169312
344.6000061035156 189.4199981689453 4.019999980926514
345.2900085449219 189.5200042724609 4.71999979019165
345.9200134277344 189.4700012207031 4.309999942779541
346.6600036621094 189.4900054931641 4.110000133514404
347.3999938964844 189.4799957275391 3.970000028610229
348.0700073242188 189.4900054931641 4.269999980926514
348.25 190.1300048828125 4.53000020980835
348.7200012207031 189.6100006103516 4.730000019073486
349.3800048828125 189.5700073242188 4.550000190734863
350.1400146484375 189.5599975585938 4.519999980926514
350.7799987792969 189.4799957275391 4.5
350.8500061035156 189.7599945068359 5.949999809265137
350.6900024414062 189.1799926757812 5.960000038146973
351.2699890136719 189.2400054931641 5.429999828338623
351.9700012207031 189.3000030517578 5.559999942779541
352.0599975585938 189.6399993896484 4.480000019073486
356.3999938964844 204.1900024414062 5.139999866485596
356.2300109863281 203.6399993896484 5.170000076293945
356.1099853515625 203.0399932861328 5.179999828338623
356.2099914550781 200.8200073242188 5.179999828338623
356.3699951171875 201.3899993896484 5.090000152587891
353.4500122070312 189.6399993896484 4.5
356.1600036621094 198.1300048828125 4.789999961853027
356.3999938964844 199.2100067138672 4.980000019073486
356.260009765625 198.6699981689453 4.960000038146973
354.0799865722656 189.7700042724609 4.760000228881836
356.2699890136719 195.9700012207031 4.840000152587891
356.1499938964844 195.3699951171875 4.929999828338623
356.1900024414062 192.7200012207031 5.309999942779541
356.4299926757812 193.8200073242188 5.170000076293945
356.3099975585938 193.3000030517578 5.179999828338623
356.5499877929688 191.5299987792969 5.230000019073486
356.1400146484375 189.8600006103516 4.650000095367432
355.9800109863281 189.2799987792969 4.550000190734863
356.4200134277344 190.9900054931641 5.179999828338623
356.2999877929688 190.4199981689453 4.849999904632568
356.0599975585938 189.8099975585938 4.320000171661377
356.5299987792969 191.6100006103516 5.340000152587891
356.3999938964844 191.0399932861328 5.519999980926514
356.3500061035156 190.8200073242188 5.019999980926514
355.9800109863281 189.3200073242188 4.679999828338623
356.1499938964844 192.8899993896484 5.340000152587891
355.3999938964844 189.7599945068359 4.559999942779541
356.0599975585938 195.1499938964844 4.900000095367432
354.7300109863281 189.6399993896484 4.760000228881836
356.2200012207031 195.7200012207031 4.78000020980835
356.1199951171875 197.6300048828125 5.110000133514404
355.8299865722656 196.3600006103516 5.360000133514404
356.2900085449219 198.1499938964844 4.849999904632568
353.5700073242188 189.8099975585938 4.739999771118164
356.4299926757812 201.3000030517578 5.010000228881836
356.1099853515625 200.0299987792969 5.119999885559082
356.2300109863281 200.7100067138672 5.179999828338623
352.7900085449219 189.5899963378906 4.739999771118164
356.1799926757812 203.2700042724609 5.239999771118164
356.010009765625 202.4799957275391 5.119999885559082
356.3099975585938 203.8200073242188 5.099999904632568
352.1400146484375 189.4499969482422 4.760000228881836
351.6400146484375 189.7400054931641 4.679999828338623
351.5499877929688 189.3099975585938 5.130000114440918
350.9599914550781 189.5399932861328 6.010000228881836
350.9800109863281 189.5800018310547 4.789999961853027
350.25 189.6399993896484 4.03000020980835
350.239990234375 189.4100036621094 4.980000019073486
349.6199951171875 189.4199981689453 5.260000228881836
349.6300048828125 189.6900024414062 4.440000057220459
339.1300048828125 189.2200012207031 4.840000152587891
339.6900024414062 189.4499969482422 4.5
340.3200073242188 189.4199981689453 4.210000038146973
340.260009765625 189.0099945068359 4.769999980926514
340.9700012207031 189.3600006103516 4.849999904632568
341.5700073242188 189.3999938964844 4.480000019073486
342.0400085449219 189.3300018310547 4.809999942779541
342.0599975585938 189.5800018310547 3.960000038146973
342.6199951171875 189.4799957275391 4.639999866485596
343.3299865722656 189.5399932861328 4.03000020980835
343.9500122070312 189.4499969482422 4.699999809265137
344.510009765625 189.5899963378906 4.28000020980835
345.1799926757812 189.6799926757812 4.369999885559082
345.8599853515625 189.5299987792969 4.820000171661377
346.4800109863281 189.5800018310547 4.690000057220459
347.0700073242188 189.6300048828125 4.21999979019165
347.75 189.6300048828125 4.309999942779541
348.4800109863281 189.7599945068359 4.119999885559082
349.0599975585938 189.5099945068359 4.75
355.989990234375 204.1199951171875 4.960000038146973
356.1400146484375 203.4100036621094 4.400000095367432
356.1499938964844 202.75 4.170000076293945
356.3299865722656 202.7400054931641 5.150000095367432
356.2999877929688 202.2200012207031 5.079999923706055
356.260009765625 201.6399993896484 5.099999904632568
356.1400146484375 201 5.039999961853027
356.1600036621094 199.75 4.320000171661377
356.1199951171875 200.3200073242188 4.800000190734863
356.1400146484375 199.1199951171875 4
356.0700073242188 198.4900054931641 3.869999885559082
355.7300109863281 197.9799957275391 4.389999866485596
356.1900024414062 198.4700012207031 5.090000152587891
355.8999938964844 197.3500061035156 4.010000228881836
356.0199890136719 197.3500061035156 5.090000152587891
356.0400085449219 196.0299987792969 4.949999809265137
356.0599975585938 196.6900024414062 4.929999828338623
356.1199951171875 195.3200073242188 4.260000228881836
356.1499938964844 194.1000061035156 3.789999961853027
356.1900024414062 194.7700042724609 3.970000028610229
356.4100036621094 192.1399993896484 5.5
356.3500061035156 191.5200042724609 5.449999809265137
356.4200134277344 192.6999969482422 5.5
356.3200073242188 190.8099975585938 5.429999828338623
356.3800048828125 190.1399993896484 4.78000020980835
356.1000061035156 190.2299957275391 3.829999923706055
355.8500061035156 189.7700042724609 4.579999923706055
356.3900146484375 189.6399993896484 4.78000020980835
355.260009765625 189.8800048828125 4.539999961853027
354.760009765625 189.3899993896484 3.930000066757202
355.1900024414062 189.2799987792969 4.360000133514404
353.7699890136719 189.6300048828125 4.789999961853027
353.2300109863281 189.7799987792969 4.550000190734863
354.3800048828125 189.5200042724609 4.869999885559082
351.1000061035156 189.6799926757812 6.130000114440918
352.0899963378906 189.4100036621094 3.799999952316284
351.5400085449219 189.5500030517578 5.050000190734863
350.6700134277344 189.7599945068359 5.75
346.6900024414062 189.5399932861328 4.360000133514404
347.3500061035156 189.4100036621094 4.21999979019165
350.1099853515625 189.2700042724609 5.190000057220459
349.7000122070312 189.3399963378906 4.619999885559082
349.0799865722656 189.5299987792969 4.699999809265137
348.3999938964844 189.6699981689453 4.760000228881836
345.4100036621094 189.2299957275391 4.320000171661377
344.2799987792969 189.5200042724609 3.920000076293945
344.6400146484375 189.4299926757812 4.639999866485596
342.0599975585938 189.3899993896484 4.760000228881836
341.7099914550781 189.4400024414062 3.990000009536743
342.6199951171875 189.2200012207031 4.800000190734863
340.0599975585938 189.2899932861328 4.860000133514404
339.4500122070312 189.4299926757812 4.769999980926514
340.739990234375 189.1100006103516 4.840000152587891
338.8500061035156 189.3899993896484 4.869999885559082
339.9599914550781 189.1199951171875 4.869999885559082
339.3800048828125 189.2700042724609 4.840000152587891
342.3500061035156 189.2299957275391 4.889999866485596
341.2999877929688 189.4799957275391 4.960000038146973
341.8900146484375 189.3800048828125 4.940000057220459
344.239990234375 189.3899993896484 4.71999979019165
343.7200012207031 189.5 4.900000095367432
344.8500061035156 189.2100067138672 4.380000114440918
346.6900024414062 189.4499969482422 4.690000057220459
346.1199951171875 189.6000061035156 4.900000095367432
347.2900085449219 189.3000030517578 4.079999923706055
348.5599975585938 189.7400054931641 4.789999961853027
349.0700073242188 189.5899963378906 4.679999828338623
349.7300109863281 189.4499969482422 4.559999942779541
351.4100036621094 189.6799926757812 6.099999904632568
351.5199890136719 189.6600036621094 4.710000038146973
352.010009765625 189.5 5.550000190734863
352.1300048828125 189.5200042724609 4.869999885559082
352.75 189.3800048828125 3.869999885559082
350.8599853515625 189.8000030517578 5.840000152587891
352.239990234375 189.5 3.839999914169312
354.4800109863281 189.5099945068359 4.679999828338623
353.8900146484375 189.6600036621094 4.809999942779541
353.3699951171875 189.75 4.769999980926514
355 189.3699951171875 4.230000019073486
356.1099853515625 190.5500030517578 3.930000066757202
356.4700012207031 190.4100036621094 4.860000133514404
356.4200134277344 191.7299957275391 5.360000133514404
356.2999877929688 193.2100067138672 5.340000152587891
356.3800048828125 194.5399932861328 4.960000038146973
355.9100036621094 196.1600036621094 4.980000019073486
356.3800048828125 196.0200042724609 4.880000114440918
356.1600036621094 196.7899932861328 4.860000133514404
356.3599853515625 197.3699951171875 5.050000190734863
356.0400085449219 198.1999969482422 4.519999980926514
356.2999877929688 198.9299926757812 5
355.7699890136719 200.4100036621094 5.25
356.3200073242188 200.2599945068359 5.059999942779541
356.0499877929688 201.0899963378906 4.989999771118164
356.5700073242188 200.9299926757812 5.150000095367432
356.2900085449219 201.75 5.139999866485596
356.0899963378906 202.5500030517578 4.96999979019165
356.3399963378906 203.0700073242188 5.21999979019165
355.9700012207031 203.8500061035156 5.159999847412109
356.2799987792969 204.4400024414062 5.150000095367432
356.010009765625 204.3800048828125 5.239999771118164
356.2300109863281 202.0899963378906 5.099999904632568
356.2000122070312 201.4799957275391 5.059999942779541
356.1700134277344 200.7400054931641 5.269999980926514
356.4599914550781 199.8500061035156 4.75
356.3099975585938 199.1100006103516 4.809999942779541
356.2300109863281 198.4700012207031 5.019999980926514
356.2300109863281 197.8200073242188 5.03000020980835
356.0199890136719 197.8500061035156 3.930000066757202
355.8699951171875 197.1199951171875 3.829999923706055
356.1400146484375 197.0599975585938 5.159999847412109
355.8699951171875 195.7700042724609 4.46999979019165
356.3099975585938 194.2400054931641 4.710000038146973
356.2799987792969 193.6000061035156 5.099999904632568
356.2699890136719 193.0200042724609 5.25
356.5400085449219 191.5399932861328 5.150000095367432
356.3299865722656 190.3200073242188 4.800000190734863
356.1400146484375 190.3300018310547 3.730000019073486
356.5199890136719 190.8300018310547 5.239999771118164
352.8599853515625 189.7599945068359 4.75
356.2699890136719 189.6600036621094 4.800000190734863
351.9599914550781 189.2700042724609 3.759999990463257
351.5199890136719 189.3699951171875 4.21999979019165
351.7999877929688 189.3500061035156 5.679999828338623
351.0499877929688 189.5 4.739999771118164
350.5299987792969 189.6300048828125 4.900000095367432
350.7699890136719 189.6000061035156 6.070000171661377
348.760009765625 190.0299987792969 4.519999980926514
353.9500122070312 189.4900054931641 4.619999885559082
353.4100036621094 189.6600036621094 4.800000190734863
347.739990234375 189.6799926757812 4.889999866485596
346.9599914550781 189.8399963378906 4.059999942779541
348.25 189.5700073242188 4.809999942779541
346.3699951171875 189.3200073242188 4.329999923706055
347.4299926757812 189.0800018310547 3.869999885559082
345.3800048828125 189.5500030517578 4.880000114440918
345.2000122070312 189.5899963378906 4.03000020980835
346.9299926757812 189.1600036621094 4.199999809265137
345.8900146484375 189.4499969482422 4.690000057220459
343.5799865722656 189.3000030517578 4.869999885559082
342.5400085449219 189.5299987792969 5.019999980926514
341.7799987792969 189.7200012207031 3.910000085830688
343.010009765625 189.4400024414062 4.880000114440918
340.6700134277344 189.3300018310547 4.840000152587891
341.1799926757812 189.1799926757812 4.849999904632568
340.1499938964844 189.4499969482422 4.920000076293945
338.7799987792969 189.1399993896484 4.730000019073486
338.9100036621094 189.0500030517578 4.630000114440918
338.6400146484375 189.1199951171875 5.389999866485596
340.2300109863281 189.3800048828125 4.869999885559082
340.8900146484375 189.2100067138672 4.840000152587891
339.7799987792969 189.4900054931641 3.970000028610229
342.0700073242188 189.4799957275391 4.869999885559082
341.5899963378906 189.6100006103516 3.890000104904175
342.6400146484375 189.3500061035156 4.829999923706055
342.239990234375 189.4700012207031 3.930000066757202
350.8299865722656 189.4499969482422 5.960000038146973
355.3299865722656 189.6300048828125 4.760000228881836
356.4500122070312 189.3800048828125 4.340000152587891
356 189.4700012207031 4.699999809265137
356.4200134277344 190.1100006103516 4.739999771118164
356.4400024414062 190.7599945068359 4.730000019073486
356.4200134277344 191.3500061035156 5.260000228881836
356.6099853515625 191.3099975585938 4.199999809265137
356.3399963378906 192.0099945068359 5.28000020980835
356.5299987792969 191.9700012207031 4.269999980926514
356.2799987792969 192.7299957275391 5.320000171661377
356.4800109863281 192.6999969482422 4.340000152587891
356.2200012207031 193.3399963378906 5.309999942779541
356.4500122070312 193.3000030517578 4.320000171661377
356.3999938964844 193.7799987792969 4.659999847412109
356.3900146484375 194.3999938964844 3.480000019073486
356.3099975585938 194.3800048828125 4.800000190734863
356.2699890136719 195.1699981689453 4.849999904632568
356.1799926757812 195.8600006103516 4.550000190734863
356.0599975585938 196.4400024414062 4.570000171661377
356.3200073242188 196.3999938964844 3.680000066757202
356.3200073242188 197.0700073242188 5.179999828338623
356.3699951171875 197.0399932861328 3.970000028610229
356 197.1499938964844 4.519999980926514
356.1900024414062 197.8699951171875 5.019999980926514
356.3599853515625 197.8099975585938 4
356.3399963378906 198.5500030517578 3.960000038146973
356.2300109863281 198.5399932861328 5.159999847412109
356.3399963378906 199.2400054931641 4.070000171661377
356.239990234375 199.2100067138672 5.190000057220459
356.3800048828125 199.9499969482422 4.340000152587891
356.2000122070312 200.7700042724609 5.21999979019165
356.4599914550781 200.6900024414062 4.400000095367432
356.1199951171875 201.4600067138672 5.239999771118164
356.3999938964844 201.4100036621094 4.5
356.4100036621094 201.9700012207031 4.610000133514404
356.3900146484375 202.6499938964844 4.949999809265137
356.3900146484375 203.3899993896484 4.920000076293945
356.3399963378906 204.1000061035156 4.860000133514404
356.3599853515625 204.6499938964844 4.929999828338623
338.6600036621094 189.3099975585938 5.78000020980835
338.6900024414062 189.1600036621094 4.699999809265137
339.4200134277344 189.1499938964844 3.880000114440918
339.3900146484375 189.3500061035156 4.920000076293945
340.1199951171875 189.1699981689453 4.440000057220459
341.4200134277344 189.1600036621094 3.779999971389771
341.4100036621094 189.3399963378906 4.889999866485596
342.1499938964844 189.2100067138672 3.930000066757202
342.1000061035156 189.4600067138672 4.949999809265137
342.7999877929688 189.2599945068359 4.170000076293945
343.4500122070312 189.3200073242188 4.590000152587891
344.1000061035156 189.3999938964844 4.860000133514404
345.6000061035156 189.2200012207031 4.679999828338623
346.1700134277344 189.4199981689453 4.869999885559082
346.6600036621094 189.8600006103516 4.099999904632568
347.5400085449219 189.4199981689453 4.590000152587891
348.239990234375 189.4799957275391 4.510000228881836
356.4100036621094 191.3699951171875 5.349999904632568
356.2000122070312 192.0099945068359 5.289999961853027
356.2999877929688 194.1799926757812 4.940000057220459
355.8699951171875 195.9600067138672 5.179999828338623
356.1400146484375 194.8399963378906 4.920000076293945
355.9800109863281 195.4700012207031 4.900000095367432
356.510009765625 193.4499969482422 5.079999923706055
356.0799865722656 198.0299987792969 5.159999847412109
356.239990234375 197.4499969482422 5.079999923706055
356.3200073242188 197.0200042724609 4.760000228881836
356.1499938964844 197.8800048828125 4.170000076293945
356.5199890136719 196.3699951171875 4.739999771118164
356.2200012207031 200 5.059999942779541
356.3900146484375 199.4400024414062 4.909999847412109
356.2099914550781 202.6000061035156 5.139999866485596
356.3599853515625 201.9600067138672 5.090000152587891
356.5 201.3800048828125 5.059999942779541
356.0700073242188 203.1600036621094 5.309999942779541
356.3299865722656 204.7100067138672 4.840000152587891
338.7999877929688 189.0599975585938 4.659999847412109
339.4100036621094 189.1699981689453 4.849999904632568
340.1300048828125 189.3399963378906 3.920000076293945
340.1600036621094 189.2599945068359 4.829999923706055
340.739990234375 189.4900054931641 4.949999809265137
342.1199951171875 189.3699951171875 3.859999895095825
342.8599853515625 189.3399963378906 4.710000038146973
343.5199890136719 189.4299926757812 4.889999866485596
344.1799926757812 189.4900054931641 4.829999923706055
344.8599853515625 189.5800018310547 4.789999961853027
345.7200012207031 189.2100067138672 4.289999961853027
346.3800048828125 189.3300018310547 4.349999904632568
346.9100036621094 189.8699951171875 4.110000133514404
347.0199890136719 189.3500061035156 4.059999942779541
347.5899963378906 189.75 4.880000114440918
348.3399963378906 189.9600067138672 4.5
348.4500122070312 189.4499969482422 4.079999923706055
351.9500122070312 189.6000061035156 4.760000228881836
351.9500122070312 189.4900054931641 5.519999980926514
352.5400085449219 189.8200073242188 4.800000190734863
352.6799926757812 189.3800048828125 3.839999914169312
353.3299865722656 189.4400024414062 3.849999904632568
354.0499877929688 189.6100006103516 4.71999979019165
354.7099914550781 189.6999969482422 4.690000057220459
356.260009765625 190.9299926757812 5.380000114440918
356.4100036621094 192.6799926757812 5.170000076293945
356.1300048828125 193.75 5.28000020980835
356.2699890136719 193.2100067138672 5.269999980926514
356.3900146484375 194.8999938964844 4.880000114440918
356.239990234375 195.4299926757812 4.869999885559082
355.9599914550781 196.5099945068359 5.170000076293945
356.1199951171875 196.0500030517578 4.900000095367432
356.1499938964844 198.1999969482422 4.690000057220459
356.4299926757812 197.0500030517578 4.869999885559082
356.2699890136719 197.5899963378906 5.010000228881836
355.5799865722656 200.2899932861328 5.199999809265137
356.239990234375 200.25 5.050000190734863
356.1000061035156 200.8200073242188 5.179999828338623
356.3900146484375 199.7599945068359 5.019999980926514
356 203.6399993896484 5.210000038146973
356.1600036621094 203.1100006103516 5.130000114440918
356.25 202.5700073242188 5.130000114440918
356.3800048828125 202.0599975585938 5.159999847412109
338.8399963378906 189.4400024414062 4.340000152587891
339.6300048828125 189.2299957275391 4.829999923706055
340.3800048828125 189.3200073242188 4.78000020980835
341.0199890136719 189.3999938964844 4.25
341.0400085449219 189.5200042724609 4.929999828338623
341.6499938964844 189.4100036621094 4.090000152587891
342.4299926757812 189.3000030517578 4.889999866485596
343.1700134277344 189.4400024414062 4.599999904632568
343.8999938964844 189.4900054931641 3.990000009536743
345.2000122070312 189.4600067138672 4.860000133514404
345.989990234375 189.6100006103516 4.769999980926514
345.989990234375 189.4799957275391 4.110000133514404
346.6600036621094 189.5700073242188 4.050000190734863
347.2999877929688 189.6600036621094 3.809999942779541
347.4200134277344 189.2299957275391 4.21999979019165
348.0199890136719 189.5500030517578 4.710000038146973
348.760009765625 189.7200012207031 4.650000095367432
350.1600036621094 189.4799957275391 4.769999980926514
350.8099975585938 189.8800048828125 5.840000152587891
350.8299865722656 189.6499938964844 4.590000152587891
350.9100036621094 189.3699951171875 6.190000057220459
351.5799865722656 189.9100036621094 4.960000038146973
351.7000122070312 189.4299926757812 5.46999979019165
353 189.4799957275391 4.78000020980835
353.6499938964844 189.6199951171875 4.789999961853027
354.4500122070312 189.6499938964844 4.539999961853027
355.1600036621094 189.7299957275391 4.599999904632568
355.7900085449219 189.8699951171875 4.539999961853027
355.9500122070312 189.2700042724609 4.389999866485596
356.4500122070312 189.9700012207031 4.860000133514404
356.3200073242188 190.4900054931641 4.869999885559082
356.2300109863281 193.9900054931641 5.239999771118164
355.8399963378906 195.6900024414062 5.230000019073486
356.3699951171875 193.4299926757812 5.25
356.239990234375 196.6699981689453 4.840000152587891
355.8699951171875 198.1999969482422 4.03000020980835
356.3699951171875 196.1399993896484 4.849999904632568
356.4599914550781 198.3699951171875 4.980000019073486
356.1900024414062 199.4400024414062 4.989999771118164
356.0400085449219 200.0700073242188 5.170000076293945
356.2900085449219 198.9600067138672 5.019999980926514
356.3099975585938 201.8699951171875 5.130000114440918
356.3999938964844 201.3399963378906 5.099999904632568
356.0299987792969 202.9299926757812 5.130000114440918
356.1199951171875 202.4100036621094 5.110000133514404
356.3699951171875 204.75 5.170000076293945
339.1799926757812 189.3800048828125 4.630000114440918
339.8800048828125 189.3899993896484 4.380000114440918
340.5599975585938 189.1600036621094 4.940000057220459
340.4599914550781 189.4400024414062 4.059999942779541
341.0899963378906 189.2100067138672 4.929999828338623
341.0299987792969 189.4799957275391 4.070000171661377
341.6499938964844 189.25 4.929999828338623
341.6499938964844 189.4900054931641 4.130000114440918
342.3900146484375 189.2899932861328 4.900000095367432
342.3699951171875 189.5399932861328 3.970000028610229
342.9400024414062 189.6499938964844 3.900000095367432
343.0299987792969 189.3399963378906 4.730000019073486
343.5599975585938 189.4700012207031 4.769999980926514
344.2099914550781 189.5 4.539999961853027
344.8999938964844 189.5800018310547 4.25
345.5899963378906 189.5200042724609 4.710000038146973
346.1300048828125 189.5599975585938 4.480000019073486
346.7099914550781 189.6799926757812 4.199999809265137
347.4400024414062 189.4499969482422 4.789999961853027
347.4200134277344 189.6499938964844 3.940000057220459
347.9700012207031 189.6399993896484 4.550000190734863
348.4800109863281 189.6799926757812 4.400000095367432
349.1700134277344 189.5800018310547 4.71999979019165
349.0799865722656 189.6999969482422 6.380000114440918
349.8399963378906 189.6799926757812 4.5
349.8999938964844 189.3899993896484 5.28000020980835
350.5 189.5399932861328 4.75
350.4700012207031 189.4299926757812 6.010000228881836
351 189.6300048828125 6.010000228881836
350.9599914550781 189.6699981689453 4.909999847412109
351.5599975585938 189.7200012207031 4.320000171661377
352.3500061035156 189.4600067138672 4.800000190734863
352.25 189.8899993896484 4.320000171661377
353.0199890136719 189.4100036621094 5.070000171661377
352.9100036621094 189.8000030517578 4.590000152587891
353.5700073242188 189.4900054931641 4.920000076293945
354.1199951171875 189.6900024414062 4.690000057220459
354.75 189.8099975585938 4.570000171661377
355.4200134277344 189.6300048828125 4.71999979019165
356.010009765625 189.7400054931641 4.5
356.239990234375 191.1799926757812 5.400000095367432
355.7699890136719 196.0099945068359 5.150000095367432
356.239990234375 194.0500030517578 5.260000228881836
356.3999938964844 193.4499969482422 5.409999847412109
356.1300048828125 194.5 4.78000020980835
356.1499938964844 196.9400024414062 4.980000019073486
356.3399963378906 196.2200012207031 4.940000057220459
355.8999938964844 198.0700073242188 4.559999942779541
355.8299865722656 200.5599975585938 5.199999809265137
356.1799926757812 199.0899963378906 4.96999979019165
356.0400085449219 199.7200012207031 4.840000152587891
356.3299865722656 198.4600067138672 5.010000228881836
355.9100036621094 202.7599945068359 4.960000038146973
356.1900024414062 201.4600067138672 5.050000190734863
356.3599853515625 200.9299926757812 5.269999980926514
356.0299987792969 202.1600036621094 5.039999961853027
356.3299865722656 203.8699951171875 5.139999866485596
356.2099914550781 204.5399932861328 5.130000114440918
356.1499938964844 204.5500030517578 4.199999809265137
356.2999877929688 204.5700073242188 5.329999923706055
356.3099975585938 203.75 5.199999809265137
356.0899963378906 202.9900054931641 5.059999942779541
356.1300048828125 202.3899993896484 4.590000152587891
356.3699951171875 201.6699981689453 5.150000095367432
356.260009765625 200.7899932861328 5.170000076293945
356.0899963378906 200.0299987792969 4.820000171661377
356.1600036621094 199.3699951171875 4.369999885559082
356.25 198.7400054931641 5.130000114440918
356.1900024414062 197.9199981689453 5.110000133514404
355.9800109863281 197.1499938964844 5.110000133514404
355.8800048828125 196.4499969482422 5.079999923706055
355.6900024414062 195.7299957275391 5.199999809265137
356.1499938964844 195.8500061035156 4.170000076293945
356.2999877929688 194.4100036621094 4.829999923706055
356.1499938964844 194.3600006103516 3.660000085830688
339.1400146484375 189.5099945068359 5
341.5199890136719 189.4199981689453 4.909999847412109
341.9400024414062 189.5099945068359 3.900000095367432
340.8599853515625 189.2200012207031 4.909999847412109
340.3699951171875 189.1100006103516 4.710000038146973
344.7799987792969 189.3699951171875 4.590000152587891
344.2900085449219 189.25 4.309999942779541
345.260009765625 189.4499969482422 4.929999828338623
345.8699951171875 189.6499938964844 4.909999847412109
346.7999877929688 189.8699951171875 4.239999771118164
356.2900085449219 191.4100036621094 5.420000076293945
348.5899963378906 189.5700073242188 4.170000076293945
350.8800048828125 189.3999938964844 6.090000152587891
350.5199890136719 189.3500061035156 5.420000076293945
348.9700012207031 189.6199951171875 4.730000019073486
347.3599853515625 189.25 4.130000114440918
347.9200134277344 189.3600006103516 4.21999979019165
356.1000061035156 190.7400054931641 4.010000228881836
356.1900024414062 190.75 5.360000133514404
348.3500061035156 189.4700012207031 4.789999961853027
353.9200134277344 189.4700012207031 4.630000114440918
356.1499938964844 190.0399932861328 3.900000095367432
356.3299865722656 190.0899963378906 4.849999904632568
354.7900085449219 189.5299987792969 4.550000190734863
355.260009765625 189.6499938964844 4.769999980926514
356.4200134277344 189.9600067138672 4.78000020980835
356.1900024414062 190.6000061035156 3.910000085830688
352.8299865722656 189.7799987792969 4.760000228881836
351.2200012207031 189.3699951171875 4.559999942779541
352.2699890136719 189.6499938964844 4.820000171661377
349.8399963378906 189.6600036621094 4.71999979019165
349.2900085449219 189.4799957275391 4.800000190734863
356.2200012207031 191.2299957275391 5.380000114440918
350.8299865722656 189.8899993896484 5.760000228881836
356.4400024414062 191.9799957275391 5.389999866485596
346.8500061035156 189.5700073242188 4.809999942779541
346.3099975585938 189.4400024414062 4.519999980926514
345.7999877929688 189.3099975585938 4.309999942779541
348.4200134277344 189.9600067138672 4.539999961853027
347.3500061035156 189.6900024414062 4.849999904632568
343.7799987792969 189.5500030517578 4.949999809265137
342.6900024414062 189.3000030517578 4.809999942779541
343.2099914550781 189.4199981689453 4.820000171661377
356.3099975585938 193.4199981689453 5.320000171661377
340.2099914550781 189.3999938964844 4.840000152587891
340.7699890136719 189.5399932861328 4.96999979019165
339.7300109863281 189.3000030517578 4.829999923706055
339.1199951171875 189.1300048828125 4.849999904632568
356.25 194.7200012207031 4.909999847412109
356.4400024414062 195.5200042724609 4.860000133514404
356.25 196.1600036621094 4.710000038146973
356.0799865722656 197.5 5.159999847412109
355.7200012207031 197.3399963378906 3.839999914169312
356.2900085449219 198.2899932861328 4.96999979019165
355.8900146484375 198.1900024414062 3.910000085830688
356.2900085449219 199.5899963378906 4.960000038146973
355.9200134277344 200.1199951171875 5.190000057220459
356.1400146484375 200.9199981689453 5.03000020980835
356.3699951171875 201.7100067138672 5.170000076293945
356.0700073242188 202.2400054931641 5
356.2200012207031 202.9499969482422 5.110000133514404
356.3599853515625 203.7200012207031 5.159999847412109
356.1499938964844 204.2899932861328 5.090000152587891
356.2099914550781 204.2100067138672 5.170000076293945
356.3200073242188 203.6000061035156 5.079999923706055
356.0799865722656 201.5399932861328 5.170000076293945
356.260009765625 200.9100036621094 5.130000114440918
356.2799987792969 200.1799926757812 5.010000228881836
356.3200073242188 199.5500030517578 4.949999809265137
356.3599853515625 198.9700012207031 4.829999923706055
356.4400024414062 198.3800048828125 4.809999942779541
355.8900146484375 197.4299926757812 3.990000009536743
356.0899963378906 197.5099945068359 5.239999771118164
356.0299987792969 196.7700042724609 5.159999847412109
356.0199890136719 195.5899963378906 4.71999979019165
356.1799926757812 194.1900024414062 4.920000076293945
356.1799926757812 193.5299987792969 5.309999942779541
338.5899963378906 189.1300048828125 5.539999961853027
338.9700012207031 189.2299957275391 4.820000171661377
339.510009765625 189.3699951171875 4.849999904632568
341.9200134277344 189.2599945068359 4.840000152587891
342.3900146484375 189.3800048828125 4.849999904632568
342.9700012207031 189.4900054931641 4.900000095367432
356.2799987792969 192.8699951171875 5.230000019073486
345.7900085449219 189.4700012207031 4.760000228881836
345.2200012207031 189.3300018310547 4.690000057220459
346.3200073242188 189.6199951171875 4.869999885559082
346.760009765625 189.7299957275391 3.990000009536743
356.2900085449219 192.1199951171875 5.159999847412109
348.489990234375 190.1399993896484 4.570000171661377
356.3399963378906 191.4400024414062 5.230000019073486
347.3399963378906 189.1900024414062 4.079999923706055
349.1000061035156 189.6300048828125 4.650000095367432
347.9700012207031 189.3800048828125 4.800000190734863
348.489990234375 189.4900054931641 4.46999979019165
351.0299987792969 189.4799957275391 6.179999828338623
351.2900085449219 189.5599975585938 4.800000190734863
351.5599975585938 189.6199951171875 6.119999885559082
351.9400024414062 189.7400054931641 4.929999828338623
356.3800048828125 190.8600006103516 4.900000095367432
353.6700134277344 189.5 4.860000133514404
356.4500122070312 190.1799926757812 4.739999771118164
353.1799926757812 189.3399963378906 4.889999866485596
355.9599914550781 189.2700042724609 4.329999923706055
356.4500122070312 189.8699951171875 4.570000171661377
355.25 189.5299987792969 4.769999980926514
355.8500061035156 189.7200012207031 4.679999828338623
356.2200012207031 190.3999938964844 4.960000038146973
352.3699951171875 189.4600067138672 5.369999885559082
353.4299926757812 189.75 4.659999847412109
351.6400146484375 189.3200073242188 5.389999866485596
356.5199890136719 190.5099945068359 4.309999942779541
356.6000061035156 191.0899963378906 4.230000019073486
351.7699890136719 189.8500061035156 5.039999961853027
350.8599853515625 189.6399993896484 4.489999771118164
356.4100036621094 191.0299987792969 5.130000114440918
351.5799865722656 189.8300018310547 6.03000020980835
350.8500061035156 189.6900024414062 5.96999979019165
356.3399963378906 191.5700073242188 4.710000038146973
348.9599914550781 189.7400054931641 4.690000057220459
347.8500061035156 189.4600067138672 3.799999952316284
348.3599853515625 189.6100006103516 4.78000020980835
348.4700012207031 189.6199951171875 3.690000057220459
346.7099914550781 189.2100067138672 4.239999771118164
347.3999938964844 189.3699951171875 4.199999809265137
345.7099914550781 189.6600036621094 4.78000020980835
344.3500061035156 189.3500061035156 4.739999771118164
345.4299926757812 189.6000061035156 4.190000057220459
356.3999938964844 192.3399963378906 4.820000171661377
345.1199951171875 189.5299987792969 4.809999942779541
356.3800048828125 192.9799957275391 4.46999979019165
342.6900024414062 189.5599975585938 3.920000076293945
342.5 189.5299987792969 4.820000171661377
341.7900085449219 189.3600006103516 4.739999771118164
342.1600036621094 189.4299926757812 4.150000095367432
341.1900024414062 189.2299957275391 4.829999923706055
356.2200012207031 193.6399993896484 5.309999942779541
356.3999938964844 193.6300048828125 4.210000038146973
338.6499938964844 189.2400054931641 5.03000020980835
339.2300109863281 189.3699951171875 4.769999980926514
339.6400146484375 189.4499969482422 4.150000095367432
339.8999938964844 189.5299987792969 4.71999979019165
356.3200073242188 194.2899932861328 3.829999923706055
356.0400085449219 195.6600036621094 5.349999904632568
356.3200073242188 195.7400054931641 4.519999980926514
355.989990234375 196.2400054931641 4.710000038146973
356.3099975585938 196.2899932861328 3.980000019073486
356.2900085449219 196.9600067138672 3.829999923706055
356.0400085449219 196.9100036621094 4.75
356.3599853515625 198.3899993896484 4.599999904632568
356.2000122070312 198.9199981689453 5.070000171661377
356.3299865722656 198.9400024414062 3.900000095367432
356.1900024414062 199.4900054931641 4.989999771118164
356.2900085449219 200.1900024414062 4.96999979019165
356.4400024414062 200.8300018310547 4.840000152587891
356.2999877929688 201.3999938964844 4.389999866485596
356.2999877929688 201.9799957275391 4.050000190734863
356.1900024414062 201.9400024414062 5.21999979019165
356.239990234375 202.6699981689453 5.079999923706055
356.260009765625 203.2200012207031 4.5
356.2900085449219 203.75 4.179999828338623
356.1600036621094 203.7599945068359 5.230000019073486
356.2300109863281 204.4400024414062 5.050000190734863
