354.6900024414062 397.3599853515625 4.710000038146973
355.4400024414062 397.4200134277344 4.960000038146973
356.0599975585938 397.1700134277344 4.639999866485596
356.7699890136719 397.3800048828125 4.639999866485596
357.510009765625 397.5599975585938 4.829999923706055
357.3900146484375 397.0599975585938 4.639999866485596
357.8800048828125 396.010009765625 4.800000190734863
358 396.5599975585938 4.869999885559082
358.1700134277344 397.1700134277344 4.900000095367432
358.0299987792969 391.3299865722656 4.840000152587891
357.8599853515625 390.7999877929688 4.71999979019165
358.1700134277344 391.8800048828125 4.960000038146973
358.0499877929688 388.6700134277344 4.860000133514404
357.8900146484375 388.1000061035156 4.809999942779541
358.1600036621094 389.2300109863281 4.900000095367432
357.9200134277344 385.4700012207031 4.820000171661377
358.0499877929688 386.0199890136719 4.840000152587891
358.2000122070312 386.5299987792969 4.920000076293945
358.3299865722656 387.1400146484375 4.980000019073486
357.9500122070312 382.8800048828125 4.789999961853027
358.2300109863281 384.010009765625 4.889999866485596
358.3299865722656 384.5700073242188 4.880000114440918
358.0599975585938 383.3999938964844 4.849999904632568
357.989990234375 380.7900085449219 4.909999847412109
358.1499938964844 381.4100036621094 4.96999979019165
357.8599853515625 380.2699890136719 4.820000171661377
358.1099853515625 378.6700134277344 5.159999847412109
358.1600036621094 379.0199890136719 3.910000085830688
358.4800109863281 380.1400146484375 4.139999866485596
358.3099975585938 379.5199890136719 4.130000114440918
367.8399963378906 397.5299987792969 4.329999923706055
369.1199951171875 397.5199890136719 4.289999961853027
370.989990234375 397.5 4.360000133514404
372.2000122070312 397.510009765625 4.340000152587891
374.760009765625 402.3900146484375 4.960000038146973
374.8800048828125 402.9599914550781 5.050000190734863
374.6499938964844 401.8299865722656 5.070000171661377
374.9100036621094 400.2799987792969 5.039999961853027
374.7900085449219 399.7200012207031 4.889999866485596
375.5199890136719 397.5799865722656 3.839999914169312
376.2699890136719 397.6400146484375 4.28000020980835
376.9200134277344 397.5599975585938 3.589999914169312
377.5299987792969 397.6499938964844 4.159999847412109
378.1900024414062 397.7099914550781 4.300000190734863
378.0599975585938 397.1900024414062 4.159999847412109
378.8699951171875 397.4599914550781 3.839999914169312
352.6600036621094 397.3699951171875 4.989999771118164
353.2900085449219 397.4299926757812 4.400000095367432
354.0400085449219 397.6499938964844 4.769999980926514
354.7200012207031 397.1900024414062 4.800000190734863
354.8299865722656 397.6900024414062 4.239999771118164
355.3900146484375 397.2000122070312 4.989999771118164
356.0400085449219 397.3399963378906 4.699999809265137
356.7300109863281 397.4200134277344 4.699999809265137
357.510009765625 397.4800109863281 4.840000152587891
358.0400085449219 396.9500122070312 4.929999828338623
357.8999938964844 396.4100036621094 4.940000057220459
358.0700073242188 394.4200134277344 4.909999847412109
358.2099914550781 395 4.980000019073486
357.9400024414062 393.9100036621094 4.96999979019165
358.2999877929688 395.5199890136719 4.949999809265137
359.4400024414062 397.1799926757812 5.260000228881836
358.1400146484375 391.8900146484375 4.880000114440918
357.9700012207031 391.3099975585938 4.900000095367432
357.8299865722656 390.8299865722656 4.960000038146973
358.0700073242188 388.7099914550781 4.929999828338623
358.2300109863281 386.6199951171875 4.869999885559082
358.010009765625 385.5400085449219 4.889999866485596
358.1000061035156 386.0599975585938 4.889999866485596
357.8500061035156 385.010009765625 4.829999923706055
361.5499877929688 397.4400024414062 4.409999847412109
357.8599853515625 382.4299926757812 4.929999828338623
357.9599914550781 382.9800109863281 4.860000133514404
358.2300109863281 384.0499877929688 4.889999866485596
358.0899963378906 383.4500122070312 4.909999847412109
357.9200134277344 379.8200073242188 4.960000038146973
357.7900085449219 379.3099975585938 4.989999771118164
362.3099975585938 397.4800109863281 4.449999809265137
358.4200134277344 381.8999938964844 4.110000133514404
358.3299865722656 381.4200134277344 3.880000114440918
358.1700134277344 380.9100036621094 5.019999980926514
358.2000122070312 380.9100036621094 3.869999885559082
358.0299987792969 380.3699951171875 3.930000066757202
358.0400085449219 380.3900146484375 5
365.010009765625 397.3800048828125 4.360000133514404
365.7699890136719 397.4500122070312 4.389999866485596
369.0400085449219 397.3599853515625 4.340000152587891
370.4200134277344 397.5 4.380000114440918
371.1900024414062 397.5199890136719 4.360000133514404
371.8999938964844 397.489990234375 4.139999866485596
374.7900085449219 400.8299865722656 4.889999866485596
374.9200134277344 401.3800048828125 4.980000019073486
374.7099914550781 397.6400146484375 4.309999942779541
376.5599975585938 397.3800048828125 4.480000019073486
377.2300109863281 397.3299865722656 4.309999942779541
377.7200012207031 397.010009765625 4.119999885559082
379.489990234375 398.3399963378906 4.260000228881836
379.3399963378906 397.7200012207031 4.289999961853027
349.0499877929688 397.5299987792969 4.900000095367432
349.7099914550781 397.5400085449219 4.340000152587891
350.2900085449219 397.3299865722656 5.159999847412109
350.9100036621094 397.4500122070312 4.78000020980835
351.5799865722656 397.4599914550781 4.690000057220459
352.2699890136719 397.510009765625 4.300000190734863
352.8900146484375 397.5299987792969 4.03000020980835
352.8699951171875 397.2799987792969 4.949999809265137
353.4100036621094 397.4299926757812 4.730000019073486
354.0199890136719 397.4599914550781 4.630000114440918
354.7200012207031 397.5599975585938 4.260000228881836
355.3399963378906 397.3099975585938 4.940000057220459
355.3699951171875 397.6000061035156 3.980000019073486
355.8999938964844 397.4700012207031 4.809999942779541
356.5599975585938 397.4599914550781 4.760000228881836
357.2300109863281 397.4800109863281 4.650000095367432
357.8800048828125 397.510009765625 4.309999942779541
357.7699890136719 397.0799865722656 4.889999866485596
358.260009765625 396.6799926757812 4.769999980926514
357.9500122070312 395.5299987792969 4.869999885559082
358.1000061035156 396.1199951171875 4.860000133514404
358.0199890136719 393.0799865722656 4.829999923706055
357.8999938964844 392.5899963378906 4.96999979019165
358.1499938964844 393.7099914550781 4.800000190734863
358.2900085449219 394.3200073242188 4.880000114440918
359.8599853515625 397.6799926757812 5.769999980926514
360.989990234375 397.5 4.340000152587891
357.7099914550781 378.7000122070312 4.730000019073486
357.8999938964844 379.4299926757812 4.960000038146973
358.0299987792969 379.9599914550781 4.900000095367432
358.1600036621094 380.5599975585938 4.849999904632568
358.1000061035156 380.2699890136719 4.039999961853027
358.2099914550781 380.8099975585938 3.869999885559082
363.5799865722656 397.489990234375 4.349999904632568
366.1400146484375 397.6400146484375 4.300000190734863
368.1199951171875 397.5400085449219 4.21999979019165
368.739990234375 397.7200012207031 4.28000020980835
370.6900024414062 397.6199951171875 4.349999904632568
371.25 397.6300048828125 4.210000038146973
373.2200012207031 397.5299987792969 4.389999866485596
374.75 401.5199890136719 4.989999771118164
374.9200134277344 402.0599975585938 4.949999809265137
373.7999877929688 397.6600036621094 4.28000020980835
375.7099914550781 397.5 4.28000020980835
376.260009765625 397.6000061035156 3.759999990463257
377.5799865722656 397.5799865722656 4.289999961853027
378.0400085449219 397.1400146484375 4.039999961853027
378.1600036621094 397.5599975585938 3.75
378.6300048828125 397.3099975585938 3.890000104904175
379.260009765625 397.5700073242188 4.199999809265137
379.4200134277344 398.1199951171875 4.110000133514404
374.7200012207031 401.4700012207031 5.03000020980835
374.8999938964844 400.7300109863281 5.099999904632568
379.3299865722656 398.3500061035156 4.389999866485596
379.2699890136719 397.6499938964844 3.730000019073486
377.9500122070312 397.239990234375 4.150000095367432
376.5799865722656 397.5899963378906 4.460000038146973
374.7000122070312 398.0400085449219 4.230000019073486
378.6300048828125 397.0799865722656 4.050000190734863
374.0799865722656 397.4800109863281 4.300000190734863
371.2000122070312 397.5700073242188 4.289999961853027
368.7999877929688 397.5 4.349999904632568
357.8399963378906 397.4100036621094 4.690000057220459
358.3399963378906 397.2900085449219 4.909999847412109
358.4299926757812 396.5199890136719 4.860000133514404
358.010009765625 396.6199951171875 4.489999771118164
357.989990234375 395.8900146484375 4.760000228881836
358.0700073242188 395.260009765625 4.880000114440918
358.2699890136719 393.6600036621094 4.860000133514404
358.0199890136719 393.7099914550781 3.829999923706055
358.3099975585938 392.9400024414062 4.869999885559082
358.0400085449219 393.0199890136719 3.920000076293945
358.3699951171875 392.2699890136719 4.940000057220459
357.9200134277344 392.3800048828125 4.440000057220459
357.9800109863281 391.6499938964844 4.559999942779541
358.010009765625 390.7900085449219 4.599999904632568
357.9700012207031 390.0899963378906 4.639999866485596
358.0400085449219 389.4299926757812 4.809999942779541
358.1199951171875 388.739990234375 4.860000133514404
358.2300109863281 387.9200134277344 4.849999904632568
357.9299926757812 387.3200073242188 4.289999961853027
358.239990234375 387.239990234375 4.900000095367432
357.9700012207031 386.6900024414062 4.460000038146973
358 386.0199890136719 4.679999828338623
358.0199890136719 385.2999877929688 4.78000020980835
357.9599914550781 384.6099853515625 4.829999923706055
358.1400146484375 383.9800109863281 4.889999866485596
358.0799865722656 383.3500061035156 5.010000228881836
357.9200134277344 382.5799865722656 4.25
357.9200134277344 381.8999938964844 4.039999961853027
357.9200134277344 381.2999877929688 4.53000020980835
357.8900146484375 380.6000061035156 4.519999980926514
357.9599914550781 379.8200073242188 4.75
357.3099975585938 379.2099914550781 6.21999979019165
357.9700012207031 379.0599975585938 6.329999923706055
357.9299926757812 379.0199890136719 4.829999923706055
357.989990234375 378.7900085449219 4.860000133514404
358.3800048828125 379.3399963378906 4.110000133514404
357.8099975585938 379.4500122070312 4.769999980926514
358.0499877929688 380.1099853515625 4.820000171661377
357.8599853515625 380.9400024414062 4.789999961853027
358.1400146484375 381.5499877929688 4.900000095367432
357.9299926757812 382.1799926757812 4.659999847412109
358.1499938964844 382.7699890136719 4.78000020980835
357.8800048828125 383.510009765625 4.739999771118164
358.1900024414062 384.1099853515625 4.820000171661377
357.9200134277344 384.7099914550781 4.880000114440918
358.1900024414062 385.260009765625 4.860000133514404
358.0700073242188 386.010009765625 4.630000114440918
358.3599853515625 386.5799865722656 4.960000038146973
357.7900085449219 386.75 4.760000228881836
358.1199951171875 387.25 4.909999847412109
357.8599853515625 388.0299987792969 4.730000019073486
358.25 388.739990234375 4.860000133514404
358.0700073242188 389.4800109863281 4.739999771118164
357.9700012207031 390.1700134277344 4.71999979019165
358.4400024414062 390.0199890136719 5.019999980926514
358.1799926757812 390.8399963378906 4.889999866485596
358.1300048828125 391.6700134277344 4.710000038146973
358.1199951171875 393.8399963378906 4.75
357.989990234375 394.5499877929688 4.670000076293945
358.3099975585938 395.1499938964844 4.949999809265137
357.8500061035156 395.3099975585938 4.769999980926514
358.1900024414062 395.7999877929688 4.800000190734863
358.3800048828125 396.4200134277344 4.920000076293945
357.8699951171875 396.5700073242188 4.78000020980835
354.1600036621094 397.4599914550781 4.659999847412109
355.1900024414062 397.239990234375 4.909999847412109
354.6700134277344 397.3399963378906 4.769999980926514
357.6900024414062 397.3200073242188 4.849999904632568
357.1300048828125 397.4200134277344 4.730000019073486
358.2200012207031 397.1799926757812 4.909999847412109
356.6300048828125 397.5899963378906 4.139999866485596
361.5299987792969 397.5299987792969 4.429999828338623
362.6700134277344 397.2300109863281 3.900000095367432
362.1000061035156 397.3699951171875 4.449999809265137
364.5199890136719 397.4200134277344 4.380000114440918
367.0700073242188 397.5499877929688 4.400000095367432
370.1199951171875 397.5299987792969 4.429999828338623
372.5599975585938 397.5400085449219 4.329999923706055
373.0899963378906 397.3999938964844 4.480000019073486
375.5700073242188 397.510009765625 4.179999828338623
377.8200073242188 396.9400024414062 4.099999904632568
379.4800109863281 396.5499877929688 4.320000171661377
377.25 397.1000061035156 4.150000095367432
375.0400085449219 397.6300048828125 4.389999866485596
379.239990234375 397.3500061035156 3.950000047683716
374.8599853515625 400.4599914550781 5.010000228881836
374.9800109863281 402.489990234375 5.059999942779541
375.010009765625 402.0700073242188 5.079999923706055
374.8800048828125 400.7999877929688 5
379.4200134277344 398.1900024414062 4.03000020980835
379.0899963378906 397.6199951171875 4.380000114440918
378.2300109863281 397.2900085449219 4.050000190734863
377.6900024414062 397.4200134277344 4.210000038146973
377.1900024414062 397.5400085449219 4.409999847412109
378.7200012207031 397.1600036621094 4.070000171661377
374.6700134277344 397.4599914550781 4.329999923706055
371.5199890136719 397.4700012207031 4.369999885559082
368.3999938964844 397.5700073242188 4.480000019073486
365.8500061035156 397.6000061035156 4.369999885559082
366.3900146484375 397.4599914550781 4.340000152587891
363.8999938964844 397.3999938964844 4.329999923706055
360.8299865722656 397.4100036621094 4.409999847412109
360.239990234375 397.5599975585938 4.46999979019165
359.7900085449219 397.6900024414062 5.050000190734863
357.8099975585938 397.4500122070312 5.070000171661377
357.6700134277344 397.4700012207031 4.340000152587891
357.1199951171875 397.6199951171875 4.489999771118164
358.2200012207031 397.3399963378906 4.449999809265137
358.5700073242188 396.6199951171875 4.670000076293945
355.2699890136719 397.4500122070312 4.909999847412109
358.0499877929688 396.7799987792969 4.900000095367432
354.5599975585938 397.6199951171875 4.210000038146973
355.8699951171875 397.2900085449219 4.849999904632568
352.7799987792969 397.3099975585938 5.059999942779541
352.2000122070312 397.4599914550781 4.900000095367432
358.2200012207031 395.9800109863281 4.650000095367432
353.2799987792969 397.2099914550781 4.840000152587891
357.8999938964844 395.3200073242188 4.960000038146973
358.3399963378906 384.2200012207031 4.71999979019165
357.8900146484375 384.3699951171875 4.960000038146973
357.9599914550781 383.6600036621094 4.909999847412109
358.1400146484375 382.989990234375 4.659999847412109
357.8099975585938 382.3999938964844 4.989999771118164
358.3200073242188 382.3099975585938 4.769999980926514
358.3800048828125 381.5 3.859999895095825
358.0700073242188 381.6300048828125 4.880000114440918
358.0799865722656 380.8900146484375 4.75
358.239990234375 380.2300109863281 4.079999923706055
358.0499877929688 379.5799865722656 5.03000020980835
358.4299926757812 379.4700012207031 4.150000095367432
358.1900024414062 378.8399963378906 4.820000171661377
357.8900146484375 378.9299926757812 6.360000133514404
358.010009765625 379.010009765625 4.920000076293945
358.2200012207031 378.9700012207031 4
358.1499938964844 379.6900024414062 4.429999828338623
357.8299865722656 379.7900085449219 4.980000019073486
358.4700012207031 380.2799987792969 4.079999923706055
358.1700134277344 380.3699951171875 4.820000171661377
358.1799926757812 380.989990234375 4.03000020980835
358.2200012207031 381.6400146484375 4.670000076293945
358.0700073242188 382.4599914550781 4.889999866485596
357.8900146484375 383.1799926757812 4.869999885559082
358.2699890136719 383.0899963378906 4.199999809265137
358.260009765625 383.6600036621094 4.760000228881836
358.25 384.2699890136719 4.050000190734863
358.2799987792969 385 4.599999904632568
358.2699890136719 392.0299987792969 4.090000152587891
349.6400146484375 396.9299926757812 6.079999923706055
350.75 397.3599853515625 4.760000228881836
350.1900024414062 397.510009765625 5.099999904632568
353.239990234375 397.4500122070312 4.820000171661377
353.739990234375 397.3099975585938 4.579999923706055
352.5499877929688 397.6099853515625 4.829999923706055
356.1199951171875 397.3200073242188 4.71999979019165
355.5400085449219 397.4500122070312 5.019999980926514
358.1900024414062 396.8299865722656 4.860000133514404
355.1700134277344 397.5899963378906 4.21999979019165
359.6199951171875 397.1700134277344 4.420000076293945
375.1000061035156 402.7999877929688 4.980000019073486
374.9700012207031 401.4800109863281 5.039999961853027
374.9100036621094 400.2200012207031 5.03000020980835
379.3399963378906 398.4400024414062 4.269999980926514
379.4599914550781 397.6499938964844 3.819999933242798
376.6799926757812 397.6900024414062 4.289999961853027
377.3500061035156 397.5299987792969 4.230000019073486
377.989990234375 397.3900146484375 4.190000057220459
374.9700012207031 397.5299987792969 4.260000228881836
377.6099853515625 396.8999938964844 4.28000020980835
378.1000061035156 396.760009765625 4.059999942779541
371.9299926757812 397.6099853515625 4.460000038146973
366.5400085449219 397.4200134277344 4.269999980926514
364.239990234375 397.4200134277344 4.190000057220459
359.9599914550781 397.7999877929688 4.53000020980835
361.2000122070312 397.5299987792969 4.360000133514404
359.8599853515625 397.7999877929688 5.679999828338623
379.2000122070312 397.7000122070312 4.380000114440918
378.7300109863281 396.989990234375 3.990000009536743
378.6000061035156 397.510009765625 4.059999942779541
378.0599975585938 396.7999877929688 4.050000190734863
377.8800048828125 397.4400024414062 3.990000009536743
374.9599914550781 401.489990234375 4.96999979019165
375.1099853515625 400.8900146484375 4.989999771118164
374.7799987792969 402.0799865722656 5.070000171661377
375.9500122070312 397.6099853515625 4.369999885559082
375.2000122070312 397.5299987792969 4.300000190734863
371.4200134277344 397.5700073242188 4.349999904632568
367.5700073242188 397.3800048828125 4.360000133514404
366.9400024414062 397.3800048828125 4.25
359.6799926757812 397.4599914550781 5.940000057220459
357.9299926757812 397.2099914550781 4.539999961853027
357.2200012207031 397.2799987792969 4.519999980926514
356.5799865722656 397.260009765625 4.440000057220459
358.0199890136719 391.4599914550781 4.860000133514404
355.989990234375 397.2799987792969 4.480000019073486
358.0199890136719 386.760009765625 4.880000114440918
358.1600036621094 386.2099914550781 4.889999866485596
358.2799987792969 385.5899963378906 4.860000133514404
358 383.7900085449219 4.920000076293945
358.1700134277344 383.2699890136719 4.869999885559082
358.2699890136719 382.75 4.840000152587891
358.3900146484375 382.2699890136719 4.300000190734863
353.8699951171875 397.5799865722656 4.980000019073486
357.9500122070312 381.5199890136719 4.980000019073486
358.2300109863281 380.3399963378906 4.96999979019165
358.3299865722656 379.9800109863281 4.099999904632568
358.1000061035156 380.9400024414062 4.880000114440918
358.2099914550781 380.6400146484375 3.910000085830688
353.3599853515625 397.2799987792969 4.460000038146973
358.0199890136719 378.8900146484375 6.340000152587891
358.0700073242188 378.6099853515625 5.119999885559082
357.9500122070312 379.260009765625 4.960000038146973
357.1400146484375 378.9100036621094 6.349999904632568
358.1900024414062 379.8399963378906 5
358.1700134277344 379.7999877929688 4.090000152587891
357.9100036621094 380.9500122070312 4.949999809265137
358.0700073242188 380.3999938964844 5
358.3399963378906 379.2900085449219 4.059999942779541
353.7300109863281 397.5400085449219 4.21999979019165
358.2200012207031 382.4800109863281 4.920000076293945
358.3099975585938 381.9500122070312 5
358.0700073242188 383.0599975585938 4.909999847412109
358.4700012207031 381.3500061035156 3.849999904632568
357.9100036621094 383.5499877929688 4.889999866485596
354.4500122070312 397.4400024414062 4.71999979019165
355.2000122070312 397.510009765625 4.739999771118164
358.0299987792969 386.2099914550781 4.920000076293945
358.1900024414062 385.7000122070312 4.929999828338623
358.3200073242188 385.1099853515625 4.889999866485596
355.9500122070312 397.3699951171875 4.679999828338623
356.5499877929688 397.3599853515625 4.800000190734863
358.0499877929688 391.4400024414062 4.920000076293945
358.1900024414062 390.9500122070312 4.929999828338623
358.2699890136719 393.0700073242188 4.929999828338623
357.2099914550781 397.2999877929688 4.860000133514404
358.1600036621094 393.5899963378906 4.880000114440918
357.8999938964844 394.6600036621094 5.010000228881836
358.010009765625 394.1099853515625 4.900000095367432
358.1900024414062 396.3099975585938 4.929999828338623
358.1000061035156 396.8399963378906 4.96999979019165
358.3299865722656 395.7699890136719 4.909999847412109
357.9700012207031 397.3599853515625 5.03000020980835
359.9299926757812 397.3500061035156 4.480000019073486
360.7099914550781 397.4200134277344 4.380000114440918
361.3999938964844 397.3299865722656 4.429999828338623
362.7900085449219 397.2699890136719 3.880000114440918
366.4400024414062 397.6499938964844 4.550000190734863
367.1600036621094 397.5199890136719 4.409999847412109
367.8200073242188 397.489990234375 4.409999847412109
369.3200073242188 397.5 4.400000095367432
374.8699951171875 397.6799926757812 4.300000190734863
375.6300048828125 397.5700073242188 4.360000133514404
374.9299926757812 400.2999877929688 5
374.6799926757812 401.3299865722656 5.070000171661377
374.8299865722656 400.8599853515625 4.909999847412109
376.260009765625 397.5299987792969 4.440000057220459
374.9200134277344 402.9100036621094 5.079999923706055
376.9599914550781 397.5799865722656 4.539999961853027
377.8200073242188 396.9299926757812 4.099999904632568
377.7200012207031 397.510009765625 4.380000114440918
379.4599914550781 398.3800048828125 4.199999809265137
379.1400146484375 397.6400146484375 4
378.5199890136719 397.2099914550781 4.03000020980835
377.989990234375 396.9299926757812 4.119999885559082
377.8200073242188 397.5499877929688 4.119999885559082
377.3200073242188 397.2000122070312 4.170000076293945
376.6199951171875 397.5199890136719 4.309999942779541
374.760009765625 402.0400085449219 4.800000190734863
375.9100036621094 397.5499877929688 3.75
374.8900146484375 401.4800109863281 5.010000228881836
375.25 397.4599914550781 4.440000057220459
374.6499938964844 397.6000061035156 4.199999809265137
373.2900085449219 397.5 4.449999809265137
372.0199890136719 397.4299926757812 4.440000057220459
371.3900146484375 397.5700073242188 4.300000190734863
370.0599975585938 397.4400024414062 4.420000076293945
369.3900146484375 397.5700073242188 4.289999961853027
367.2200012207031 397.5299987792969 4.349999904632568
365.2699890136719 397.489990234375 4.380000114440918
363.3299865722656 397.5400085449219 4.260000228881836
362 397.3399963378906 4.28000020980835
350.260009765625 397.4299926757812 5.050000190734863
351 397.25 5.050000190734863
351.5599975585938 397.510009765625 4.559999942779541
352.239990234375 397.3599853515625 4.869999885559082
353.010009765625 397.3099975585938 4.960000038146973
357.4299926757812 379.2300109863281 6.349999904632568
357.6099853515625 378.6600036621094 6.420000076293945
358.1900024414062 379.1000061035156 6.380000114440918
357.5799865722656 378.7099914550781 4.809999942779541
353.6400146484375 397.5599975585938 4.110000133514404
358.1499938964844 379.2300109863281 5.010000228881836
358.25 378.8900146484375 4
357.8500061035156 380.3900146484375 4.769999980926514
357.9700012207031 379.8900146484375 4.960000038146973
358.0599975585938 379.5499877929688 3.970000028610229
357.7999877929688 383.1700134277344 4.71999979019165
358.2000122070312 381.5299987792969 4.920000076293945
358.4100036621094 380.6300048828125 4.039999961853027
358.3099975585938 381.1900024414062 3.819999933242798
357.9400024414062 382.6499938964844 4.71999979019165
354.2900085449219 397.5299987792969 4.389999866485596
358.0499877929688 382.1000061035156 5.019999980926514
354.9100036621094 397.3699951171875 4.800000190734863
354.8399963378906 397.75 4.070000171661377
357.8299865722656 385.4700012207031 4.710000038146973
357.9700012207031 384.8800048828125 4.829999923706055
358.1199951171875 384.2999877929688 4.829999923706055
358.3299865722656 383.4599914550781 4.190000057220459
355.6099853515625 397.2799987792969 4.849999904632568
357.9599914550781 387.7200012207031 4.71999979019165
355.5299987792969 397.6400146484375 3.960000038146973
358.2699890136719 386.5899963378906 4.889999866485596
358.1099853515625 387.2000122070312 4.909999847412109
356.1300048828125 397.489990234375 4.309999942779541
358.2900085449219 388.7099914550781 4.900000095367432
358.1499938964844 389.3500061035156 4.869999885559082
356.6799926757812 397.4700012207031 4.710000038146973
358.010009765625 392.1300048828125 4.840000152587891
357.8599853515625 392.6600036621094 4.739999771118164
357.8500061035156 395.5 4.679999828338623
357.9700012207031 394.989990234375 4.869999885559082
357.3599853515625 397.2900085449219 4.889999866485596
358.2300109863281 393.7999877929688 4.909999847412109
358.1199951171875 394.3399963378906 4.849999904632568
358.2799987792969 396.6600036621094 4.880000114440918
358.1000061035156 397.2699890136719 4.960000038146973
361.3999938964844 397.4599914550781 4.289999961853027
374.8399963378906 401.7999877929688 5.039999961853027
358.1499938964844 396.9400024414062 4.889999866485596
360.3200073242188 397.4700012207031 4.289999961853027
374.75 401.0599975585938 5
374.75 400.239990234375 4.519999980926514
358.1000061035156 396.0899963378906 4.730000019073486
363.9700012207031 397.5700073242188 4.340000152587891
362.8399963378906 397.2999877929688 3.900000095367432
358.260009765625 395.3800048828125 5
358.0299987792969 395.3500061035156 4.03000020980835
366.2900085449219 397.3999938964844 4.210000038146973
366.7999877929688 397.5199890136719 4.409999847412109
374.8999938964844 399.5400085449219 5.019999980926514
358.010009765625 394.6900024414062 4.789999961853027
369.1000061035156 397.4500122070312 4.25
358.2300109863281 394.0400085449219 4.929999828338623
371.9200134277344 397.5 4.21999979019165
358 394 4.110000133514404
375.4200134277344 397.5400085449219 4.329999923706055
379.3200073242188 398.510009765625 4.360000133514404
358.0499877929688 393.2099914550781 4.71999979019165
357.9200134277344 392.4400024414062 4.03000020980835
358.2000122070312 392.5 4.929999828338623
377.7900085449219 397.4200134277344 3.910000085830688
376.989990234375 397.2300109863281 4.210000038146973
378.3299865722656 397.5700073242188 4.070000171661377
379.4400024414062 397.8099975585938 4.539999961853027
358.0199890136719 391.7799987792969 4.579999923706055
378.6700134277344 396.9500122070312 4.03000020980835
378.0299987792969 396.7699890136719 4.050000190734863
358.1600036621094 391.0599975585938 4.960000038146973
358.0299987792969 390.2200012207031 4.630000114440918
358.1600036621094 389.510009765625 4.96999979019165
358.0199890136719 388.8200073242188 4.71999979019165
358 388.0499877929688 4.300000190734863
358.0700073242188 387.2200012207031 5.010000228881836
357.8999938964844 386.4400024414062 4.389999866485596
358.0799865722656 385.8500061035156 4.78000020980835
358.2000122070312 385.2300109863281 4.949999809265137
357.9599914550781 385.1499938964844 4.139999866485596
357.989990234375 384.4100036621094 4.739999771118164
358.7699890136719 384.5700073242188 4.460000038146973
358.1199951171875 383.7200012207031 4.909999847412109
358.0199890136719 383.0700073242188 4.550000190734863
358.0899963378906 382.4100036621094 5.039999961853027
357.9800109863281 381.6600036621094 4.730000019073486
358.1700134277344 381.0599975585938 4.960000038146973
358.0499877929688 380.3900146484375 4.800000190734863
357.9400024414062 379.6700134277344 4.710000038146973
358.0400085449219 378.8500061035156 3.950000047683716
354.7699890136719 397.5499877929688 4.25
354.1900024414062 397.4100036621094 4.889999866485596
374.9599914550781 402.1300048828125 5.039999961853027
356.6300048828125 397.4700012207031 4.800000190734863
357.1799926757812 397.5899963378906 4.559999942779541
356.0199890136719 397.3500061035156 4.920000076293945
357.9299926757812 397.1900024414062 4.800000190734863
362.1099853515625 397.4800109863281 4.420000076293945
358.3399963378906 396.5400085449219 4.940000057220459
361.6099853515625 397.3599853515625 4.389999866485596
364.6900024414062 397.4800109863281 4.320000171661377
365.2300109863281 397.5899963378906 4.389999866485596
358.1300048828125 395.8099975585938 4.820000171661377
374.8299865722656 400.0299987792969 5
367.6900024414062 397.6199951171875 4.429999828338623
357.9700012207031 395.1400146484375 4.690000057220459
367.1799926757812 397.4599914550781 4.320000171661377
370.1900024414062 397.5599975585938 4.360000133514404
358.2000122070312 394.5199890136719 4.900000095367432
358 393.75 4.760000228881836
372.6300048828125 397.4299926757812 4.409999847412109
373.1600036621094 397.5899963378906 4.440000057220459
379.4299926757812 398.489990234375 4.360000133514404
376.1400146484375 397.6600036621094 4.460000038146973
375.0400085449219 397.4100036621094 4.570000171661377
378.5499877929688 397.6700134277344 4.409999847412109
378.0899963378906 397.510009765625 4.170000076293945
378.8599853515625 397.0199890136719 4.119999885559082
358 391.0299987792969 4.760000228881836
358.260009765625 390.3999938964844 4.920000076293945
358 389.7699890136719 4.869999885559082
358.1799926757812 389.1700134277344 4.880000114440918
358.0700073242188 388.3500061035156 4.75
357.9299926757812 387.6400146484375 4.679999828338623
358.4100036621094 387.75 5
358.2000122070312 387.1499938964844 4.909999847412109
357.9599914550781 386.4500122070312 4.679999828338623
358.2799987792969 385.8699951171875 4.909999847412109
358.0499877929688 385.2200012207031 4.800000190734863
358.3299865722656 384.7200012207031 5.050000190734863
358.1099853515625 384.0199890136719 4.829999923706055
357.9599914550781 383.2799987792969 4.71999979019165
358.3699951171875 382.7200012207031 4.260000228881836
358.2900085449219 382.7099914550781 4.920000076293945
357.9500122070312 382.0799865722656 4.869999885559082
358.2200012207031 381.4299926757812 5.03000020980835
358.3800048828125 381.4800109863281 3.900000095367432
358.0400085449219 380.5799865722656 4.829999923706055
357.8699951171875 379.7900085449219 4.800000190734863
358.0499877929688 379.1600036621094 4.980000019073486
358.1400146484375 379.2099914550781 4.090000152587891
374.8099975585938 402.6900024414062 5.039999961853027
352.8099975585938 397.2699890136719 5.010000228881836
353.8599853515625 397.5299987792969 4.289999961853027
353.3699951171875 397.4200134277344 4.659999847412109
356.3099975585938 397.5199890136719 4.139999866485596
355.9200134277344 397.4200134277344 4.690000057220459
355.3900146484375 397.3099975585938 4.96999979019165
356.4800109863281 397.5599975585938 4.929999828338623
358.1099853515625 397.3200073242188 4.960000038146973
359.7999877929688 397.7000122070312 5.5
357.9700012207031 396.5400085449219 4.940000057220459
361.6900024414062 397.4500122070312 4.380000114440918
362.25 397.6000061035156 4.480000019073486
358.3099975585938 395.9200134277344 4.710000038146973
362.6199951171875 397.0299987792969 3.970000028610229
364.8699951171875 397.5599975585938 4.440000057220459
364.3099975585938 397.4100036621094 4.369999885559082
374.8500061035156 399.989990234375 5
358.239990234375 395.25 4.730000019073486
367.4599914550781 397.5400085449219 4.340000152587891
366.9700012207031 397.4100036621094 4.380000114440918
370.1700134277344 397.5599975585938 4.380000114440918
369.6300048828125 397.4200134277344 4.429999828338623
358.1000061035156 394.5599975585938 4.829999923706055
373.3200073242188 397.5899963378906 4.340000152587891
375.8299865722656 397.5899963378906 4.300000190734863
375.3200073242188 397.4400024414062 4.519999980926514
377.7999877929688 397.4599914550781 4.25
377.260009765625 397.3500061035156 4.300000190734863
379.4200134277344 397.8399963378906 4.099999904632568
378.2300109863281 396.8900146484375 4.059999942779541
378.7699890136719 397.0199890136719 4.110000133514404
357.989990234375 385.1499938964844 4.960000038146973
358.1499938964844 383.9100036621094 4.769999980926514
358.0400085449219 383.0799865722656 4.809999942779541
358.260009765625 382.5 4.670000076293945
358.1199951171875 381.8599853515625 4.840000152587891
357.8699951171875 381.1199951171875 5.019999980926514
358.239990234375 381.2200012207031 3.809999942779541
358.1099853515625 380.4400024414062 4.090000152587891
358.25 380.4299926757812 4.829999923706055
358.0400085449219 379.7000122070312 4.849999904632568
358.4700012207031 379.7999877929688 4.110000133514404
358.0799865722656 379.0400085449219 6.349999904632568
357.8200073242188 378.9800109863281 4.940000057220459
358.2300109863281 379.0899963378906 4
348.0499877929688 397.5299987792969 5.110000133514404
350.7900085449219 397.489990234375 4.670000076293945
350.3599853515625 397.4100036621094 5.079999923706055
353.7799987792969 397.4800109863281 4.610000133514404
353.2699890136719 397.3599853515625 4.820000171661377
354.3999938964844 397.6300048828125 4.460000038146973
354.8099975585938 397.739990234375 4.059999942779541
374.8299865722656 402.1600036621094 4.980000019073486
356.760009765625 397.6000061035156 4.480000019073486
357.3900146484375 397.7999877929688 4.409999847412109
356.1400146484375 397.489990234375 4.639999866485596
355.6199951171875 397.3299865722656 4.889999866485596
374.9500122070312 401.6499938964844 4.940000057220459
357.8999938964844 397.3599853515625 4.989999771118164
358.1199951171875 396.760009765625 4.889999866485596
374.8900146484375 400.9299926757812 4.079999923706055
374.9599914550781 400.2099914550781 4.989999771118164
362.6600036621094 397.1400146484375 3.940000057220459
358.2799987792969 396.0400085449219 4.400000095367432
367.239990234375 397.6199951171875 4.369999885559082
369.5199890136719 397.5499877929688 4.289999961853027
371.7200012207031 397.5299987792969 4.289999961853027
374.6600036621094 397.5599975585938 4.360000133514404
379.510009765625 398.0899963378906 4.090000152587891
377.0700073242188 397.510009765625 4.409999847412109
377.9200134277344 397.0700073242188 4.099999904632568
379.3200073242188 397.4800109863281 4.21999979019165
358.2300109863281 392.1900024414062 4.199999809265137
358.239990234375 382.6400146484375 4.449999809265137
358.1600036621094 381.9299926757812 4.880000114440918
358.1799926757812 380.6199951171875 4.039999961853027
358.1700134277344 381.3299865722656 4.539999961853027
358.0400085449219 380.6300048828125 5
358.1300048828125 379.8299865722656 4.570000171661377
358.1799926757812 379.1400146484375 3.980000019073486
358.0199890136719 379.1099853515625 4.909999847412109
358.010009765625 379.1499938964844 6.349999904632568
