176.0599975585938 62.11999893188477 5.650000095367432
175.5200042724609 62.31000137329102 5.949999809265137
175.4799957275391 62.09000015258789 6.519999980926514
174.8699951171875 62.13000106811523 6.349999904632568
174.1399993896484 62.0099983215332 5.940000057220459
177.9900054931641 74.54000091552734 6.289999961853027
177.8600006103516 73.94999694824219 6.349999904632568
178.0700073242188 72.23999786376953 6.449999809265137
178.1999969482422 72.84999847412109 6.420000076293945
178.1100006103516 70.20999908447266 6.360000133514404
178.2100067138672 70.75 6.400000095367432
177.9499969482422 69.66000366210938 6.050000190734863
178.0800018310547 67.44000244140625 6.360000133514404
178.1999969482422 68.01000213623047 6.369999885559082
176.7299957275391 62.09000015258789 6.260000228881836
178.2599945068359 65.23999786376953 6.449999809265137
178.0899963378906 64.69000244140625 6.420000076293945
178.1999969482422 62.38999938964844 6.340000152587891
175.3699951171875 62.09000015258789 6.289999961853027
176.0099945068359 62.18000030517578 6.329999923706055
174.6499938964844 62 6.239999771118164
178.3099975585938 62.86999893188477 6.349999904632568
178.1900024414062 62.36999893188477 6.519999980926514
178.2299957275391 65.41999816894531 6.460000038146973
177.9900054931641 64.34999847412109 6.449999809265137
178.1300048828125 64.90000152587891 6.519999980926514
177.4499969482422 62.2400016784668 6.320000171661377
176.7200012207031 62.18999862670898 6.460000038146973
177.9199981689453 67.05000305175781 6.46999979019165
178.1699981689453 68.06999969482422 6.440000057220459
178.0200042724609 67.59999847412109 6.489999771118164
177.8500061035156 69.65000152587891 6.480000019073486
178.1199951171875 70.73999786376953 6.46999979019165
177.9799957275391 70.18000030517578 6.449999809265137
178.2700042724609 71.29000091552734 6.429999828338623
178 72.76999664306641 6.440000057220459
178.1300048828125 73.37000274658203 6.460000038146973
177.8699951171875 72.22000122070312 6.5
173.9400024414062 62.04000091552734 6.429999828338623
176.0399932861328 62.20999908447266 5.630000114440918
175.3200073242188 62.2400016784668 5.75
174.75 62.34000015258789 5.800000190734863
174.6199951171875 61.95000076293945 6.449999809265137
177.8500061035156 72.36000061035156 6.53000020980835
178.1300048828125 73.40000152587891 6.360000133514404
178.0099945068359 72.86000061035156 6.420000076293945
178.1199951171875 70.48999786376953 6.400000095367432
177.9799957275391 69.95999908447266 6.539999961853027
178.2700042724609 71.06999969482422 6.320000171661377
178.1000061035156 67.45999908447266 6.480000019073486
177.9700012207031 66.87999725341797 6.480000019073486
178.25 67.97000122070312 6.349999904632568
176.8099975585938 62.2599983215332 6.409999847412109
178.3099975585938 65.41000366210938 6.25
177.4900054931641 62.09000015258789 6.539999961853027
178.1900024414062 64.87999725341797 6.420000076293945
178.0200042724609 64.33000183105469 6.409999847412109
178.3699951171875 63.02000045776367 6.119999885559082
178.2100067138672 62.4900016784668 6.360000133514404
175.5 62.33000183105469 5.840000152587891
175.9400024414062 62.2400016784668 6.380000114440918
173.8699951171875 61.9900016784668 6.510000228881836
177.9900054931641 74.43000030517578 6.360000133514404
178.0700073242188 73.69000244140625 6.400000095367432
177.9299926757812 73.12999725341797 5.659999847412109
177.9100036621094 72.47000122070312 6.429999828338623
178.2200012207031 71.62999725341797 6.320000171661377
177.9400024414062 71.69000244140625 5.179999828338623
177.9700012207031 71 5.599999904632568
178.0200042724609 70.40000152587891 6.369999885559082
177.9499969482422 69.08999633789062 6
177.9799957275391 68.37999725341797 6.230000019073486
178.1799926757812 67.75 6.460000038146973
177.9900054931641 67.08999633789062 5.679999828338623
178.0200042724609 66.37000274658203 6.239999771118164
178.1199951171875 65.68000030517578 6.460000038146973
178.0500030517578 64.40000152587891 6.260000228881836
178.1999969482422 63.61000061035156 6.349999904632568
176.4799957275391 62.09999847412109 6.409999847412109
175.0800018310547 62.29999923706055 6.489999771118164
175.5899963378906 62.16999816894531 6.360000133514404
175.0599975585938 62.31000137329102 5.849999904632568
176.1600036621094 62.04000091552734 6.429999828338623
177.8500061035156 62.29000091552734 6.369999885559082
178.2299957275391 63.47999954223633 6.429999828338623
178.0099945068359 64.73000335693359 6.519999980926514
178.1999969482422 65.40000152587891 6.449999809265137
178.0399932861328 66.58999633789062 6.480000019073486
178.2200012207031 67.12999725341797 6.420000076293945
178 68.51000213623047 6.429999828338623
178.0700073242188 69.11000061035156 6.449999809265137
178.1900024414062 69.75 6.449999809265137
178.0399932861328 71.70999908447266 6.420000076293945
178.1900024414062 72.34999847412109 6.449999809265137
178.0299987792969 73.81999969482422 6.460000038146973
178.0800018310547 74.34999847412109 6.449999809265137
175.4299926757812 62.43000030517578 5.800000190734863
176.1600036621094 62.27000045776367 6.340000152587891
174.2799987792969 62.02000045776367 6.320000171661377
178 74.05999755859375 5.28000020980835
177.8099975585938 74.08999633789062 6.480000019073486
178.0399932861328 73.33999633789062 5.449999809265137
178.1000061035156 72.61000061035156 5.679999828338623
178.0899963378906 71.93000030517578 6.090000152587891
178.0899963378906 71.36000061035156 6
178.1499938964844 70.69000244140625 6.179999828338623
178.1199951171875 69.91999816894531 6.389999866485596
178.0500030517578 69.26000213623047 6.440000057220459
177.9400024414062 68.73000335693359 6.460000038146973
177.9600067138672 68.06999969482422 6.389999866485596
178.1199951171875 67.26000213623047 5.28000020980835
177.9499969482422 67.30000305175781 6.610000133514404
178.1300048828125 66.54000091552734 5.710000038146973
178.1300048828125 65.94999694824219 5.739999771118164
178.1699981689453 65.22000122070312 5.889999866485596
178.1799926757812 64.48000335693359 6.070000171661377
178.1399993896484 63.81000137329102 6.25
178.0700073242188 63.2599983215332 6.309999942779541
176.7100067138672 62.15000152587891 6.389999866485596
178.1000061035156 62.56000137329102 6.519999980926514
174.1199951171875 62.04999923706055 6.579999923706055
175.3399963378906 62.08000183105469 5.889999866485596
178.2899932861328 63.34000015258789 6.320000171661377
178.1499938964844 63.90000152587891 6.309999942779541
178.0200042724609 64.43000030517578 6.449999809265137
177.8099975585938 62.22999954223633 5.539999961853027
176.6600036621094 62.20999908447266 6.449999809265137
178.3399963378906 68.33999633789062 6.199999809265137
178.1000061035156 69.51999664306641 6.369999885559082
177.9499969482422 70.12000274658203 6.510000228881836
178.2100067138672 68.87999725341797 6.349999904632568
177.9600067138672 67.55000305175781 6.460000038146973
178.1999969482422 66.41000366210938 6.360000133514404
178.0599975585938 67 6.420000076293945
178.3699951171875 65.87000274658203 6.300000190734863
178.1000061035156 71.98000335693359 6.360000133514404
177.9400024414062 72.62999725341797 6.420000076293945
178.2599945068359 71.40000152587891 6.28000020980835
176.0099945068359 62.27999877929688 6.400000095367432
175.3800048828125 62.2400016784668 6.360000133514404
174.6600036621094 62.31000137329102 6.300000190734863
178.1699981689453 74.23999786376953 6.420000076293945
177.9100036621094 72.66000366210938 6.489999771118164
178.0500030517578 72.11000061035156 6.46999979019165
178.1799926757812 71.58000183105469 6.480000019073486
178.1399993896484 64.20999908447266 6.449999809265137
178.2700042724609 63.66999816894531 6.440000057220459
178 64.73000335693359 6.519999980926514
177.9499969482422 67.31999969482422 6.489999771118164
178.1000061035156 66.76000213623047 6.460000038146973
178.1999969482422 66.18000030517578 6.5
178.0500030517578 69.37000274658203 6.420000076293945
177.9299926757812 69.88999938964844 6.489999771118164
178.1499938964844 68.84999847412109 6.449999809265137
176.6199951171875 62.25 6.480000019073486
177.3000030517578 62.13999938964844 6.389999866485596
178.0800018310547 62.09000015258789 6.489999771118164
173.6499938964844 62.13999938964844 6.300000190734863
174.3600006103516 62.15000152587891 6.360000133514404
175.1999969482422 62.06999969482422 6.460000038146973
175.9299926757812 62 6.440000057220459
175.8699951171875 62.2599983215332 5.130000114440918
177.9700012207031 62.29000091552734 6.369999885559082
176.5 62.31000137329102 6.090000152587891
177.8999938964844 70.73999786376953 6.349999904632568
178.0500030517578 70.15000152587891 6.420000076293945
178.1900024414062 66.75 6.480000019073486
177.9400024414062 67.87999725341797 6.389999866485596
178.0700073242188 67.31999969482422 6.53000020980835
177.9799957275391 65.02999877929688 6.269999980926514
178.1100006103516 64.44999694824219 6.429999828338623
178.3000030517578 63.91999816894531 6.369999885559082
178.2700042724609 72.37999725341797 6.53000020980835
177.9799957275391 73.55000305175781 6.420000076293945
177.8099975585938 74.11000061035156 6.360000133514404
178.1300048828125 72.97000122070312 6.389999866485596
178.2100067138672 69.56999969482422 6.440000057220459
175.7400054931641 62.15999984741211 6.28000020980835
177.9100036621094 74.56999969482422 6.159999847412109
177.9799957275391 73.98999786376953 6.320000171661377
178.1900024414062 73.51000213623047 6.400000095367432
177.9600067138672 72.79000091552734 6.050000190734863
178.0200042724609 72.16000366210938 6.289999961853027
178.2400054931641 71.59999847412109 6.510000228881836
177.9900054931641 70.87999725341797 6.159999847412109
178.1799926757812 70.18000030517578 6.449999809265137
178.0099945068359 69.5 5.599999904632568
178.0700073242188 68.87000274658203 6.260000228881836
178.1900024414062 68.23999786376953 6.420000076293945
178 67.37999725341797 6.099999904632568
178.0299987792969 66.66000366210938 6.199999809265137
178.1999969482422 66.08000183105469 6.380000114440918
178.3000030517578 65.48000335693359 6.53000020980835
178.0700073242188 64.65000152587891 6.199999809265137
178.1699981689453 64.01000213623047 6.360000133514404
176.25 62.31000137329102 6.360000133514404
176.7799987792969 62.40999984741211 6.480000019073486
178.0899963378906 62.7599983215332 5.909999847412109
176.2799987792969 62.34999847412109 6.440000057220459
175.7799987792969 62.20999908447266 6.400000095367432
175.1799926757812 62.09000015258789 6.429999828338623
178.0099945068359 62.11000061035156 6.460000038146973
178.3399963378906 62.88000106811523 6.320000171661377
178.1699981689453 63.5099983215332 6.380000114440918
178.0399932861328 64.25 6.420000076293945
178.0500030517578 65.01000213623047 6.590000152587891
178.2100067138672 66.38999938964844 6.5
177.9900054931641 67.09999847412109 6.449999809265137
177.8899993896484 67.69999694824219 6.409999847412109
178.1999969482422 68.33999633789062 6.460000038146973
178.0399932861328 68.95999908447266 6.449999809265137
178.25 70.37999725341797 6.300000190734863
178.0599975585938 70.91999816894531 6.409999847412109
177.8800048828125 71.47000122070312 6.420000076293945
178.1999969482422 72.94000244140625 6.480000019073486
178.1499938964844 72.88999938964844 5.650000095367432
178 73.52999877929688 6.460000038146973
177.8000030517578 74.19999694824219 6.369999885559082
175.6799926757812 62.31999969482422 5.800000190734863
175.3099975585938 62.20000076293945 6.340000152587891
175.8999938964844 62.33000183105469 6.510000228881836
174.6999969482422 62.08000183105469 6.400000095367432
178.0899963378906 74.15000152587891 5.559999942779541
177.9600067138672 73.41999816894531 6.440000057220459
178.2100067138672 73.48000335693359 5.269999980926514
178.1000061035156 72.56999969482422 6.460000038146973
178.1199951171875 71.83000183105469 6.28000020980835
178.1900024414062 71.18000030517578 6.050000190734863
178.1199951171875 70.54000091552734 5.289999961853027
178.1000061035156 69.73000335693359 6.360000133514404
178.1300048828125 69 6.300000190734863
178.1799926757812 68.33000183105469 5.96999979019165
178.0200042724609 67.58999633789062 6.489999771118164
178.1999969482422 67.68000030517578 5.260000228881836
178.1399993896484 66.88999938964844 6.369999885559082
178.1799926757812 66.26999664306641 6.260000228881836
178.1600036621094 65.66000366210938 6.199999809265137
178.1999969482422 64.97000122070312 5.449999809265137
177.9799957275391 64.91000366210938 6.590000152587891
178.0599975585938 64.18000030517578 6.400000095367432
178.1799926757812 64.25 5.119999885559082
178.0899963378906 63.52999877929688 6.320000171661377
178.2100067138672 62.93000030517578 6.289999961853027
177.8999938964844 62.20000076293945 6.400000095367432
178.2899932861328 62.31000137329102 5.78000020980835
