263.6400146484375 240.8399963378906 6.199999809265137
263.8299865722656 241.4100036621094 6.230000019073486
263.8800048828125 244.3099975585938 6.199999809265137
263.6900024414062 243.7200012207031 6.199999809265137
263.5599975585938 245.9600067138672 5.880000114440918
263.7200012207031 246.5099945068359 6.159999847412109
263.8900146484375 247.1499938964844 6.150000095367432
264.1700134277344 248.3099975585938 6.630000114440918
263.8900146484375 250.0299987792969 6.190000057220459
263.6099853515625 248.8399963378906 5.989999771118164
263.75 249.4199981689453 6.170000076293945
263.2799987792969 247.4100036621094 4.880000114440918
263.739990234375 251.6100006103516 6.039999961853027
263.8900146484375 252.25 6.159999847412109
263.760009765625 254.5299987792969 6.059999942779541
263.9100036621094 255.1699981689453 6.179999828338623
263.7799987792969 257.3200073242188 6.03000020980835
263.9299926757812 257.9599914550781 6.159999847412109
263.6300048828125 256.8399963378906 5.610000133514404
263.6400146484375 259.4500122070312 4.940000057220459
263.7799987792969 259.9500122070312 5.190000057220459
263.7300109863281 246.9799957275391 6.239999771118164
263.8900146484375 247.6100006103516 6.28000020980835
263.5700073242188 246.4600067138672 6.190000057220459
263.6300048828125 249.1600036621094 6.210000038146973
263.7799987792969 249.6799926757812 6.199999809265137
263.5 243.1199951171875 6.190000057220459
263.6300048828125 243.6499938964844 6.190000057220459
263.8599853515625 244.6799926757812 6.25
263.739990234375 244.1900024414062 6.190000057220459
263.8099975585938 241.3500061035156 6.28000020980835
263.6700134277344 240.8300018310547 6.260000228881836
263.5599975585938 259.8399963378906 4.96999979019165
263.7200012207031 258.0199890136719 6.150000095367432
263.8500061035156 258.5700073242188 6.170000076293945
263.5899963378906 257.5199890136719 6.159999847412109
263.6700134277344 255.1399993896484 6.21999979019165
263.8399963378906 255.7100067138672 6.150000095367432
263.9500122070312 256.260009765625 6.130000114440918
263.5700073242188 254.6300048828125 6.110000133514404
263.7699890136719 252.4299926757812 6.199999809265137
263.6000061035156 251.8699951171875 6.119999885559082
263.8999938964844 252.9499969482422 6.159999847412109
263.7699890136719 240.9400024414062 6.21999979019165
263.8800048828125 241.4199981689453 6.239999771118164
263.7999877929688 244.2899932861328 6.199999809265137
263.6799926757812 243.8000030517578 6.190000057220459
263.5199890136719 243.3000030517578 6.21999979019165
263.489990234375 246.0899963378906 6.269999980926514
263.6400146484375 246.6000061035156 6.190000057220459
263.7999877929688 247.1600036621094 6.199999809265137
263.2900085449219 247.6100006103516 4.889999866485596
263.75 252.3099975585938 6.150000095367432
263.8599853515625 252.8500061035156 6.099999904632568
263.5799865722656 251.7799987792969 6.139999866485596
263.8599853515625 255.6799926757812 6.190000057220459
263.7099914550781 255.1000061035156 6.190000057220459
263.5599975585938 254.5700073242188 6.170000076293945
263.8599853515625 258.3999938964844 6.170000076293945
263.6900024414062 257.8399963378906 6.179999828338623
263.5299987792969 257.2699890136719 6.210000038146973
263.6000061035156 259.989990234375 6.190000057220459
263.5799865722656 259.8399963378906 4.989999771118164
263.6499938964844 242.4199981689453 6.309999942779541
263.7799987792969 242.8999938964844 5.96999979019165
263.5 241.75 6.260000228881836
263.489990234375 244.6000061035156 6.210000038146973
263.6600036621094 245.1499938964844 6.170000076293945
263.7900085449219 245.7400054931641 6.070000171661377
263.8800048828125 250.8999938964844 6.980000019073486
264.0599975585938 251.6000061035156 7.170000076293945
263.75 253.25 6.090000152587891
263.5899963378906 252.5800018310547 6.139999866485596
263.6600036621094 255.3600006103516 6.130000114440918
263.7999877929688 255.9900054931641 6.110000133514404
263.8599853515625 258.5899963378906 6.079999923706055
264.1900024414062 259.8599853515625 6.010000228881836
263.7099914550781 258 6.130000114440918
263.7200012207031 259.8599853515625 5.360000133514404
263.6700134277344 259.1499938964844 6.099999904632568
263.6900024414062 258.3800048828125 5.300000190734863
263.6199951171875 257.7000122070312 6.099999904632568
263.6600036621094 257.0899963378906 5.400000095367432
263.7099914550781 256.3900146484375 6.159999847412109
263.6099853515625 255.6799926757812 5.690000057220459
263.739990234375 254.9400024414062 6.139999866485596
263.6199951171875 254.3200073242188 5.980000019073486
263.9299926757812 253.5700073242188 6.110000133514404
263.6700134277344 253.6199951171875 5.039999961853027
263.7300109863281 252.8999938964844 6.079999923706055
263.5899963378906 252.2400054931641 5.289999961853027
263.760009765625 251.6699981689453 6.090000152587891
263.5599975585938 251.0399932861328 5.869999885559082
263.6000061035156 250.3000030517578 5.300000190734863
263.5400085449219 249.6600036621094 5.929999828338623
263.5199890136719 249.1399993896484 5.559999942779541
263.8999938964844 249.0299987792969 6.21999979019165
263.6099853515625 248.4799957275391 6.130000114440918
263.8599853515625 248.4100036621094 7.309999942779541
263.3099975585938 247.8000030517578 4.920000076293945
263.6499938964844 247.7299957275391 5.650000095367432
263.6499938964844 247.0700073242188 6.170000076293945
263.5899963378906 246.5 6.139999866485596
263.7999877929688 245.7799987792969 6.199999809265137
263.5400085449219 245.8300018310547 5.269999980926514
263.6199951171875 245.1100006103516 6.170000076293945
263.5499877929688 244.4900054931641 5.409999847412109
263.760009765625 243.8999938964844 6.150000095367432
263.5599975585938 243.25 5.96999979019165
263.8999938964844 242.4400024414062 6.239999771118164
263.5799865722656 242.4900054931641 5.420000076293945
263.510009765625 241.8899993896484 6.179999828338623
263.5299987792969 241.3200073242188 5.869999885559082
263.5599975585938 240.7299957275391 6.239999771118164
263.7699890136719 241.3500061035156 6.25
263.6600036621094 242.0800018310547 6.260000228881836
263.8999938964844 242.5399932861328 6.289999961853027
263.7200012207031 243.2100067138672 6.25
263.3599853515625 244.6699981689453 6.110000133514404
263.9400024414062 244.5700073242188 6.269999980926514
263.6499938964844 245.2299957275391 6.21999979019165
263.9700012207031 245.8999938964844 6.21999979019165
263.7099914550781 246.7799987792969 6.230000019073486
263.6600036621094 247.5500030517578 4.920000076293945
263.5700073242188 247.5399932861328 6.380000114440918
263.8999938964844 248.1600036621094 6.230000019073486
263.6099853515625 249.0599975585938 6.210000038146973
263.7099914550781 251.9100036621094 6.159999847412109
263.510009765625 252.7100067138672 6.139999866485596
263.8900146484375 253.2599945068359 6.130000114440918
263.6499938964844 253.8899993896484 6.110000133514404
263.9400024414062 254.4499969482422 6.159999847412109
263.8599853515625 255.1699981689453 6.190000057220459
263.6700134277344 255.8800048828125 6.150000095367432
263.9100036621094 257.1099853515625 6.139999866485596
263.8599853515625 257.9299926757812 6.170000076293945
263.7099914550781 258.7200012207031 6.179999828338623
263.7699890136719 259.9599914550781 5.909999847412109
263.7999877929688 259.260009765625 5.989999771118164
263.7099914550781 258.4700012207031 6.119999885559082
263.5700073242188 257.7900085449219 6.25
263.7699890136719 256.4299926757812 5.630000114440918
263.7900085449219 255.6399993896484 5.630000114440918
263.739990234375 254.9299926757812 6.150000095367432
263.7200012207031 254.2599945068359 6.150000095367432
263.6400146484375 253.5299987792969 6.010000228881836
263.6499938964844 247.9700012207031 6.21999979019165
263.6199951171875 247.2700042724609 6.260000228881836
263.5700073242188 246.6600036621094 6.230000019073486
263.4700012207031 246.1000061035156 6.25
263.489990234375 245.3800048828125 6.289999961853027
263.739990234375 244.6600036621094 5.480000019073486
263.6600036621094 243.9799957275391 5.559999942779541
263.7300109863281 243.3600006103516 5.809999942779541
263.75 242.6499938964844 6.059999942779541
263.6700134277344 241.8600006103516 6.210000038146973
263.5299987792969 240.5399932861328 6.239999771118164
263.5299987792969 241.2100067138672 6.329999923706055
263.8599853515625 241.1999969482422 5.329999923706055
263.8299865722656 240.5800018310547 5.400000095367432
263.8299865722656 241.8999938964844 5.389999866485596
263.6499938964844 241.8999938964844 6.269999980926514
263.6900024414062 241.2200012207031 6.199999809265137
263.7999877929688 242.5899963378906 6.179999828338623
263.8399963378906 243.2799987792969 6.039999961853027
263.8599853515625 243.8099975585938 6.039999961853027
263.8200073242188 244.4499969482422 6.139999866485596
263.8900146484375 245.8899993896484 5.75
263.8800048828125 245.1799926757812 5.989999771118164
263.8200073242188 246.5 5.510000228881836
263.5799865722656 247.2599945068359 6.210000038146973
263.8399963378906 247.1900024414062 5.420000076293945
263.9200134277344 255.5299987792969 5.920000076293945
263.9299926757812 254.8899993896484 5.989999771118164
263.8900146484375 256.25 5.829999923706055
263.9500122070312 256.8699951171875 5.710000038146973
263.8800048828125 258.1900024414062 5.260000228881836
263.989990234375 257.489990234375 5.440000057220459
263.7300109863281 257.5299987792969 6.269999980926514
263.8699951171875 258.9100036621094 6
263.9200134277344 259.5299987792969 5.900000095367432
263.8699951171875 257.489990234375 6.139999866485596
263.7000122070312 258.1099853515625 6.119999885559082
263.9700012207031 256.9400024414062 5.900000095367432
263.2300109863281 259.8800048828125 5.349999904632568
263.9700012207031 254.2799987792969 6.150000095367432
263.8200073242188 254.9100036621094 6.170000076293945
263.6199951171875 255.6199951171875 6.159999847412109
263.8200073242188 249.0599975585938 6.139999866485596
263.8500061035156 246.4799957275391 6.159999847412109
263.7200012207031 247.0700073242188 6.21999979019165
263.5400085449219 247.6199951171875 5.119999885559082
263.7300109863281 243.9199981689453 6.130000114440918
263.6099853515625 244.5500030517578 6.170000076293945
263.8699951171875 243.3699951171875 5.989999771118164
263.6300048828125 241.25 6.269999980926514
263.760009765625 240.6699981689453 6.179999828338623
263.489990234375 241.4100036621094 6.260000228881836
263.6199951171875 240.8999938964844 6.239999771118164
263.8900146484375 242.3999938964844 6.269999980926514
263.7099914550781 242.9199981689453 6.210000038146973
263.5899963378906 243.4799957275391 6.190000057220459
263.3099975585938 247.3500061035156 4.980000019073486
263.8900146484375 245 6.239999771118164
263.6499938964844 246.1000061035156 6.210000038146973
263.7799987792969 245.5800018310547 6.170000076293945
263.760009765625 248.2100067138672 6.230000019073486
263.5899963378906 248.7200012207031 6.170000076293945
263.8699951171875 247.6199951171875 6.199999809265137
263.6300048828125 253.1499938964844 6.110000133514404
263.7699890136719 252.6000061035156 6.139999866485596
263.8999938964844 252.0800018310547 6.079999923706055
263.9599914550781 254.5899963378906 6.059999942779541
263.6799926757812 255.6900024414062 6.159999847412109
263.8500061035156 255.1100006103516 6.210000038146973
263.8800048828125 259.6700134277344 6.170000076293945
263.7900085449219 257.7300109863281 6.210000038146973
263.9400024414062 257.1099853515625 6.170000076293945
263.6900024414062 258.2000122070312 6.210000038146973
263.8999938964844 257.2000122070312 6.139999866485596
263.6700134277344 258.3299865722656 6.210000038146973
263.7900085449219 257.7699890136719 6.21999979019165
263.6700134277344 255.4199981689453 6.170000076293945
263.9500122070312 254.3800048828125 6.179999828338623
263.5599975585938 255.9799957275391 6.179999828338623
263.7999877929688 254.9299926757812 6.199999809265137
263.6099853515625 253.1900024414062 6.139999866485596
263.8800048828125 252.0500030517578 6.150000095367432
263.7699890136719 252.6100006103516 6.110000133514404
263.6000061035156 247.25 4.920000076293945
263.8699951171875 246.2899932861328 6.28000020980835
263.4700012207031 247.7799987792969 5.130000114440918
263.5599975585938 247.4600067138672 6.289999961853027
263.7000122070312 246.8699951171875 6.21999979019165
263.8800048828125 243.3999938964844 6.260000228881836
263.5199890136719 245 6.230000019073486
263.75 243.9100036621094 6.21999979019165
263.6099853515625 244.4499969482422 6.210000038146973
263.7300109863281 241.5200042724609 6.239999771118164
263.6300048828125 242.1100006103516 6.289999961853027
263.8500061035156 241.0200042724609 6.260000228881836
263.75 259.4599914550781 6.119999885559082
263.7799987792969 259.5700073242188 4.840000152587891
263.5599975585938 258 5.760000228881836
263.8299865722656 256.8999938964844 6.179999828338623
263.6900024414062 257.5299987792969 6.210000038146973
263.8299865722656 254.9100036621094 6.199999809265137
263.510009765625 256.0700073242188 5.96999979019165
263.6600036621094 255.5099945068359 6.079999923706055
263.5700073242188 253.5 5.980000019073486
263.7099914550781 252.9100036621094 6.099999904632568
263.4800109863281 250.9400024414062 6.079999923706055
263.6600036621094 248.0200042724609 5.150000095367432
263.6799926757812 247.7100067138672 6.199999809265137
263.5400085449219 248.4600067138672 6.170000076293945
263.5199890136719 246.3300018310547 5.840000152587891
263.6199951171875 245.8600006103516 6.199999809265137
263.739990234375 245.2200012207031 6.25
263.4800109863281 243.7799987792969 6.019999980926514
263.6600036621094 243.1499938964844 6.210000038146973
263.8099975585938 242.5500030517578 6.190000057220459
263.4500122070312 241.1799926757812 5.96999979019165
263.5700073242188 240.6300048828125 6.190000057220459
263.4599914550781 240.8899993896484 6.079999923706055
263.6600036621094 240.9600067138672 5.519999980926514
263.5299987792969 241.7400054931641 5.889999866485596
263.5700073242188 242.4299926757812 6.050000190734863
263.6700134277344 243.1000061035156 6.159999847412109
263.8099975585938 243.7899932861328 6.199999809265137
263.6600036621094 243.7700042724609 4.96999979019165
263.5799865722656 244.4900054931641 5.489999771118164
263.5899963378906 245.1399993896484 5.679999828338623
263.6300048828125 245.7799987792969 6.119999885559082
263.6499938964844 246.4199981689453 6.139999866485596
263.6900024414062 247.1100006103516 6.190000057220459
263.4500122070312 247.6499938964844 5.170000076293945
263.6300048828125 247.7299957275391 6.170000076293945
263.6300048828125 248.2400054931641 4.829999923706055
263.760009765625 248.2400054931641 6.230000019073486
264.1300048828125 248.3699951171875 6.699999809265137
263.760009765625 248.8800048828125 6.179999828338623
263.760009765625 249.6000061035156 6.230000019073486
263.5499877929688 250.7899932861328 5.360000133514404
263.760009765625 250.2799987792969 6.119999885559082
263.7300109863281 251.4600067138672 5.269999980926514
263.5700073242188 252.1199951171875 5.980000019073486
263.7300109863281 252.8399963378906 6.099999904632568
263.6600036621094 253.4700012207031 4.869999885559082
263.8399963378906 253.4900054931641 6.159999847412109
263.6199951171875 254.1199951171875 5.71999979019165
263.6300048828125 254.8899993896484 5.980000019073486
263.7300109863281 255.5399932861328 6.159999847412109
263.7200012207031 256.2099914550781 5.010000228881836
263.7000122070312 256.8399963378906 5.739999771118164
263.6700134277344 257.5599975585938 6.079999923706055
263.75 258.1900024414062 6.150000095367432
263.6600036621094 258.760009765625 4.909999847412109
263.7999877929688 258.7799987792969 6.170000076293945
263.760009765625 259.3500061035156 5.190000057220459
263.6799926757812 260 5.340000152587891
263.9200134277344 240.9900054931641 6.239999771118164
263.6799926757812 241.5599975585938 6.25
263.8299865722656 242.2400054931641 6.349999904632568
263.510009765625 242.8899993896484 6.170000076293945
263.6799926757812 243.7299957275391 6.190000057220459
263.4599914550781 244.4400024414062 6.179999828338623
263.7099914550781 245.1900024414062 6.179999828338623
263.9200134277344 246.0099945068359 6.150000095367432
263.489990234375 246.7599945068359 6.170000076293945
263.2999877929688 247.4600067138672 4.929999828338623
263.7799987792969 247.5899963378906 6.239999771118164
263.9200134277344 248.2799987792969 6.230000019073486
263.6199951171875 248.9199981689453 6.179999828338623
263.7799987792969 251.5599975585938 6.150000095367432
263.6900024414062 252.8899993896484 6.119999885559082
263.9200134277344 253.5500030517578 6.099999904632568
263.6099853515625 254.0899963378906 6.119999885559082
263.8399963378906 254.9299926757812 6.159999847412109
263.5899963378906 255.5500030517578 6.130000114440918
263.8699951171875 256.2900085449219 6.150000095367432
263.5199890136719 256.9100036621094 6.179999828338623
263.6600036621094 257.7799987792969 6.170000076293945
263.9599914550781 258.6300048828125 6.170000076293945
263.6000061035156 259.260009765625 4.849999904632568
263.5799865722656 240.7100067138672 6.28000020980835
263.6900024414062 241.4600067138672 5.510000228881836
263.739990234375 242.1699981689453 6.199999809265137
263.6499938964844 242.7799987792969 5.110000133514404
263.7300109863281 243.3500061035156 6.130000114440918
263.5 243.9799957275391 6.230000019073486
263.8099975585938 244.8099975585938 6.119999885559082
263.75 246.0899963378906 6.110000133514404
263.6000061035156 246.7400054931641 6.239999771118164
263.8900146484375 247.5500030517578 6.119999885559082
263.8399963378906 253.0800018310547 5.889999866485596
263.7999877929688 254.2700042724609 6.119999885559082
263.75 255.5700073242188 6.139999866485596
263.8200073242188 256.2699890136719 5.820000171661377
263.8099975585938 257.5899963378906 6.130000114440918
263.7900085449219 258.3699951171875 5.25
263.7300109863281 258.9700012207031 6.139999866485596
263.8299865722656 259.6199951171875 5.920000076293945
263.7999877929688 242.0200042724609 5.800000190734863
263.760009765625 241.3399963378906 5.75
263.7900085449219 242.5800018310547 5.46999979019165
263.739990234375 243.2299957275391 5.539999961853027
263.5799865722656 244.6100006103516 6.349999904632568
263.7799987792969 244.6199951171875 5.5
263.7900085449219 243.9400024414062 5.409999847412109
263.8099975585938 245.2700042724609 5.510000228881836
263.8200073242188 245.9299926757812 5.610000133514404
263.6400146484375 253.7299957275391 6.210000038146973
263.8299865722656 253.75 5.119999885559082
263.7200012207031 253.0899963378906 6.079999923706055
263.7900085449219 254.4700012207031 5.190000057220459
263.6799926757812 254.4299926757812 6.190000057220459
263.8500061035156 253.1300048828125 5.21999979019165
263.6799926757812 255.0700073242188 6.239999771118164
263.7999877929688 255.0899963378906 5.260000228881836
263.8500061035156 255.7100067138672 5.190000057220459
263.7000122070312 255.7100067138672 6.289999961853027
263.8800048828125 256.4400024414062 5.460000038146973
263.8699951171875 257.9200134277344 5.559999942779541
263.8800048828125 257.2300109863281 5.559999942779541
263.8699951171875 258.5400085449219 5.369999885559082
263.8800048828125 259.239990234375 5.730000019073486
