71.94999694824219 119.1900024414062 7.980000019073486
71.76000213623047 118.5999984741211 7.840000152587891
72.08000183105469 119.7099990844727 8.010000228881836
72.05000305175781 116.8899993896484 7.980000019073486
71.91000366210938 116.3099975585938 7.920000076293945
71.98999786376953 113.9599990844727 7.989999771118164
71.88999938964844 113.4199981689453 7.96999979019165
72.04000091552734 111.4599990844727 8.239999771118164
71.91999816894531 110.9300003051758 8.25
71.73999786376953 110.129997253418 7.130000114440918
72.11000061035156 109.3300018310547 8.260000228881836
71.69999694824219 107.6800003051758 7.619999885559082
71.91999816894531 108.7200012207031 8.239999771118164
71.80999755859375 108.1399993896484 8.109999656677246
73.06999969482422 107.5400009155273 7.289999961853027
73.68000030517578 107.3399963378906 8.199999809265137
74.23000335693359 107.4100036621094 8.310000419616699
74.44000244140625 107.629997253418 8.310000419616699
73.73000335693359 107.4400024414062 8.380000114440918
73.23000335693359 107.7600021362305 8.260000228881836
72.55000305175781 107.5 8.189999580383301
71.91000366210938 107.8899993896484 8.270000457763672
72.05000305175781 108.4199981689453 8.479999542236328
71.83000183105469 107.4700012207031 7.489999771118164
71.80999755859375 107.3899993896484 8.439999580383301
71.80999755859375 110 7.239999771118164
71.94999694824219 110.4800033569336 8.369999885559082
71.80999755859375 109.9300003051758 8.399999618530273
72.05999755859375 111.0699996948242 8.289999961853027
72 112.9599990844727 8.039999961853027
71.87000274658203 112.379997253418 8.350000381469727
71.93000030517578 114.9000015258789 8.069999694824219
72.04000091552734 115.4199981689453 8.069999694824219
72.02999877929688 117.9499969482422 8.050000190734863
72.16999816894531 118.4700012207031 8.010000228881836
71.91999816894531 117.4599990844727 7.78000020980835
71.73000335693359 116.9000015258789 7.690000057220459
71.91999816894531 119.9899978637695 8.119999885559082
72.11000061035156 118.129997253418 7.880000114440918
71.93000030517578 117.5699996948242 7.960000038146973
71.79000091552734 116.9400024414062 7.739999771118164
71.88999938964844 114.3600006103516 8.020000457763672
72.01000213623047 114.9899978637695 8.029999732971191
72.04000091552734 112.4800033569336 8.270000457763672
71.76000213623047 111.379997253418 8.300000190734863
71.90000152587891 111.9199981689453 8.369999885559082
71.94999694824219 109.4400024414062 8.260000228881836
71.80000305175781 108.9100036621094 8.340000152587891
72.09999847412109 110.0400009155273 8.270000457763672
71.63999938964844 108.1500015258789 7.699999809265137
72.23000335693359 107.5299987792969 8.180000305175781
72.08999633789062 106.9700012207031 8.310000419616699
72.83999633789062 107.2900009155273 8.310000419616699
74.19000244140625 107.4899978637695 8.310000419616699
74.98000335693359 107.8499984741211 8.069999694824219
74.87999725341797 107.3099975585938 8.229999542236328
71.91000366210938 118.3499984741211 7.699999809265137
72.08999633789062 119.0800018310547 7.78000020980835
71.70999908447266 117.5999984741211 7.690000057220459
71.80999755859375 115.9300003051758 7.980000019073486
72 116.5500030517578 7.840000152587891
71.94000244140625 110.9300003051758 8.210000038146973
71.86000061035156 113.3600006103516 8.020000457763672
71.95999908447266 113.9300003051758 7.809999942779541
72.30999755859375 107.5899963378906 8.270000457763672
71.79000091552734 107.8499984741211 8.119999885559082
72 108.5899963378906 8.229999542236328
73 107.6800003051758 7.78000020980835
74.38999938964844 107.6999969482422 7.820000171661377
73.72000122070312 107.6100006103516 8.439999580383301
71.75 108.6399993896484 7.960000038146973
73.09999847412109 107.5400009155273 7.809999942779541
73.51000213623047 107.4700012207031 8.260000228881836
71.69000244140625 107.9000015258789 7.949999809265137
75.44999694824219 108.3300018310547 8.520000457763672
71.68000030517578 110 7.949999809265137
71.76999664306641 110.7699966430664 7.760000228881836
72.08999633789062 110.7200012207031 8.489999771118164
71.80000305175781 112.1699981689453 7.679999828338623
71.83000183105469 111.5100021362305 7.880000114440918
71.81999969482422 112.9000015258789 7.619999885559082
71.86000061035156 113.6800003051758 7.480000019073486
71.84999847412109 115.0400009155273 7.429999828338623
71.87999725341797 114.4000015258789 7.639999866485596
71.90000152587891 115.8000030517578 7.300000190734863
71.90000152587891 116.5999984741211 7.489999771118164
71.84999847412109 117.9800033569336 7.690000057220459
71.86000061035156 117.370002746582 7.670000076293945
71.87000274658203 118.7200012207031 7.630000114440918
71.94000244140625 119.4800033569336 7.510000228881836
71.93000030517578 120.1999969482422 7.510000228881836
72.11000061035156 120.0299987792969 7.980000019073486
71.83000183105469 119.4800033569336 7.690000057220459
71.97000122070312 118.7200012207031 7.96999979019165
72.12000274658203 117.9100036621094 7.929999828338623
71.68000030517578 117.3399963378906 7.670000076293945
72.20999908447266 117.1699981689453 8.109999656677246
71.87999725341797 116.6900024414062 7.840000152587891
72.01999664306641 115.9400024414062 8.050000190734863
71.84999847412109 114.4400024414062 7.820000171661377
72.01000213623047 113.8199996948242 8.050000190734863
71.76000213623047 113.1600036621094 7.610000133514404
71.77999877929688 112.4199981689453 8.130000114440918
72 111.6600036621094 8.329999923706055
72.19000244140625 110.9899978637695 8.199999809265137
71.97000122070312 110.3300018310547 8.279999732971191
72.08999633789062 109.5800018310547 8.180000305175781
71.72000122070312 109.6500015258789 7.179999828338623
71.75 108.9700012207031 8.130000114440918
74.75 107.6399993896484 8.060000419616699
71.91000366210938 108.3399963378906 8.390000343322754
75.26999664306641 107.5 8.239999771118164
72.20999908447266 107.5599975585938 8.25
71.69000244140625 107.6699981689453 8.010000228881836
72.72000122070312 107.4199981689453 8.289999961853027
72.02999877929688 107.7799987792969 8.229999542236328
72.52999877929688 107.620002746582 8.289999961853027
73.05000305175781 107.5100021362305 8.279999732971191
73.55000305175781 107.370002746582 8.199999809265137
74.80000305175781 107.6399993896484 8.350000381469727
75.31999969482422 107.5100021362305 8.199999809265137
72.09999847412109 108.3000030517578 8.260000228881836
71.62000274658203 109.0699996948242 7.139999866485596
71.80000305175781 109.7399978637695 8.289999961853027
71.68000030517578 109.7600021362305 7.179999828338623
72 110.4100036621094 8.300000190734863
72.05000305175781 111 8.140000343322754
71.72000122070312 112.4499969482422 8.329999923706055
71.86000061035156 113.0999984741211 8.029999732971191
71.87999725341797 113.6600036621094 8.010000228881836
71.88999938964844 114.3399963378906 8.029999732971191
71.98999786376953 115.0500030517578 8.050000190734863
72.06999969482422 115.7200012207031 7.920000076293945
72.15000152587891 116.2600021362305 7.949999809265137
72.22000122070312 116.9199981689453 7.889999866485596
71.63999938964844 117.0599975585938 7.739999771118164
71.91999816894531 118.4599990844727 7.909999847412109
71.98999786376953 119.0299987792969 8.010000228881836
72.08000183105469 119.6399993896484 7.940000057220459
72.06999969482422 119.7600021362305 7.710000038146973
72.08999633789062 119.120002746582 7.420000076293945
72.01000213623047 118.4499969482422 8.020000457763672
72.06999969482422 117.6999969482422 7.760000228881836
71.63999938964844 117.129997253418 7.730000019073486
71.98999786376953 116.4599990844727 8.020000457763672
72.08000183105469 115.7799987792969 7.619999885559082
71.87000274658203 115.129997253418 8.210000038146973
72 113.8499984741211 7.840000152587891
71.98999786376953 113.1999969482422 7.329999923706055
71.94999694824219 112.4499969482422 8.350000381469727
71.93000030517578 111.7799987792969 8.289999961853027
71.98000335693359 111.129997253418 8.300000190734863
72.01000213623047 110.4199981689453 8.210000038146973
72.01999664306641 109.6999969482422 8.149999618530273
71.97000122070312 108.9599990844727 7.96999979019165
72.01000213623047 108.3499984741211 7.650000095367432
72.12000274658203 107.5800018310547 8.039999961853027
72.76999664306641 107.4300003051758 8.090000152587891
71.66000366210938 107.6800003051758 8.380000114440918
71.70999908447266 107.2600021362305 7.539999961853027
71.97000122070312 109.1999969482422 8.270000457763672
72.37000274658203 107.379997253418 8.210000038146973
71.80000305175781 109.7099990844727 8.340000152587891
71.84999847412109 109.5599975585938 7.170000076293945
72.05999755859375 108.620002746582 8.170000076293945
71.75 112.5599975585938 8.359999656677246
71.87000274658203 112.0100021362305 8.300000190734863
72.05000305175781 111.4199981689453 8.260000228881836
72.18000030517578 110.8399963378906 8.090000152587891
73.66999816894531 107.4800033569336 8.420000076293945
71.84999847412109 114.870002746582 8.050000190734863
72.08000183105469 113.8000030517578 7.789999961853027
71.95999908447266 114.3099975585938 7.929999828338623
72.05000305175781 117.1399993896484 7.840000152587891
71.83999633789062 117.8399963378906 7.71999979019165
72.04000091552734 119.7900009155273 7.960000038146973
75.05000305175781 107.5199966430664 8.319999694824219
72.16000366210938 119.2600021362305 7.760000228881836
71.88999938964844 107.2900009155273 8.310000419616699
71.73000335693359 107.8600006103516 8.079999923706055
71.80000305175781 109.7399978637695 8.319999694824219
71.94999694824219 109.2600021362305 8.359999656677246
71.77999877929688 109.8000030517578 7.170000076293945
72.31999969482422 107.5899963378906 8.270000457763672
72.08000183105469 108.7099990844727 8.289999961853027
71.66999816894531 110.3399963378906 7.099999904632568
72.05000305175781 111.0899963378906 8.380000114440918
71.66000366210938 112.7099990844727 8.300000190734863
71.93000030517578 111.6100006103516 8.319999694824219
71.83000183105469 112.1399993896484 8.319999694824219
71.91999816894531 114.5999984741211 8.010000228881836
72.02999877929688 114.0599975585938 8.039999961853027
71.77999877929688 115.1600036621094 8.189999580383301
73.65000152587891 107.6699981689453 8.319999694824219
71.81999969482422 117.629997253418 7.690000057220459
74.33999633789062 107.4199981689453 8.149999618530273
71.91999816894531 117.0699996948242 7.960000038146973
72.05000305175781 116.5199966430664 8.050000190734863
71.80999755859375 119.9800033569336 8.100000381469727
72.04000091552734 118.9899978637695 8.079999923706055
71.94999694824219 119.4800033569336 8.039999961853027
74.81999969482422 107.7200012207031 8.300000190734863
71.66999816894531 107.4499969482422 7.820000171661377
72.48999786376953 107.5199966430664 8.300000190734863
71.76999664306641 110.2699966430664 8.399999618530273
72.08000183105469 109.1699981689453 8.25
71.93000030517578 109.75 8.260000228881836
71.81999969482422 110 7.25
72.08999633789062 111.8399963378906 8.300000190734863
71.93000030517578 112.4000015258789 8.310000419616699
71.80999755859375 112.8499984741211 7.960000038146973
71.76999664306641 115.4499969482422 7.920000076293945
71.91000366210938 114.870002746582 8.020000457763672
72.06999969482422 114.3199996948242 8.039999961853027
73.77999877929688 107.5899963378906 8.25
74.48000335693359 107.4000015258789 8.460000038146973
71.76000213623047 118 7.639999866485596
72.05999755859375 116.9400024414062 8.029999732971191
71.91999816894531 117.4300003051758 7.949999809265137
75.13999938964844 107.7200012207031 7.920000076293945
72.01999664306641 120.1800003051758 8.060000419616699
72.16000366210938 119.5800018310547 8.029999732971191
71.73000335693359 108.5599975585938 8
71.87999725341797 108.0100021362305 8.170000076293945
72.02999877929688 107.4400024414062 8.390000343322754
71.72000122070312 111.120002746582 8.239999771118164
71.91999816894531 110.4800033569336 8.310000419616699
71.88999938964844 110.5199966430664 7.199999809265137
72.62000274658203 107.5899963378906 8.329999923706055
71.83999633789062 114.0400009155273 7.869999885559082
72 113.3499984741211 7.96999979019165
73.44000244140625 107.5999984741211 7.650000095367432
73.5 107.4100036621094 8.510000228881836
71.76000213623047 117.1800003051758 7.690000057220459
71.93000030517578 116.6100006103516 8
74.20999908447266 107.620002746582 8.319999694824219
71.83999633789062 119.6699981689453 7.889999866485596
71.98999786376953 119.0299987792969 8.039999961853027
74.86000061035156 107.7200012207031 7.949999809265137
73.79000091552734 107.5500030517578 8.270000457763672
74.38999938964844 107.7099990844727 8.350000381469727
73.26000213623047 107.4100036621094 7.860000133514404
71.70999908447266 107.5899963378906 8.020000457763672
71.86000061035156 108.3000030517578 8.430000305175781
71.80000305175781 109.7300033569336 8.060000419616699
71.80000305175781 109.0599975585938 8.260000228881836
71.69999694824219 110.3300018310547 8.060000419616699
71.97000122070312 111.120002746582 8.380000114440918
71.81999969482422 111.8899993896484 8.119999885559082
71.77999877929688 112.620002746582 7.860000133514404
71.98999786376953 114.0800018310547 8.069999694824219
71.80999755859375 113.2900009155273 7.389999866485596
71.84999847412109 114.8499984741211 7.670000076293945
71.91000366210938 115.5500030517578 7.349999904632568
71.87999725341797 116.9100036621094 7.769999980926514
71.94999694824219 116.2900009155273 8.079999923706055
71.77999877929688 117.6600036621094 7.739999771118164
72.01000213623047 118.879997253418 8.130000114440918
71.83999633789062 118.2799987792969 7.389999866485596
72.15000152587891 118.370002746582 8.069999694824219
71.93000030517578 119.4700012207031 7.809999942779541
71.93000030517578 120.2300033569336 7.590000152587891
72.19999694824219 119.2799987792969 8.079999923706055
72.19999694824219 118.5100021362305 8.050000190734863
72.02999877929688 117.8399963378906 8.130000114440918
72.01000213623047 117.1399993896484 7.980000019073486
71.87999725341797 116.3600006103516 7.829999923706055
72.05999755859375 115.1699981689453 8.119999885559082
72.09999847412109 114.4499969482422 8.039999961853027
72.04000091552734 113.6800003051758 8.029999732971191
71.90000152587891 112.9499969482422 7.860000133514404
72.12999725341797 111.6999969482422 8.399999618530273
72.05000305175781 110.9199981689453 8.329999923706055
71.95999908447266 110.1500015258789 8.359999656677246
71.91000366210938 109.4700012207031 8.180000305175781
71.83999633789062 108.7600021362305 8.159999847412109
71.83999633789062 108.0199966430664 8.100000381469727
73.29000091552734 107.6600036621094 8.289999961853027
72.25 107.4000015258789 8.149999618530273
71.81999969482422 107.3000030517578 7.5
72.79000091552734 107.5500030517578 8.239999771118164
75.48999786376953 107.4899978637695 8.239999771118164
75.25 107.5 8.239999771118164
72.63999938964844 107.5400009155273 8.220000267028809
72.08000183105469 107.4300003051758 8.159999847412109
73.15000152587891 107.7099990844727 8.189999580383301
71.73999786376953 108.1100006103516 8.020000457763672
71.97000122070312 108.7900009155273 8.229999542236328
71.76999664306641 109.3499984741211 8.430000305175781
71.70999908447266 110.0400009155273 7.159999847412109
71.83999633789062 110.0800018310547 8.399999618530273
71.97000122070312 110.9100036621094 8.180000305175781
71.90000152587891 112.1800003051758 8.279999732971191
71.98999786376953 112.8399963378906 7.809999942779541
71.66000366210938 113.5299987792969 8.050000190734863
71.88999938964844 114.2399978637695 8.010000228881836
72.15000152587891 114.9800033569336 7.880000114440918
71.72000122070312 115.5100021362305 8
71.98999786376953 116.3300018310547 8.010000228881836
71.66999816894531 116.870002746582 7.75
72.02999877929688 117.620002746582 7.920000076293945
72.08000183105469 118.3199996948242 7.869999885559082
71.75 119.0999984741211 8.050000190734863
71.91000366210938 119.8300018310547 8.020000457763672
71.91000366210938 119.9300003051758 8.109999656677246
71.91999816894531 119.3000030517578 8.029999732971191
72.09999847412109 118.6500015258789 7.829999923706055
72.08999633789062 117.8499984741211 7.559999942779541
72.08000183105469 117.1600036621094 7.269999980926514
71.66999816894531 117.0899963378906 7.730000019073486
72.04000091552734 116.5899963378906 7.210000038146973
71.94999694824219 115.9000015258789 8.079999923706055
72.04000091552734 115.1500015258789 8.069999694824219
72.05999755859375 114.4800033569336 7.909999847412109
72.02999877929688 113.8399963378906 7.590000152587891
72.05999755859375 113.1600036621094 7.550000190734863
71.98999786376953 112.4499969482422 7.300000190734863
71.83999633789062 112.3600006103516 8.369999885559082
71.83999633789062 111.7600021362305 8.319999694824219
71.98999786376953 111.7799987792969 7.210000038146973
71.86000061035156 111.1500015258789 8.329999923706055
72.01000213623047 110.5199966430664 8.149999618530273
72.02999877929688 109.7200012207031 8.090000152587891
72.01999664306641 109.0699996948242 8.010000228881836
72.01000213623047 108.4800033569336 7.980000019073486
72 107.8099975585938 7.739999771118164
72 106.9800033569336 7.360000133514404
74.13999938964844 107.5100021362305 8.189999580383301
73.66000366210938 107.4199981689453 8.439999580383301
74.66000366210938 107.6399993896484 7.920000076293945
