144.9600067138672 477.8500061035156 11.97000026702881
144.9499969482422 479.1000061035156 12
145 479.7699890136719 11.90999984741211
144.5500030517578 481.0499877929688 11.82999992370605
145.1900024414062 481.5499877929688 11.71000003814697
144.6499938964844 481.7200012207031 11.81999969482422
144.6900024414062 482.3900146484375 11.8100004196167
144.9400024414062 483.0499877929688 11.85999965667725
145.0399932861328 483.7099914550781 11.81999969482422
144.5099945068359 483.8200073242188 11.67000007629395
144.6300048828125 484.5299987792969 11.69999980926514
144.6600036621094 485.3399963378906 11.75
144.8000030517578 486.0499877929688 11.72999954223633
144.8000030517578 486.739990234375 11.77000045776367
144.3099975585938 487.6000061035156 11.5600004196167
144.7899932861328 487.4700012207031 11.77999973297119
144.4400024414062 487.6400146484375 7.940000057220459
144.5500030517578 487.760009765625 11.8100004196167
145.3000030517578 487.5499877929688 8.510000228881836
144.7299957275391 487.6799926757812 7.940000057220459
144.8899993896484 486.8699951171875 11.64000034332275
144.7100067138672 486.2000122070312 11.71000003814697
144.7100067138672 485.510009765625 11.76000022888184
144.6100006103516 484.7999877929688 11.75
145.1499938964844 484.6400146484375 11.68000030517578
145.0299987792969 483.8399963378906 11.68000030517578
144.5099945068359 483.9700012207031 11.77999973297119
144.7599945068359 483.1300048828125 11.81999969482422
144.6900024414062 482.5299987792969 11.8100004196167
144.4600067138672 481.8699951171875 11.84000015258789
145.0299987792969 481.75 12.06999969482422
144.8600006103516 481.0499877929688 11.81999969482422
144.5899963378906 480.4700012207031 11.84000015258789
144.5800018310547 479.8699951171875 11.85999965667725
144.9100036621094 479.1300048828125 11.84000015258789
144.7899932861328 478.5199890136719 11.86999988555908
145.2200012207031 478.3999938964844 11.30000019073486
145.3500061035156 478.3800048828125 12.13000011444092
144.5099945068359 477.9400024414062 12.01000022888184
145.0599975585938 477.8099975585938 12.0600004196167
145.25 477.9599914550781 11.47000026702881
145.2700042724609 478.6600036621094 12.14999961853027
144.9799957275391 478.0299987792969 12.19999980926514
145.4799957275391 478.6199951171875 11.06999969482422
144.6499938964844 480.1600036621094 11.9399995803833
144.8099975585938 480.8500061035156 11.84000015258789
145.3000030517578 481.3999938964844 11.07999992370605
145.0200042724609 481.5 11.89000034332275
145.4299926757812 481.9599914550781 11.05000019073486
145.25 482.0199890136719 12.26000022888184
144.5899963378906 483.6300048828125 11.85999965667725
144.3000030517578 484.4299926757812 11.90999984741211
144.8699951171875 484.260009765625 11.67000007629395
144.8399963378906 484.8500061035156 11.69999980926514
144.3399963378906 485 11.85000038146973
144.9799957275391 485.510009765625 11.65999984741211
145.1300048828125 486.2699890136719 11.65999984741211
144.6799926757812 487.0700073242188 11.73999977111816
144.7100067138672 487.6700134277344 11.77000045776367
144.9299926757812 487.6300048828125 10.73999977111816
144.9600067138672 487.6300048828125 9.369999885559082
145.5099945068359 487.5299987792969 7.739999771118164
145.1900024414062 487.5899963378906 8.430000305175781
144.5700073242188 487.7799987792969 11.72999954223633
144.2200012207031 487.6300048828125 8
144.8000030517578 487.7799987792969 7.909999847412109
144.8600006103516 487.1400146484375 11.77000045776367
144.6199951171875 486.2999877929688 11.6899995803833
144.7200012207031 485.0199890136719 11.72999954223633
144.6999969482422 483.6600036621094 11.77000045776367
144.6699981689453 482.489990234375 11.82999992370605
145.4499969482422 482.0599975585938 12.01000022888184
144.9199981689453 481.9500122070312 11.88000011444092
144.6499938964844 481.1099853515625 11.82999992370605
144.8999938964844 480.5199890136719 11.89999961853027
144.5800018310547 479.8299865722656 11.81999969482422
144.7899932861328 479.2000122070312 11.88000011444092
144.8000030517578 477.7300109863281 12.05000019073486
144.6199951171875 486.9400024414062 11.6899995803833
145.3399963378906 487.1499938964844 8.5
144.75 486.3500061035156 11.71000003814697
145.0399932861328 485.7999877929688 11.63000011444092
144.7400054931641 485.010009765625 11.71000003814697
144.9499969482422 484.3099975585938 11.71000003814697
145 483.6099853515625 11.80000019073486
144.6100006103516 482.8900146484375 11.82999992370605
144.75 482.3200073242188 11.82999992370605
145.5700073242188 481.7300109863281 11.77000045776367
144.9799957275391 481.5499877929688 11.90999984741211
144.5899963378906 480.739990234375 11.88000011444092
144.6799926757812 480.1099853515625 11.85999965667725
144.7899932861328 479.4200134277344 11.88000011444092
144.8999938964844 478.6700134277344 11.92000007629395
144.8600006103516 477.9700012207031 11.97999954223633
145.4799957275391 478.0899963378906 12.06999969482422
145.3099975585938 477.8699951171875 11.09000015258789
145.2100067138672 477.8500061035156 12.23999977111816
145.3200073242188 478.25 11.97000026702881
144.7200012207031 478.1099853515625 12.13000011444092
145.2400054931641 478.6300048828125 11.39000034332275
144.8099975585938 478.5199890136719 11.89999961853027
144.7200012207031 479.5599975585938 11.93000030517578
144.9400024414062 480.0599975585938 11.84000015258789
144.9900054931641 480.6300048828125 11.8100004196167
144.5899963378906 481.1900024414062 11.89000034332275
144.7799987792969 481.7999877929688 11.93000030517578
145.3500061035156 481.9400024414062 11.89000034332275
145.0599975585938 482.3399963378906 11.89000034332275
145.3300018310547 482.4100036621094 11.02000045776367
144.7700042724609 483.5 11.77000045776367
144.8699951171875 484.1300048828125 11.71000003814697
145.1000061035156 484.7300109863281 11.5600004196167
144.6100006103516 484.5899963378906 11.82999992370605
144.75 485.1700134277344 11.80000019073486
144.9900054931641 485.9400024414062 11.60999965667725
144.7299957275391 486.4800109863281 11.72999954223633
144.9799957275391 487.0899963378906 11.60000038146973
144.8899993896484 487.6099853515625 9.359999656677246
144.9400024414062 487.6000061035156 7.869999885559082
144.5700073242188 487.5700073242188 11.76000022888184
144.8899993896484 487.6499938964844 10.88000011444092
144.6999969482422 488.1900024414062 8.130000114440918
145.2799987792969 478.2999877929688 11.97000026702881
144.7299957275391 478.5 11.86999988555908
144.8899993896484 479.1499938964844 11.9399995803833
144.5800018310547 478.010009765625 11.96000003814697
144.9900054931641 481.5700073242188 11.85000038146973
144.7899932861328 480.8999938964844 11.85999965667725
144.6600036621094 480.3699951171875 11.82999992370605
145.0599975585938 481.9700012207031 11.30000019073486
144.6399993896484 482.9200134277344 11.8100004196167
144.9799957275391 484.0899963378906 11.76000022888184
144.7899932861328 483.4700012207031 11.78999996185303
144.7899932861328 485.9800109863281 11.6899995803833
144.9299926757812 486.5400085449219 11.69999980926514
144.5 484.8599853515625 11.73999977111816
144.6499938964844 485.4599914550781 11.76000022888184
144.6799926757812 487.7900085449219 8.960000038146973
144.5200042724609 487.4500122070312 11.69999980926514
144.7200012207031 487.989990234375 7.900000095367432
144.1100006103516 487.4700012207031 8
144.1399993896484 487.6400146484375 7.989999771118164
144.8500061035156 487.8399963378906 7.949999809265137
144.9100036621094 487.9400024414062 11.6899995803833
144.6100006103516 486.8500061035156 11.64999961853027
144.7799987792969 487.3900146484375 11.72999954223633
144.9299926757812 485.7000122070312 11.68000030517578
144.7799987792969 485.1099853515625 11.76000022888184
144.6699981689453 484.6400146484375 11.73999977111816
145.2799987792969 487.1600036621094 8.479999542236328
144.5800018310547 481.7699890136719 11.85999965667725
144.7400054931641 482.3299865722656 11.81999969482422
144.8600006103516 482.8099975585938 11.81999969482422
144.9700012207031 483.3399963378906 11.8100004196167
145.3999938964844 482.1300048828125 12.01000022888184
145.2599945068359 481.6000061035156 12.0600004196167
144.9700012207031 480.510009765625 11.81999969482422
144.7299957275391 479.4599914550781 11.85000038146973
144.8500061035156 480.0400085449219 11.85999965667725
144.5899963378906 478.9599914550781 11.93000030517578
145.0599975585938 478.1600036621094 12.19999980926514
145.4700012207031 478.1799926757812 12.15999984741211
144.7599945068359 478.1300048828125 11.9399995803833
144.8999938964844 478.6600036621094 11.94999980926514
144.9799957275391 481.9200134277344 12.02999973297119
144.7200012207031 480.8399963378906 11.89999961853027
144.8399963378906 481.3699951171875 11.86999988555908
144.5399932861328 482.9599914550781 11.84000015258789
144.6699981689453 483.5199890136719 11.77999973297119
144.9600067138672 484.6499938964844 11.76000022888184
144.8500061035156 484.1499938964844 11.78999996185303
144.5700073242188 485.5799865722656 11.72999954223633
144.7200012207031 486.1600036621094 11.73999977111816
145.1300048828125 487.5499877929688 8.539999961853027
144.8699951171875 486.6900024414062 11.69999980926514
145 487.260009765625 11.71000003814697
144.4400024414062 487.6000061035156 7.940000057220459
145.2599945068359 487.6799926757812 8.310000419616699
144.6300048828125 487.5299987792969 8.109999656677246
144.7100067138672 486.8599853515625 11.72000026702881
144.5299987792969 487.4400024414062 11.65999984741211
144.8200073242188 486.2699890136719 11.73999977111816
144.9700012207031 485.739990234375 11.77000045776367
144.6900024414062 483.8999938964844 11.75
144.8300018310547 483.2799987792969 11.77999973297119
145.1399993896484 481.9500122070312 11.46000003814697
144.5200042724609 484.4700012207031 11.72000026702881
145.2299957275391 481.6099853515625 12.13000011444092
144.9900054931641 482.6700134277344 11.80000019073486
144.6000061035156 481.5899963378906 11.82999992370605
144.7400054931641 481.010009765625 11.85999965667725
145.4100036621094 478.0799865722656 12.1899995803833
145.3699951171875 478.4200134277344 11.43000030517578
144.8899993896484 480.4100036621094 11.88000011444092
144.6799926757812 478.5799865722656 11.88000011444092
144.8200073242188 478.010009765625 11.9399995803833
144.5399932861328 479.1600036621094 11.85999965667725
145.1199951171875 477.9800109863281 12.23999977111816
144.9499969482422 478.489990234375 11.88000011444092
144.8500061035156 479.0199890136719 11.89000034332275
144.6900024414062 479.5199890136719 11.85999965667725
144.6199951171875 482.6799926757812 11.86999988555908
145.0299987792969 481.0899963378906 11.88000011444092
144.7799987792969 482.1799926757812 11.8100004196167
144.8699951171875 481.6499938964844 11.82999992370605
145.0200042724609 484.239990234375 11.72999954223633
144.7299957275391 485.2999877929688 11.72999954223633
144.8500061035156 484.8099975585938 11.72999954223633
144.6100006103516 485.7999877929688 11.72999954223633
144.9100036621094 487.3299865722656 11.72000026702881
144.6999969482422 487.7900085449219 8.020000457763672
145.0500030517578 486.7900085449219 11.68000030517578
145.3899993896484 487.6799926757812 8.560000419616699
144.9900054931641 487.489990234375 11.72000026702881
145.0099945068359 487.6900024414062 8.689999580383301
144.3500061035156 487.6900024414062 7.96999979019165
145.0299987792969 484.3999938964844 11.72999954223633
144.7799987792969 485.510009765625 11.71000003814697
144.9299926757812 484.9800109863281 11.77999973297119
144.6399993896484 486.1099853515625 11.71000003814697
144.6399993896484 483.0400085449219 11.77999973297119
145.0099945068359 481.4100036621094 11.81999969482422
144.7400054931641 482.5 11.78999996185303
144.4600067138672 483.5799865722656 11.81999969482422
144.8800048828125 481.8900146484375 11.88000011444092
144.5399932861328 480.5700073242188 11.92000007629395
144.6699981689453 480.0499877929688 11.89000034332275
145.1300048828125 478.2999877929688 12.22000026702881
144.8200073242188 479.4599914550781 11.88000011444092
145.2400054931641 477.9500122070312 11.5600004196167
144.9499969482422 478.9400024414062 11.85999965667725
144.6699981689453 477.7200012207031 11.78999996185303
