471.3699951171875 128.4799957275391 10.67000007629395
472.739990234375 129.2599945068359 14.60999965667725
473.9800109863281 128.6300048828125 10.77000045776367
474.5799865722656 128.4199981689453 10.60000038146973
475.8599853515625 128.6499938964844 8.210000038146973
476.6199951171875 129.3300018310547 14.63000011444092
476.489990234375 128.7400054931641 14.52000045776367
476.2200012207031 127.5899963378906 14.44999980926514
476.3500061035156 128.2400054931641 14.30000019073486
476.4400024414062 128.4400024414062 12.01000022888184
476.489990234375 128.3300018310547 7.25
476.5 128.2799987792969 3.980000019073486
476.4800109863281 128.3500061035156 9.069999694824219
476.5 128.3500061035156 5.559999942779541
476.4500122070312 128.3200073242188 10.69999980926514
477.0400085449219 128.3899993896484 14.89000034332275
477.0700073242188 128.3500061035156 13.23999977111816
477.6499938964844 128.4900054931641 7.940000057220459
477.5700073242188 128.3600006103516 14.89000034332275
470.1300048828125 128.6000061035156 10.68000030517578
474.0199890136719 128.6000061035156 14.94999980926514
472.9100036621094 129.4299926757812 14.61999988555908
473.1300048828125 127.6699981689453 14.60000038146973
476.6600036621094 128.6999969482422 11.81999969482422
476.5199890136719 128.2700042724609 10.63000011444092
476.3599853515625 127.4499969482422 14.39999961853027
476.489990234375 128.0399932861328 14.42000007629395
475.6600036621094 127.6600036621094 14.53999996185303
476.0799865722656 129.3399963378906 14.51000022888184
476.6600036621094 128.6199951171875 13.22000026702881
476.6400146484375 128.4900054931641 14.78999996185303
475.4800109863281 129.5200042724609 14.64000034332275
474.6499938964844 128.5399932861328 14.89999961853027
477.7099914550781 127.75 14.43000030517578
477.3099975585938 128.4499969482422 13.35999965667725
478.3900146484375 127.5800018310547 14.43000030517578
469.760009765625 128.5599975585938 10.76000022888184
471.8500061035156 128.5500030517578 10.85000038146973
472.6300048828125 128.7100067138672 8.25
473.7799987792969 127.5299987792969 14.53999996185303
474.239990234375 129.3000030517578 14.60999965667725
474.739990234375 128.5299987792969 10.76000022888184
474.6300048828125 128.3899993896484 14.89999961853027
474.9299926757812 129.5 14.71000003814697
475.4800109863281 128.6499938964844 10.68000030517578
475.5400085449219 128.7100067138672 8.289999961853027
476.3500061035156 129.1199951171875 11.80000019073486
476.3900146484375 128.6900024414062 3
476.3500061035156 128.6699981689453 5.320000171661377
476.3200073242188 129.1499938964844 14.42000007629395
476.0599975585938 128.0299987792969 14.47000026702881
475.9500122070312 127.5 14.52999973297119
476.1799926757812 128.6000061035156 14.4399995803833
476.6600036621094 127.5500030517578 14.48999977111816
477.0799865722656 128.7700042724609 7.380000114440918
477 128.6699981689453 12.07999992370605
477.4800109863281 128.3399963378906 14.77000045776367
477.6700134277344 127.75 14.42000007629395
476.3900146484375 128.0899963378906 14.36999988555908
476.5 128.7200012207031 12.93000030517578
476.6199951171875 129.3000030517578 11.36999988555908
476.4800109863281 128.8800048828125 5.349999904632568
476.4800109863281 128.8099975585938 6.519999980926514
476.4100036621094 128.8099975585938 3.859999895095825
476.5299987792969 128.9299926757812 11.98999977111816
476.4599914550781 128.7700042724609 9.149999618530273
476.5 128.8200073242188 7.869999885559082
476.4500122070312 128.8999938964844 2.609999895095825
476.5199890136719 128.7100067138672 14.21000003814697
475.8299865722656 128.9499969482422 8.279999732971191
476.0599975585938 129.5099945068359 14.61999988555908
474.5899963378906 128.5500030517578 14.89999961853027
474.3500061035156 127.6100006103516 14.5
471.3699951171875 128.7299957275391 10.76000022888184
471.5799865722656 129.4600067138672 14.72000026702881
476.5599975585938 129.1300048828125 11.86999988555908
476.0700073242188 129.2299957275391 11.52000045776367
475.9500122070312 129.3399963378906 14.38000011444092
476.7999877929688 129 7.429999828338623
476.4400024414062 128.5800018310547 14.80000019073486
476.2000122070312 128.6000061035156 11.18000030517578
475.7799987792969 128.6999969482422 10.72000026702881
476.0799865722656 128.6699981689453 14.14999961853027
476.1799926757812 128.5399932861328 8.569999694824219
476.25 128.6000061035156 12.5
476.1700134277344 128.6000061035156 9.960000038146973
476.1000061035156 128.5299987792969 4.679999828338623
476.1400146484375 128.5099945068359 3.289999961853027
476.1499938964844 128.5200042724609 5.880000114440918
476.1400146484375 128.5800018310547 7.260000228881836
467.4500122070312 128.5399932861328 10.76000022888184
473.7000122070312 127.5800018310547 14.52999973297119
473.3299865722656 128.3800048828125 14.9399995803833
476.7200012207031 127.5599975585938 14.5600004196167
476.1700134277344 127.6800003051758 14.42000007629395
472.5299987792969 128.6300048828125 10.64000034332275
476.3099975585938 128.4799957275391 3.009999990463257
476.239990234375 128.3999938964844 10.78999996185303
475.9500122070312 128.4299926757812 14.64000034332275
476.5199890136719 128.3099975585938 14.61999988555908
472.0700073242188 129.3899993896484 14.73999977111816
476.8099975585938 128.8500061035156 12.0600004196167
476.3599853515625 128.9700012207031 11.80000019073486
476.3200073242188 128.9499969482422 14.42000007629395
474.5899963378906 129.3899993896484 14.61999988555908
476.739990234375 128.9499969482422 7.329999923706055
476.5 128.9900054931641 11.86999988555908
477.010009765625 128.8500061035156 11.90999984741211
475.0400085449219 129.3500061035156 14.64000034332275
475.1600036621094 128.6799926757812 10.71000003814697
472.8399963378906 129.3000030517578 14.60999965667725
476.6099853515625 128.8699951171875 7.400000095367432
476.1499938964844 129.1100006103516 14.47999954223633
477.4100036621094 128.7400054931641 10.69999980926514
476.0899963378906 128.5399932861328 14.73999977111816
476.6199951171875 128.3899993896484 14.77000045776367
476.8900146484375 127.6100006103516 14.52999973297119
472.8500061035156 128.5500030517578 10.69999980926514
473.75 128.3899993896484 14.84000015258789
473.2300109863281 128.5099945068359 14.89999961853027
472.3099975585938 128.6900024414062 10.65999984741211
476.2999877929688 127.7399978637695 14.39999961853027
474.010009765625 127.5599975585938 14.5600004196167
469.4299926757812 128.6300048828125 10.65999984741211
466.9800109863281 128.5299987792969 10.71000003814697
474.6499938964844 128.4299926757812 14.88000011444092
476.2699890136719 128.0500030517578 14.40999984741211
476.7300109863281 128.5800018310547 14.67000007629395
476.6099853515625 128.6600036621094 11.14999961853027
477.3999938964844 128.4700012207031 13.23999977111816
476.760009765625 128.6499938964844 9.939999580383301
476.2699890136719 128.7400054931641 11.86999988555908
476.739990234375 128.6999969482422 3.549999952316284
476.9400024414062 128.6100006103516 7.190000057220459
476.8399963378906 128.6499938964844 5.389999866485596
476.739990234375 128.6799926757812 8.260000228881836
476.3299865722656 129.2899932861328 14.48999977111816
476.4800109863281 129.2599945068359 11.78999996185303
468.3800048828125 128.3600006103516 10.72000026702881
478.4599914550781 127.4899978637695 14.44999980926514
477.8099975585938 127.5100021362305 14.53999996185303
477.4200134277344 128.6199951171875 8.020000457763672
476.75 129.1999969482422 11.84000015258789
477.2300109863281 127.5800018310547 14.52000045776367
476.260009765625 128.3399963378906 2.950000047683716
476.3299865722656 128.3399963378906 9.729999542236328
476.2799987792969 128.3500061035156 6.21999979019165
476.4599914550781 128.0099945068359 10.65999984741211
476.3699951171875 128.4400024414062 14.51000022888184
476.3999938964844 128.3899993896484 13.02999973297119
476.3500061035156 128.4100036621094 11.11999988555908
476.2000122070312 129.1000061035156 14.43000030517578
476.510009765625 127.8600006103516 14.39000034332275
476.239990234375 128.7899932861328 11.81999969482422
476.3299865722656 128.3300018310547 7.940000057220459
475.6600036621094 128.3899993896484 14.9399995803833
475.5599975585938 128.6999969482422 10.68000030517578
475.2699890136719 127.379997253418 14.56999969482422
474.8099975585938 129.2200012207031 14.61999988555908
474.1799926757812 129.2299957275391 14.59000015258789
474.6000061035156 127.4700012207031 14.61999988555908
473.9100036621094 127.5299987792969 14.63000011444092
473.4700012207031 129.3500061035156 14.63000011444092
472.9100036621094 128.4299926757812 10.71000003814697
472.7699890136719 128.7599945068359 8.189999580383301
472.2699890136719 128.4499969482422 10.71000003814697
468.3599853515625 128.5599975585938 10.75
470.4100036621094 128.5599975585938 10.69999980926514
471.6900024414062 128.7100067138672 10.73999977111816
473.7000122070312 128.7200012207031 10.65999984741211
471.010009765625 128.6100006103516 10.73999977111816
472.8699951171875 129.3899993896484 14.60000038146973
474.5899963378906 127.4800033569336 14.56999969482422
473.1499938964844 128.6100006103516 10.67000007629395
473.7300109863281 128.4299926757812 14.96000003814697
475.4800109863281 129.4100036621094 14.61999988555908
475.75 128.3999938964844 14.86999988555908
475.7099914550781 128.6499938964844 10.6899995803833
475.2699890136719 127.5899963378906 14.60000038146973
478.1400146484375 127.1500015258789 7.53000020980835
477.1799926757812 127.620002746582 14.52999973297119
477.0599975585938 128.6600036621094 7.420000076293945
476.9100036621094 128.8699951171875 12.03999996185303
476.9200134277344 128.6600036621094 14.94999980926514
476.1700134277344 129.2899932861328 11.84000015258789
476.3099975585938 128.7299957275391 11.78999996185303
476.1700134277344 129.0899963378906 14.44999980926514
476.5899963378906 127.4800033569336 14.52999973297119
476.3099975585938 128.5200042724609 14.52000045776367
476.4100036621094 128.2799987792969 10.65999984741211
476.4100036621094 128.0200042724609 14.39999961853027
467.4700012207031 128.5099945068359 10.71000003814697
471.6000061035156 128.6499938964844 10.73999977111816
478.0799865722656 127.4499969482422 14.48999977111816
477.3800048828125 127.5699996948242 14.51000022888184
477.1400146484375 128.3899993896484 13.40999984741211
476.9700012207031 128.9499969482422 8.359999656677246
476.9800109863281 128.7400054931641 7.480000019073486
476.2900085449219 128.7599945068359 14.36999988555908
476.1499938964844 129.3200073242188 14.5
476.1300048828125 129.2700042724609 11.72999954223633
476.2799987792969 128.6699981689453 11.77000045776367
476.4299926757812 128.1999969482422 14.52999973297119
476.6099853515625 127.6399993896484 14.59000015258789
475.739990234375 128.3300018310547 14.9399995803833
475.510009765625 129.3899993896484 14.65999984741211
475.489990234375 129.0200042724609 8.239999771118164
475.010009765625 128.6300048828125 10.77999973297119
475.1400146484375 128.4100036621094 14.88000011444092
473.5299987792969 128.7599945068359 10.60999965667725
473.260009765625 127.4899978637695 14.55000019073486
472.8099975585938 128.8000030517578 8.239999771118164
472.1700134277344 129.2700042724609 14.5600004196167
467.2699890136719 128.5899963378906 10.68000030517578
469.260009765625 128.5700073242188 10.77000045776367
473.8200073242188 128.6699981689453 10.8100004196167
473.3099975585938 127.5999984741211 14.55000019073486
474.7699890136719 129.3600006103516 14.72000026702881
474.6499938964844 127.6399993896484 14.48999977111816
474.3900146484375 128.5200042724609 14.96000003814697
476.510009765625 128.7899932861328 4.159999847412109
476.4200134277344 128.8500061035156 6.869999885559082
476.5199890136719 128.7400054931641 2.789999961853027
476.5 128.5800018310547 6.329999923706055
476.4800109863281 128.8099975585938 5.510000228881836
475.6300048828125 129.0899963378906 8.140000343322754
475.6300048828125 128.5599975585938 14.89000034332275
475.8699951171875 127.6800003051758 14.59000015258789
477.0400085449219 128.6100006103516 14.78999996185303
477.0499877929688 128.5 13.4399995803833
477.25 127.6999969482422 14.47000026702881
476.4400024414062 128.6900024414062 9.359999656677246
476.25 129.2599945068359 11.68000030517578
476.1900024414062 129.3300018310547 14.5
476.4299926757812 128.7299957275391 8.100000381469727
476.3999938964844 128.6399993896484 14.52000045776367
476.3699951171875 128.7700042724609 12.03999996185303
478.4800109863281 127.75 14.39000034332275
475.9100036621094 129.4400024414062 14.4399995803833
476.1600036621094 128.8699951171875 11.6899995803833
476.6300048828125 128.9700012207031 11.97999954223633
476.1400146484375 128.8200073242188 14.39000034332275
476.9200134277344 128.4299926757812 13.21000003814697
476.2699890136719 128.3699951171875 2.410000085830688
476.3099975585938 128.3699951171875 3.700000047683716
476.3599853515625 128.3300018310547 7.659999847412109
476.3800048828125 128.3000030517578 9.090000152587891
476.2799987792969 128.2799987792969 13.14999961853027
476.3099975585938 128.2299957275391 14.40999984741211
476.2999877929688 128.2799987792969 10.5600004196167
476.2999877929688 128.3699951171875 5.059999942779541
476.3699951171875 128.3500061035156 6.260000228881836
476.9100036621094 126.3600006103516 3.759999990463257
473.239990234375 129.3500061035156 14.63000011444092
475.6700134277344 129.2599945068359 14.5600004196167
476.2699890136719 129.3699951171875 11.69999980926514
476.2099914550781 129.4199981689453 14.48999977111816
476.4200134277344 128.7799987792969 11.8100004196167
476.0599975585938 128.6799926757812 10.76000022888184
476.6300048828125 128.7299957275391 5.590000152587891
476.3500061035156 128.7799987792969 14.44999980926514
475.1400146484375 128.5200042724609 14.88000011444092
476.7900085449219 128.8099975585938 7.369999885559082
476.8399963378906 128.9100036621094 12.13000011444092
476.260009765625 128.6100006103516 4.550000190734863
476.3099975585938 128.6799926757812 7.059999942779541
474.2300109863281 127.5800018310547 14.5600004196167
477.739990234375 127.6600036621094 14.4399995803833
468.2300109863281 128.5 10.69999980926514
471.760009765625 129.3500061035156 14.60000038146973
470.9100036621094 128.5700073242188 10.75
474.4599914550781 129.3999938964844 14.61999988555908
473.9200134277344 129.2799987792969 14.60000038146973
473.7099914550781 128.5899963378906 10.73999977111816
476.2200012207031 129.1999969482422 14.47000026702881
476.4700012207031 129.3099975585938 11.80000019073486
476.7300109863281 129.2899932861328 14.64999961853027
473.5599975585938 128.4799957275391 14.81999969482422
473.0299987792969 128.3500061035156 14.97000026702881
475.7900085449219 128.3099975585938 14.92000007629395
476.2699890136719 128.4400024414062 14.47999954223633
476.7000122070312 128.5800018310547 13.3100004196167
476.6099853515625 128.6300048828125 5.53000020980835
477.0199890136719 128.6499938964844 10.61999988555908
476.75 128.6300048828125 7.300000190734863
476.5199890136719 128.5500030517578 10.8100004196167
476.6099853515625 128.5200042724609 11.96000003814697
475.8699951171875 127.6100006103516 14.60000038146973
475.3699951171875 127.4700012207031 14.55000019073486
476.3699951171875 127.7300033569336 14.35999965667725
478.1300048828125 127.5400009155273 14.51000022888184
478.5799865722656 127.6600036621094 14.4399995803833
476.4700012207031 127.7699966430664 14.35999965667725
476.7300109863281 128.3800048828125 9.460000038146973
476.760009765625 128.3099975585938 2.970000028610229
477.0499877929688 128.5099945068359 13.35000038146973
476.6799926757812 128.4400024414062 13.89999961853027
477.0299987792969 128.5299987792969 14.89999961853027
476.2799987792969 128.3600006103516 14.48999977111816
476.6300048828125 128.3600006103516 10.81999969482422
476.75 129.0800018310547 11.72000026702881
476.5499877929688 129.0700073242188 14.36999988555908
476.1900024414062 128.9900054931641 11.9399995803833
476.75 128.3699951171875 7.960000038146973
474.5599975585938 129.3999938964844 14.71000003814697
471.8999938964844 129.3800048828125 14.57999992370605
