244.5 461.8599853515625 9.810000419616699
244.5500030517578 461.8299865722656 11.76000022888184
244.9600067138672 461.6700134277344 14.44999980926514
245.4900054931641 461.5299987792969 16.89999961853027
244.9400024414062 461.6499938964844 16.79000091552734
244.9199981689453 461.7000122070312 12.46000003814697
244.9700012207031 461.739990234375 10.35000038146973
244.6399993896484 462.4599914550781 11.51000022888184
245.2400054931641 462.3200073242188 11.3100004196167
245.2200012207031 462.2900085449219 15.40999984741211
244.7599945068359 462.3999938964844 15.14999961853027
244.8999938964844 462.3200073242188 16.70999908447266
245.4400024414062 462.1900024414062 16.8700008392334
245.6100006103516 462.7300109863281 16.8700008392334
245.0800018310547 462.8699951171875 16.76000022888184
245.4900054931641 462.0299987792969 16.79999923706055
244.9600067138672 462.1499938964844 15.30000019073486
245.4100036621094 462.0299987792969 15.36999988555908
245.3200073242188 461.25 16.78000068664551
244.5800018310547 461.3599853515625 9.819999694824219
245.5200042724609 461.0400085449219 16.86000061035156
244.8200073242188 461.3299865722656 9.489999771118164
244.3800048828125 461.4299926757812 9.869999885559082
245.1100006103516 461.8500061035156 12.01000022888184
245.1999969482422 461.7900085449219 14.02000045776367
245.2100067138672 461.75 15.97999954223633
245 461.8399963378906 17.09000015258789
245.0399932861328 462.5599975585938 15.3100004196167
245.4299926757812 462.4100036621094 16.60000038146973
245.4499969482422 462.5 11.13000011444092
244.9900054931641 462.5899963378906 11.63000011444092
244.6199951171875 462.3200073242188 11.35999965667725
244.6699981689453 462.3999938964844 15.23999977111816
245.1699981689453 462.4299926757812 11.35000038146973
245.1300048828125 461.9200134277344 16.85000038146973
244.9900054931641 461.8599853515625 15.40999984741211
244.8099975585938 461.7799987792969 9.840000152587891
244.9199981689453 461.8099975585938 13.56999969482422
244.2799987792969 461.6499938964844 9.659999847412109
244.7400054931641 461.6700134277344 5.789999961853027
244.8200073242188 461.7999877929688 11.85000038146973
245.4299926757812 461.489990234375 16.82999992370605
245.6499938964844 460.8800048828125 17.10000038146973
244.8800048828125 462.7300109863281 16.88999938964844
244.7700042724609 462.760009765625 11.89999961853027
245.3999938964844 462.8599853515625 16.84000015258789
244.9600067138672 462.0700073242188 15.34000015258789
244.9799957275391 462.0700073242188 16.71999931335449
245.3500061035156 462.260009765625 11.17000007629395
245.0500030517578 461.3500061035156 16.79000091552734
244.3999938964844 461.2900085449219 9.880000114440918
245.2100067138672 462.5700073242188 11.22999954223633
245.2100067138672 462.6300048828125 16.77000045776367
244.8099975585938 462.4800109863281 11.76000022888184
245.1000061035156 461.7099914550781 8.189999580383301
245.1000061035156 461.7200012207031 6.260000228881836
245.0599975585938 461.7200012207031 9.850000381469727
245.0899963378906 461.7699890136719 11.48999977111816
245.0700073242188 461.8299865722656 16.93000030517578
244.5 461.6199951171875 9.819999694824219
245.1699981689453 461.8200073242188 15.22999954223633
245.0800018310547 461.8200073242188 13.43000030517578
245.4100036621094 461.2300109863281 16.73999977111816
245.2799987792969 461.1199951171875 16.79999923706055
245.4900054931641 461.9400024414062 15.81999969482422
245.4499969482422 461.7799987792969 16.84000015258789
244.8699951171875 462 15.35000038146973
245.1199951171875 463.0499877929688 16.6200008392334
245.1900024414062 462.9299926757812 11.25
244.9299926757812 461.8399963378906 9.859999656677246
244.9900054931641 461.7300109863281 6.110000133514404
244.9199981689453 461.9100036621094 11.64000034332275
245.0500030517578 462.3800048828125 11.34000015258789
244.9799957275391 462.510009765625 15.14000034332275
244.9299926757812 461.8099975585938 8.039999961853027
244.8000030517578 461.989990234375 16.96999931335449
244.2299957275391 461.6499938964844 9.810000419616699
245.0700073242188 462.7300109863281 11.27000045776367
244.8899993896484 461.8200073242188 15.32999992370605
245.0200042724609 462.3900146484375 15.30000019073486
244.9400024414062 461.9100036621094 17.05999946594238
245.0399932861328 462.489990234375 16.77000045776367
244.8300018310547 461.6600036621094 11.89000034332275
244.8200073242188 461.6000061035156 9.829999923706055
245.4299926757812 461.5700073242188 16.76000022888184
245.7100067138672 462.6600036621094 16.88999938964844
245.3099975585938 461.0499877929688 16.85000038146973
245.5500030517578 461.0799865722656 16.97999954223633
245.7400054931641 461.8800048828125 15.96000003814697
245.0700073242188 461.8900146484375 16.90999984741211
245.2299957275391 462.489990234375 16.76000022888184
245.0200042724609 461.5799865722656 11.25
245.0500030517578 461.4500122070312 7.03000020980835
245.0099945068359 461.6799926757812 15.36999988555908
245.0200042724609 461.6400146484375 13.32999992370605
245.0700073242188 461.5299987792969 9.329999923706055
244.5599975585938 461.9299926757812 9.859999656677246
244.4299926757812 461.3900146484375 9.810000419616699
244.6999969482422 462.5700073242188 11.80000019073486
245 461.010009765625 16.95999908447266
244.8500061035156 461.6199951171875 17.20000076293945
245.6900024414062 461.9299926757812 15.8100004196167
245.6600036621094 461.8200073242188 17.20000076293945
245.4199981689453 462.8800048828125 16.79999923706055
244.8000030517578 462.1900024414062 15.27999973297119
244.8999938964844 462.2200012207031 11.89000034332275
244.8899993896484 461.8099975585938 15.88000011444092
244.8000030517578 462.739990234375 11.68000030517578
245.0200042724609 461.9500122070312 11.17000007629395
244.9900054931641 461.7900085449219 12.34000015258789
244.3999938964844 461.489990234375 9.800000190734863
245.3800048828125 462.4400024414062 11.10000038146973
245.4299926757812 462.7000122070312 16.88999938964844
244.8699951171875 461.6400146484375 11.85000038146973
245.0399932861328 461.4100036621094 16.78000068664551
244.9199981689453 461.7900085449219 15.32999992370605
244.7899932861328 462.3200073242188 15.3100004196167
244.6100006103516 462.6400146484375 11.80000019073486
244.7100067138672 462.1900024414062 11.84000015258789
244.8399963378906 461.5799865722656 9.880000114440918
244.9600067138672 461.8999938964844 17.02000045776367
245.4199981689453 462.5499877929688 16.72999954223633
245.6600036621094 461.7099914550781 15.75
244.9299926757812 461.8099975585938 17.01000022888184
244.9100036621094 462.2300109863281 15.27000045776367
245.0599975585938 462.1300048828125 11.35000038146973
245.1499938964844 461.6199951171875 13.40999984741211
245.2100067138672 461.5499877929688 11.31999969482422
245.1100006103516 461.2799987792969 16.77000045776367
244.9799957275391 462.510009765625 11.8100004196167
245.0599975585938 461.6099853515625 15.36999988555908
244.5700073242188 461.9100036621094 9.869999885559082
244.75 461.3900146484375 9.710000038146973
244.8200073242188 461.4599914550781 7.179999828338623
244.9199981689453 461.3699951171875 5.239999771118164
245.25 461.4100036621094 5.369999885559082
245.2799987792969 461.4800109863281 6.610000133514404
245.3999938964844 461.6900024414062 11.22000026702881
245.2400054931641 462.3500061035156 11.27999973297119
245.4600067138672 462.1000061035156 15.56999969482422
245.4700012207031 462.2200012207031 16.67000007629395
244.9100036621094 461.5700073242188 14.60000038146973
244.8800048828125 461.510009765625 13.47999954223633
244.9400024414062 461.6199951171875 15.78999996185303
244.7400054931641 461.510009765625 9.789999961853027
244.8200073242188 461.5700073242188 12.03999996185303
245.1399993896484 461.010009765625 16.92000007629395
245.0099945068359 461.6600036621094 16.8799991607666
244.75 461.3399963378906 8.770000457763672
