397.9200134277344 266.6799926757812 5.159999847412109
397.9500122070312 266.6799926757812 3.849999904632568
397.9200134277344 266.739990234375 6.389999866485596
398.3399963378906 266.5899963378906 13.35000038146973
398.3299865722656 266.5700073242188 11.97999954223633
398.5299987792969 267.0400085449219 8.090000152587891
398.4500122070312 266.6799926757812 6.150000095367432
398.3800048828125 266.6799926757812 10.39999961853027
398.1900024414062 266.0400085449219 13.03999996185303
398.3500061035156 266.6700134277344 14.47000026702881
398.9599914550781 266.2799987792969 11.97999954223633
399.1000061035156 266.8200073242188 12.31999969482422
411.5400085449219 268.4299926757812 7.159999847412109
406.7099914550781 267.9400024414062 7.690000057220459
398.3500061035156 265.1700134277344 8.390000343322754
398.4200134277344 265.1700134277344 14.43000030517578
398.760009765625 266.8599853515625 8.140000343322754
398.8900146484375 267.239990234375 12.39000034332275
398.7999877929688 266.7200012207031 12.38000011444092
398.3599853515625 268.0499877929688 8.510000228881836
398.010009765625 266.8299865722656 6.289999961853027
398.3900146484375 268.7699890136719 8.420000076293945
398.1499938964844 267.7099914550781 8.420000076293945
397.8999938964844 266.8200073242188 10.35000038146973
398.2900085449219 268.2699890136719 8.420000076293945
398.6799926757812 267.1400146484375 8.060000419616699
398.6199951171875 267.1600036621094 12.25
398.4400024414062 266.3500061035156 10.28999996185303
398.5899963378906 266.8800048828125 10.14999961853027
398.3999938964844 266.1600036621094 12.9399995803833
398.5599975585938 266.8800048828125 14.5
398.5199890136719 266.6099853515625 12.32999992370605
401.9700012207031 265.9100036621094 7.980000019073486
406.7000122070312 265.9800109863281 7.420000076293945
407.9100036621094 267.9500122070312 7.46999979019165
410.0199890136719 268.2699890136719 7.130000114440918
412.1400146484375 268.4500122070312 7.119999885559082
399.2699890136719 266.7300109863281 12.22999954223633
398.7900085449219 266.989990234375 12.31999969482422
398.75 267.1000061035156 8.060000419616699
398.0899963378906 267.1400146484375 8.670000076293945
398.0700073242188 267.1300048828125 5.679999828338623
398.1199951171875 267.0899963378906 10.10999965667725
398.1099853515625 267.1199951171875 7.03000020980835
398.0400085449219 267.1600036621094 4.119999885559082
398.5700073242188 266.5700073242188 12.25
398.1499938964844 266.6400146484375 8.970000267028809
398.2999877929688 266.6900024414062 14.30000019073486
398.8900146484375 267.2200012207031 12.39000034332275
398.1199951171875 267.3699951171875 8.359999656677246
398.4700012207031 266.5400085449219 10.19999980926514
400.9599914550781 265.8999938964844 8.220000267028809
398.7000122070312 266.4400024414062 12.27999973297119
398.6199951171875 266.4700012207031 13.11999988555908
398.0199890136719 267.25 8.229999542236328
398.4800109863281 267.0899963378906 12.21000003814697
398.5700073242188 267.1000061035156 8.119999885559082
399.0199890136719 266.9599914550781 12.31999969482422
398.5700073242188 267.75 10.23999977111816
398.3299865722656 267.8599853515625 8.390000343322754
398.0199890136719 268.6900024414062 5.400000095367432
405.9299926757812 267.8299865722656 7.929999828338623
398.3599853515625 267.6600036621094 8.369999885559082
400.010009765625 267.239990234375 8.729999542236328
398.5899963378906 266.9299926757812 14.27999973297119
398.5 266.8699951171875 6.130000114440918
399.3900146484375 266.7000122070312 12.17000007629395
398.8800048828125 266.8099975585938 12.32999992370605
398.3200073242188 266.25 13.02000045776367
398.4599914550781 266.2099914550781 12.98999977111816
398.6600036621094 266.8800048828125 13.10999965667725
398.9599914550781 266.8299865722656 12.35000038146973
399.3599853515625 266.7000122070312 11.85000038146973
398.5799865722656 266.9100036621094 10.18000030517578
398.8999938964844 266.8399963378906 7.840000152587891
398.5499877929688 266.8800048828125 14.47000026702881
398.3599853515625 267.0599975585938 5.099999904632568
398.4800109863281 266.9500122070312 8.430000305175781
398.3900146484375 267.0400085449219 6.679999828338623
398.6799926757812 267.5299987792969 10.17000007629395
398.5 267.5799865722656 8.359999656677246
398.5499877929688 268.2799987792969 8.289999961853027
398.0299987792969 266.6799926757812 8.020000457763672
398.0400085449219 266.6799926757812 5.210000038146973
398.010009765625 266.6499938964844 3.799999952316284
398.5299987792969 267.0799865722656 8.220000267028809
398.6199951171875 266.8299865722656 10.21000003814697
398.5599975585938 266.739990234375 6.099999904632568
398.7099914550781 266.5 12.27000045776367
398.1199951171875 268.4500122070312 5.380000114440918
398.6600036621094 266.7000122070312 13.23999977111816
398.6900024414062 266.7799987792969 14.47999954223633
399.3200073242188 266.5599975585938 12.22000026702881
405.3999938964844 267.6300048828125 7.949999809265137
408.6900024414062 268.1400146484375 7.389999866485596
406.5700073242188 265.9500122070312 7.340000152587891
402.739990234375 265.9400024414062 7.840000152587891
402.1499938964844 265.8599853515625 8.039999961853027
399.260009765625 266.9599914550781 12.36999988555908
398.8200073242188 266.3099975585938 12.27000045776367
398.6900024414062 267.0499877929688 8.079999923706055
398.6400146484375 266.9800109863281 14.52999973297119
398.7099914550781 266.8599853515625 12.32999992370605
398.2799987792969 268.6600036621094 8.380000114440918
398.0899963378906 266.6799926757812 10.19999980926514
398.3500061035156 265.3299865722656 14.52000045776367
398.3299865722656 265.7999877929688 8.869999885559082
398.1900024414062 266.2099914550781 13.09000015258789
398.1000061035156 266.7799987792969 6.300000190734863
397.6799926757812 266.7300109863281 8.140000343322754
398.489990234375 266.6799926757812 12.40999984741211
398.3599853515625 266.9500122070312 10.13000011444092
398.25 267.2999877929688 8.399999618530273
398.4299926757812 266.8900146484375 14.46000003814697
398.2999877929688 267 6.269999980926514
399.1600036621094 267.1199951171875 12.1899995803833
399.2900085449219 266.6099853515625 12.3100004196167
405.2699890136719 267.7999877929688 7.949999809265137
406.3699951171875 266.0700073242188 7.420000076293945
405.9500122070312 267.739990234375 7.860000133514404
407.8399963378906 265.989990234375 7.269999980926514
411.2799987792969 268.3299865722656 7.21999979019165
405.9100036621094 267.8999938964844 7.809999942779541
399.239990234375 267.3599853515625 8.869999885559082
398.6700134277344 267.1300048828125 12.10999965667725
398.6799926757812 267.2999877929688 8.010000228881836
398.760009765625 266.6000061035156 12.42000007629395
398.1099853515625 267.1499938964844 4.150000095367432
398.0899963378906 267.0700073242188 7.010000228881836
398.0799865722656 267.0499877929688 8.529999732971191
398.0700073242188 266.9400024414062 12.67000007629395
398.0499877929688 266.9299926757812 11.35000038146973
398.0599975585938 267.0400085449219 10.06999969482422
398.0700073242188 267.1199951171875 5.579999923706055
398.1900024414062 266.3999938964844 12.93000030517578
398.1600036621094 265.5700073242188 8.279999732971191
398.0799865722656 266.1199951171875 13.0600004196167
399.1199951171875 266.3999938964844 12.26000022888184
397.8900146484375 266.8800048828125 5.099999904632568
397.7900085449219 266.8800048828125 3.829999923706055
398.0599975585938 266.9100036621094 9.180000305175781
397.8800048828125 266.8699951171875 6.53000020980835
398.2200012207031 266.8500061035156 14.28999996185303
398.1300048828125 266.8699951171875 11.72999954223633
398.510009765625 266.9500122070312 12.35000038146973
398.0799865722656 266.8999938964844 10.47000026702881
398.1600036621094 266.8500061035156 13.10999965667725
397.9200134277344 266.8999938964844 7.980000019073486
398.3099975585938 267.6300048828125 8.430000305175781
398.4400024414062 266.4800109863281 14.52000045776367
398.7900085449219 266.5199890136719 12.32999992370605
398.5599975585938 266.4500122070312 10.28999996185303
398.6799926757812 267.1799926757812 8.090000152587891
397.9299926757812 266.9299926757812 5.510000228881836
398.0599975585938 267.010009765625 8.109999656677246
398.2799987792969 267.1300048828125 10.52000045776367
398.3200073242188 267.7799987792969 8.430000305175781
398.2099914550781 268.6199951171875 8.420000076293945
398.5199890136719 267.1499938964844 14.59000015258789
398.739990234375 267.239990234375 12.39999961853027
398.4700012207031 267.1799926757812 10.39000034332275
398.1900024414062 267.1199951171875 8.630000114440918
398.7000122070312 267.25 8.220000267028809
398.8999938964844 266.5199890136719 12.32999992370605
406.6000061035156 267.9100036621094 7.619999885559082
406.0199890136719 267.7300109863281 7.71999979019165
401.4500122070312 265.9299926757812 8.210000038146973
407.0499877929688 266.010009765625 7.389999866485596
409.7900085449219 266.6600036621094 7.440000057220459
410.3200073242188 268.3399963378906 7.190000057220459
406.1499938964844 267.8699951171875 7.730000019073486
398.6799926757812 266.7000122070312 12.43000030517578
398.3399963378906 266.6600036621094 14.6899995803833
398.6499938964844 266.739990234375 13.72999954223633
398.2999877929688 266.6099853515625 8.880000114440918
399.1900024414062 266.8699951171875 12.1899995803833
398.1199951171875 267.2900085449219 4.139999866485596
