389.0799865722656 128.5200042724609 15.98999977111816
388.8699951171875 127.7099990844727 16.47999954223633
389.4299926757812 127.6500015258789 16.46999931335449
391.0400085449219 128.7299957275391 16.1200008392334
391.5899963378906 127.8300018310547 9.739999771118164
391.7000122070312 128.5599975585938 16.02000045776367
391.239990234375 126.6800003051758 16.11000061035156
392.1199951171875 127.8199996948242 16.21999931335449
391.8399963378906 126.6999969482422 16.03000068664551
392.0899963378906 127.5999984741211 13.61999988555908
391.989990234375 127.3199996948242 15.84000015258789
392.0799865722656 127.3300018310547 7.400000095367432
392.0899963378906 127.379997253418 8.989999771118164
392.1000061035156 127.4800033569336 10.46000003814697
392.0799865722656 127.2699966430664 5.78000020980835
392.0799865722656 127.2900009155273 4.159999847412109
392.0799865722656 127.4800033569336 12.11999988555908
393.9599914550781 129.5200042724609 12.35000038146973
394.1099853515625 130.1600036621094 12.31999969482422
393.8399963378906 128.9600067138672 12.22999954223633
393.9299926757812 126.75 16.01000022888184
394.3699951171875 128.5700073242188 15.96000003814697
395.489990234375 127.6500015258789 16.29999923706055
396.739990234375 126.8000030517578 16.02000045776367
395.3200073242188 126.8399963378906 16.04999923706055
395.5899963378906 127.870002746582 16.31999969482422
394.7200012207031 127.0299987792969 16.11000061035156
394.8699951171875 127.8099975585938 12.11999988555908
393.6799926757812 127.879997253418 16.39999961853027
393.8399963378906 128.7299957275391 12.14999961853027
394.1000061035156 129.7899932861328 12.31999969482422
393.9800109863281 129.2700042724609 12.30000019073486
394.2099914550781 130.3600006103516 12.39999961853027
392.9100036621094 127.8600006103516 12.15999984741211
392.5299987792969 128.8399963378906 16.05999946594238
392.0199890136719 126.7300033569336 15.92000007629395
392.1400146484375 127.4800033569336 12.3100004196167
392.1600036621094 127.2699966430664 15.98999977111816
392.260009765625 127.75 16.32999992370605
391.4800109863281 126.879997253418 16.15999984741211
391.6499938964844 127.8000030517578 9.739999771118164
392 128.9700012207031 15.97000026702881
391.8500061035156 128.4499969482422 15.93000030517578
391.75 127.8899993896484 16.25
390.8200073242188 126.9599990844727 16.07999992370605
390.3500061035156 128.0800018310547 9.640000343322754
390.5799865722656 128.7400054931641 16.10000038146973
390.3299865722656 127.9199981689453 12.11999988555908
389.7000122070312 127.8300018310547 16.5
386.6099853515625 128.7700042724609 16
387.239990234375 128.7299957275391 16.07999992370605
388.4800109863281 127.9400024414062 16.45000076293945
389.1400146484375 127.8600006103516 16.38999938964844
389.0799865722656 127.8300018310547 9.569999694824219
386.8099975585938 128.5700073242188 15.94999980926514
388.6199951171875 127.6800003051758 16.45999908447266
388.9200134277344 128.7599945068359 16.14999961853027
388.7000122070312 127.8199996948242 12.14999961853027
388.739990234375 127.7900009155273 9.609999656677246
390.7999877929688 128.0200042724609 9.680000305175781
391.3399963378906 127.9000015258789 12.1899995803833
391.5499877929688 128.4299926757812 9.520000457763672
391.4100036621094 127.8899993896484 9.739999771118164
391.2799987792969 127.7900009155273 16.52000045776367
392.0799865722656 127.620002746582 6.199999809265137
392.0799865722656 127.870002746582 9.739999771118164
392 127.6800003051758 16.01000022888184
392.1000061035156 128.1900024414062 15.86999988555908
392.1000061035156 127.9199981689453 12.1899995803833
391.8399963378906 127.0500030517578 16.02000045776367
392.0400085449219 127.8000030517578 14.19999980926514
392.8900146484375 128.6399993896484 16.09000015258789
392.7200012207031 127.6999969482422 12.0600004196167
393.5400085449219 128.7200012207031 16.11000061035156
394.0599975585938 130.6399993896484 12.27999973297119
393.3500061035156 127.8099975585938 12.19999980926514
393.8699951171875 130.0599975585938 12.35999965667725
394.0400085449219 127.6800003051758 12.10000038146973
394.510009765625 126.9100036621094 16.02000045776367
395.1900024414062 126.8399963378906 16.05999946594238
396.510009765625 126.7399978637695 15.97000026702881
394.5700073242188 126.9499969482422 16.01000022888184
393.8999938964844 127.5999984741211 7.300000190734863
393.8599853515625 127.6900024414062 4.809999942779541
393.8599853515625 127.4899978637695 5.869999885559082
393.9200134277344 127.5899963378906 8.550000190734863
394.010009765625 130.6399993896484 12.23999977111816
393.8800048828125 129.9900054931641 12.42000007629395
392 127.0999984741211 15.97999954223633
392.1600036621094 127.9300003051758 12.39999961853027
392.1099853515625 127.8899993896484 9.779999732971191
392.1799926757812 128 15.06999969482422
392.0199890136719 127.8399963378906 6.909999847412109
392.1700134277344 127.9400024414062 13.71000003814697
391.9800109863281 127.7900009155273 4.150000095367432
392.0799865722656 127.8300018310547 8.340000152587891
392.1099853515625 127.879997253418 11.03999996185303
392.1700134277344 127.8899993896484 16.27000045776367
392.010009765625 127.7799987792969 5.570000171661377
391.7099914550781 128.9400024414062 15.9399995803833
391.239990234375 126.9499969482422 16.11000061035156
391.489990234375 128.3099975585938 9.529999732971191
391.3900146484375 127.870002746582 9.869999885559082
391.4299926757812 127.8099975585938 16.48999977111816
390.2300109863281 127.9800033569336 16.43000030517578
389.8200073242188 128.8500061035156 16.14999961853027
388.2300109863281 127.8899993896484 16.45000076293945
387.9200134277344 128.8399963378906 16.1200008392334
393.5499877929688 130.4400024414062 12.27000045776367
393.7200012207031 128.9900054931641 12.22999954223633
392.3299865722656 128.7799987792969 16.13999938964844
391.739990234375 128.9199981689453 15.92000007629395
392.1300048828125 128.0599975585938 16.06999969482422
391.6300048828125 128.1499938964844 15.75
391.1400146484375 128.2100067138672 9.569999694824219
393.6199951171875 127.5299987792969 3.990000009536743
393.6600036621094 127.5400009155273 5.440000057220459
391.9599914550781 128.0099945068359 12.15999984741211
393.7200012207031 127.5699996948242 9.699999809265137
391.7900085449219 127.3199996948242 15.96000003814697
394.1199951171875 129.8000030517578 12.35000038146973
393.6099853515625 129.9100036621094 12.31999969482422
393.9599914550781 130.4100036621094 12.30000019073486
392.260009765625 128.8000030517578 16.1200008392334
392.8399963378906 128.6300048828125 16.02000045776367
393.9599914550781 128.4199981689453 11.97000026702881
389.8200073242188 128.6999969482422 16.07999992370605
393.6799926757812 127.7600021362305 12.14000034332275
393.8299865722656 127.7799987792969 11.27000045776367
393.1000061035156 127.9400024414062 12.18000030517578
397.3999938964844 126.8000030517578 15.89999961853027
392.0199890136719 128.1399993896484 15.9399995803833
393.5599975585938 127.7699966430664 16.36000061035156
396.8699951171875 126.9400024414062 15.92000007629395
390.6600036621094 127.9100036621094 12.18000030517578
386.7900085449219 128.8800048828125 16.17000007629395
391.2200012207031 127.8199996948242 12.18000030517578
391.989990234375 127.629997253418 10.27000045776367
387.3200073242188 128.7299957275391 16.06999969482422
392.1900024414062 127.5500030517578 12.36999988555908
391.7300109863281 127.6500015258789 12.10999965667725
394.3699951171875 126.9899978637695 16.07999992370605
392.1799926757812 127.5199966430664 16
391.1099853515625 127.7900009155273 16.45000076293945
391.0299987792969 127.8600006103516 9.739999771118164
394.8599853515625 126.8199996948242 16.07999992370605
387.9599914550781 127.879997253418 16.45000076293945
388.5799865722656 127.7600021362305 12.19999980926514
388.5 127.7399978637695 16.45999908447266
391.7900085449219 126.9499969482422 16.15999984741211
392.3099975585938 126.8199996948242 16.19000053405762
393.7200012207031 130.4299926757812 12.34000015258789
394.25 130.3399963378906 12.31999969482422
394.1199951171875 129.7799987792969 12.35000038146973
393.8800048828125 129.2299957275391 12.3100004196167
393.0599975585938 128.7200012207031 16.03000068664551
393.8699951171875 127.8300018310547 16.32999992370605
393.25 127.9100036621094 12.1899995803833
393.7699890136719 127.8199996948242 12.05000019073486
390.6300048828125 128.6399993896484 16.05999946594238
393.3599853515625 127.9499969482422 16.42000007629395
392.2099914550781 128.2200012207031 15.88000011444092
391.6600036621094 128.3899993896484 16.01000022888184
397.5899963378906 126.879997253418 15.97999954223633
390.0499877929688 128.7899932861328 16.06999969482422
395.1700134277344 126.8899993896484 16.03000068664551
391.9100036621094 127.6800003051758 16
391.4800109863281 127.8000030517578 16.47999954223633
392.1000061035156 127.5699996948242 10.31999969482422
390.7999877929688 127.9499969482422 12.17000007629395
387.5899963378906 128.75 16.07999992370605
392.7900085449219 126.8300018310547 16.17000007629395
389.010009765625 127.7399978637695 16.47999954223633
392.2099914550781 126.9499969482422 16.11000061035156
388.5299987792969 127.8600006103516 16.48999977111816
391.9800109863281 126.6699981689453 16.07999992370605
392.1400146484375 127.370002746582 8.859999656677246
392.1400146484375 127.4000015258789 6.03000020980835
392.1499938964844 127.4100036621094 4.690000057220459
392.1600036621094 127.379997253418 7.409999847412109
392.0599975585938 127.3199996948242 15.9399995803833
393.9200134277344 127.620002746582 11.14999961853027
392.2900085449219 127.9499969482422 15.97999954223633
391.9400024414062 128.7299957275391 16.06999969482422
394 128.2700042724609 11.85999965667725
394 129.5399932861328 12.34000015258789
394.0799865722656 130.2200012207031 12.3100004196167
386.8999938964844 128.6699981689453 15.98999977111816
388.3699951171875 127.5899963378906 16.43000030517578
388.8500061035156 128.7400054931641 16.10000038146973
389.6700134277344 127.7799987792969 9.670000076293945
389.5599975585938 128.5599975585938 16.06999969482422
390.4100036621094 127.5699996948242 16.38999938964844
391.2000122070312 126.8499984741211 16.1299991607666
390.7799987792969 128.7100067138672 16.07999992370605
391.6900024414062 127.7200012207031 16.35000038146973
391.6099853515625 127.6999969482422 9.680000305175781
391.8399963378906 127.2600021362305 16.03000068664551
391.9400024414062 126.6699981689453 15.94999980926514
392.2699890136719 127.4300003051758 7.769999980926514
392.2999877929688 127.6500015258789 12.44999980926514
392.2999877929688 127.6500015258789 15.82999992370605
392.2699890136719 127.5299987792969 11.02000045776367
392.2900085449219 127.5299987792969 9.310000419616699
392.3299865722656 127.629997253418 14.17000007629395
392.25 127.4599990844727 6.110000133514404
392.0199890136719 128.7899932861328 16.09000015258789
392.1499938964844 128.25 15.86999988555908
393.1400146484375 126.6900024414062 16.04000091552734
392.8800048828125 127.7399978637695 16.47999954223633
393.4599914550781 127.8399963378906 12.1899995803833
393.6099853515625 127.629997253418 16.34000015258789
394.0799865722656 128.3399963378906 11.90999984741211
394.5 126.8499984741211 16.10000038146973
393.9500122070312 128.8500061035156 12.19999980926514
393.6600036621094 130.0299987792969 12.35000038146973
393.8200073242188 129.3999938964844 12.35000038146973
394.2300109863281 130.3000030517578 12.31999969482422
394.9700012207031 127.6100006103516 16.27000045776367
395.7000122070312 126.5400009155273 11.46000003814697
395.7099914550781 126.7300033569336 15.97000026702881
395.4599914550781 127.7799987792969 16.42000007629395
397.0400085449219 126.7699966430664 15.89999961853027
395.1499938964844 127.8899993896484 12.03999996185303
393.8299865722656 130.4100036621094 12.28999996185303
394.3599853515625 127.9700012207031 16.45000076293945
393.9700012207031 129.8800048828125 12.38000011444092
393.760009765625 128.1399993896484 11.8100004196167
393.7900085449219 127.8499984741211 16.31999969482422
394.0499877929688 126.7699966430664 16.18000030517578
393.9200134277344 127.6600036621094 11.05000019073486
393.0199890136719 128.8300018310547 16.11000061035156
392.7099914550781 127.7900009155273 12.13000011444092
392.8200073242188 127.0299987792969 16.17000007629395
391.9299926757812 127.879997253418 16.02000045776367
392.0700073242188 127.3499984741211 15.96000003814697
392.0599975585938 127.5899963378906 12.23999977111816
391.75 128.4499969482422 15.92000007629395
391.0299987792969 128.7799987792969 16.11000061035156
391.2999877929688 127.9800033569336 12.1899995803833
391.2799987792969 128.1499938964844 9.649999618530273
390.75 127.9000015258789 9.739999771118164
390.9100036621094 126.9899978637695 16.14999961853027
390.0199890136719 127.8600006103516 16.44000053405762
389.0799865722656 128.7700042724609 16.03000068664551
389.3800048828125 127.9400024414062 12.18000030517578
388.7099914550781 127.9100036621094 12.22999954223633
388.4599914550781 128.7299957275391 16.05999946594238
388.7000122070312 128.0800018310547 9.710000038146973
386.4700012207031 128.7299957275391 16.03000068664551
386.4400024414062 128.6699981689453 16.06999969482422
387.7900085449219 128.6799926757812 16.04000091552734
388.6600036621094 127.7600021362305 12.22000026702881
388.4599914550781 128.6799926757812 16.10000038146973
389.3699951171875 127.8300018310547 9.670000076293945
389.2200012207031 128.7700042724609 16.09000015258789
389.4599914550781 127.8099975585938 16.42000007629395
390.1199951171875 127.8199996948242 12.14000034332275
389.9800109863281 128.75 16.10000038146973
390.0899963378906 127.8499984741211 9.689999580383301
390.8299865722656 127.9000015258789 12.27999973297119
390.6499938964844 128.7799987792969 16.04000091552734
390.8599853515625 127.8099975585938 16.5
391.739990234375 127.1600036621094 15.98999977111816
391.4800109863281 127.9800033569336 12.09000015258789
391.4500122070312 127.9599990844727 9.680000305175781
391.6000061035156 127.7300033569336 16.23999977111816
392.3699951171875 127.9300003051758 16.42000007629395
392.1199951171875 128.8899993896484 15.93000030517578
392.9800109863281 127.9899978637695 9.640000343322754
393.0599975585938 127.8600006103516 16.46999931335449
392.9700012207031 127.9700012207031 12.0600004196167
393.7300109863281 127.8199996948242 16.42000007629395
393.6799926757812 127.5400009155273 5.449999809265137
393.6600036621094 127.9599990844727 12.10999965667725
393.760009765625 130.3200073242188 12.30000019073486
394 129.2299957275391 12.28999996185303
394.3999938964844 127.8600006103516 16.34000015258789
393.8800048828125 129.7799987792969 12.39999961853027
395.2099914550781 127.879997253418 16.29999923706055
395.8999938964844 127.8399963378906 16.35000038146973
388.489990234375 127.9599990844727 16.45000076293945
388.9100036621094 128.8500061035156 16
389.9500122070312 127.9700012207031 9.640000343322754
391.1099853515625 128.0399932861328 9.640000343322754
391.0899963378906 128 12.18000030517578
390.7300109863281 127.0500030517578 16.18000030517578
391.8800048828125 127.8300018310547 5.989999771118164
391.7900085449219 127.879997253418 12.67000007629395
391.8099975585938 127.8499984741211 11.3100004196167
391.8900146484375 127.8199996948242 4.699999809265137
391.9599914550781 126.9400024414062 16.15999984741211
391.7900085449219 127.8499984741211 10.01000022888184
391.8099975585938 127.8399963378906 8.619999885559082
391.6499938964844 128.1100006103516 15.85999965667725
391.8599853515625 127.8499984741211 7.260000228881836
391.760009765625 127.9199981689453 14.11999988555908
391.4599914550781 128.8999938964844 16.01000022888184
393.3399963378906 127.629997253418 5.369999885559082
393.3699951171875 127.0199966430664 16.15999984741211
393.9200134277344 127.8000030517578 5.360000133514404
394.010009765625 127.4199981689453 5.869999885559082
393.9400024414062 129.9100036621094 12.39999961853027
394.6600036621094 126.9599990844727 16.04000091552734
393.7900085449219 130.5700073242188 12.28999996185303
395.9800109863281 126.9599990844727 16.02000045776367
397.2200012207031 126.9899978637695 15.96000003814697
393.7000122070312 130.2400054931641 12.28999996185303
393.9400024414062 129.6000061035156 12.39999961853027
391.8699951171875 128.4600067138672 15.94999980926514
391.9100036621094 127.8000030517578 13.75
391.8399963378906 127.8199996948242 10.94999980926514
391.9299926757812 127.8600006103516 12.30000019073486
392.0499877929688 127.7900009155273 16.36000061035156
391.8699951171875 127.7600021362305 15.40999984741211
391.8200073242188 127.8499984741211 9.569999694824219
393.6700134277344 127.5299987792969 10.35000038146973
393.8699951171875 127.620002746582 5.730000019073486
391.8299865722656 127.0100021362305 16
386.1400146484375 128.8000030517578 16.01000022888184
393.7300109863281 130.6699981689453 12.3100004196167
393.8599853515625 130.0299987792969 12.32999992370605
388.4299926757812 128.7100067138672 16.05999946594238
388.9800109863281 128.8500061035156 16.1299991607666
394 129.3899993896484 12.34000015258789
387.9599914550781 127.9100036621094 16.43000030517578
391.239990234375 128.7599945068359 16.02000045776367
391.8200073242188 128.8899993896484 15.96000003814697
392 128.1699981689453 15.9399995803833
390.7999877929688 127.8600006103516 16.43000030517578
391.4299926757812 127.9700012207031 12.22000026702881
391.75 128.0200042724609 9.699999809265137
394.1700134277344 128.6999969482422 15.97999954223633
391.2200012207031 127.8600006103516 9.739999771118164
390.8699951171875 127.8099975585938 12.27000045776367
390.0499877929688 126.9499969482422 16.14999961853027
391.7099914550781 127.370002746582 15.88000011444092
393.9500122070312 127.8899993896484 11.65999984741211
393.2000122070312 127.75 16.5
393.7300109863281 127.879997253418 16.43000030517578
395.5599975585938 127.7300033569336 16.31999969482422
392.8599853515625 127.0199966430664 16.11000061035156
391.8200073242188 126.7799987792969 15.98999977111816
392.3500061035156 126.8899993896484 16.13999938964844
395.6900024414062 127.0299987792969 15.97000026702881
395.1300048828125 126.9300003051758 16.03000068664551
397.4400024414062 126.7900009155273 15.92000007629395
386.0499877929688 128.8500061035156 15.98999977111816
388.4100036621094 128.6799926757812 16.09000015258789
394.239990234375 130.2100067138672 12.3100004196167
393.739990234375 130.0700073242188 12.35000038146973
388.9299926757812 128.7899932861328 16.10000038146973
387.9299926757812 127.8600006103516 16.3799991607666
391.7099914550781 128.8099975585938 16.05999946594238
390.6199951171875 128.5500030517578 16.17000007629395
391.1199951171875 128.6399993896484 16.10000038146973
393.7699890136719 129.4100036621094 12.35000038146973
390.1600036621094 127.7900009155273 16.48999977111816
389.6000061035156 127.6500015258789 16.40999984741211
393.3500061035156 128.5800018310547 16.05999946594238
390.2099914550781 127.8600006103516 9.800000190734863
390.6900024414062 127.9199981689453 16.40999984741211
390.0499877929688 127.7900009155273 12.11999988555908
391.3099975585938 128.1399993896484 9.699999809265137
393.8999938964844 128.7100067138672 16.10000038146973
393.8599853515625 128.7799987792969 12.14999961853027
392.3599853515625 127.6500015258789 12.03999996185303
393.5599975585938 127.9000015258789 16.40999984741211
389.7799987792969 126.9300003051758 16.17000007629395
392.5 127.6500015258789 16.39999961853027
391.8800048828125 127.5 15.98999977111816
393.4299926757812 127.9599990844727 12.19999980926514
393.0199890136719 127.7699966430664 16.48999977111816
393.8999938964844 128.0899963378906 11.75
392.9100036621094 127.7900009155273 12.15999984741211
392.6099853515625 126.8199996948242 16.14999961853027
393.1900024414062 126.9899978637695 16.18000030517578
392.0400085449219 126.6699981689453 16
395.7799987792969 127.7099990844727 12.07999992370605
395.8999938964844 126.8899993896484 15.96000003814697
395.2999877929688 126.7699966430664 16
392 126.879997253418 16
392.1400146484375 127.5299987792969 6.670000076293945
392.1400146484375 127.5400009155273 5.099999904632568
391.5199890136719 128.2700042724609 9.600000381469727
393.9599914550781 128.9299926757812 12.13000011444092
391.7900085449219 128.4400024414062 15.96000003814697
392.2300109863281 127.5800018310547 8.270000457763672
392.2699890136719 127.6900024414062 14.01000022888184
392.260009765625 127.6800003051758 15.31999969482422
392.2900085449219 127.6100006103516 9.869999885559082
392.2000122070312 127.6399993896484 12.43000030517578
391.8900146484375 127.5899963378906 15.97999954223633
392.739990234375 127.8499984741211 16.46999931335449
394 129.6999969482422 12.30000019073486
394.0400085449219 130.3500061035156 12.3100004196167
