396.9299926757812 185.6100006103516 14.4399995803833
396.8999938964844 185.2299957275391 7.710000038146973
397.2200012207031 186.75 14.78999996185303
397.25 186.6699981689453 7.349999904632568
397.0499877929688 186.1600036621094 14.61999988555908
397.260009765625 186.6399993896484 8.979999542236328
397.2999877929688 186.6399993896484 4.25
397.239990234375 186.6699981689453 11.96000003814697
397.2999877929688 186.6499938964844 5.800000190734863
397.010009765625 186.8500061035156 9.390000343322754
397.0599975585938 187.0899963378906 11.88000011444092
397.0599975585938 186.7700042724609 14.77999973297119
396.8900146484375 186.25 14.67000007629395
397.1400146484375 187.3999938964844 9.189999580383301
397.0700073242188 187.0599975585938 10.0600004196167
396.9599914550781 186.8600006103516 14.88000011444092
396.8200073242188 186.2700042724609 14.67000007629395
397.1400146484375 187.4199981689453 11.93000030517578
397.1499938964844 187.1300048828125 4.800000190734863
397 187 12.78999996185303
397.1700134277344 187.0599975585938 13.02999973297119
397.1499938964844 187.1399993896484 9.130000114440918
397.1799926757812 187.1699981689453 11.86999988555908
397.1600036621094 187.1499938964844 10.35000038146973
397.1600036621094 187.2799987792969 4.949999809265137
397.3200073242188 187.8099975585938 8.979999542236328
397.1700134277344 187.2299957275391 6.340000152587891
397.1400146484375 187.1499938964844 7.659999847412109
396.9100036621094 185.7899932861328 14.5600004196167
397.1400146484375 187.5700073242188 9.199999809265137
396.8999938964844 187.0399932861328 9.739999771118164
396.8900146484375 187.0299987792969 8.359999656677246
396.8999938964844 187.0099945068359 6.860000133514404
396.8699951171875 187.0099945068359 5.300000190734863
396.8500061035156 187.0899963378906 11.27000045776367
396.9500122070312 186.4400024414062 14.73999977111816
397.1600036621094 187.1000061035156 7.75
397.0599975585938 187.0800018310547 12.06999969482422
397.1799926757812 187.0099945068359 14.97000026702881
397.0199890136719 187.1199951171875 8.779999732971191
397.1600036621094 187.8600006103516 9.090000152587891
397.3699951171875 187.75 9.090000152587891
397.2999877929688 187 5.53000020980835
397.0400085449219 187.1399993896484 14.92000007629395
397.1300048828125 187.1199951171875 11.90999984741211
397 185.7599945068359 11.88000011444092
396.8999938964844 186.5 14.8100004196167
396.8200073242188 185.8300018310547 14.59000015258789
397.2200012207031 186.8200073242188 10.17000007629395
397.2699890136719 186.8399963378906 7.409999847412109
397.2099914550781 186.8099975585938 12.97999954223633
397.3500061035156 186.8800048828125 4.690000057220459
397.2799987792969 186.8099975585938 8.829999923706055
397.25 186.75 14.47000026702881
397.2200012207031 186.8099975585938 11.69999980926514
397.3399963378906 186.8300018310547 6.090000152587891
397.3299865722656 187.5700073242188 9.149999618530273
397.1300048828125 185.3099975585938 7.809999942779541
396.8099975585938 186.6799926757812 9.100000381469727
396.8800048828125 186.8000030517578 14.86999988555908
396.8599853515625 186.7899932861328 11.90999984741211
397 186.2200012207031 14.73999977111816
396.8399963378906 186.6499938964844 10.72999954223633
397.4400024414062 187.4799957275391 9.079999923706055
396.7900085449219 186.8899993896484 12.05000019073486
396.9800109863281 186.0700073242188 14.51000022888184
396.8299865722656 186.5700073242188 14.82999992370605
397.260009765625 187.4199981689453 12.01000022888184
397.2200012207031 187.75 9.210000038146973
396.9700012207031 187.0899963378906 14.85000038146973
396.9599914550781 186.9299926757812 10.77999973297119
396.8999938964844 187.1499938964844 11.94999980926514
397.1099853515625 186.5800018310547 14.77999973297119
396.9200134277344 186.9900054931641 8.350000381469727
396.8999938964844 187.1100006103516 6.590000152587891
396.8399963378906 187.0800018310547 11.86999988555908
396.8200073242188 187.1699981689453 14.69999980926514
396.9800109863281 186.5 14.72000026702881
396.8599853515625 187.0800018310547 10.4399995803833
396.8999938964844 187.1699981689453 5.190000057220459
396.8699951171875 187.0899963378906 9.239999771118164
396.9100036621094 187.1100006103516 7.849999904632568
396.8299865722656 187.0599975585938 13.22000026702881
396.9299926757812 187.0200042724609 4.940000057220459
396.8800048828125 186.9499969482422 6.489999771118164
396.8500061035156 186.9499969482422 7.889999866485596
396.8200073242188 186.9199981689453 10.86999988555908
396.8599853515625 186.9100036621094 11.98999977111816
396.8999938964844 186.8600006103516 13.53999996185303
396.8599853515625 186.9299926757812 9.300000190734863
397.0199890136719 187.7100067138672 9.159999847412109
396.9200134277344 186.8600006103516 14.8100004196167
396.9500122070312 186.1799926757812 14.72000026702881
396.9299926757812 185.5 11.81999969482422
397.0299987792969 185.4799957275391 14.42000007629395
397.0299987792969 185.7700042724609 14.56999969482422
397.0799865722656 186.5599975585938 14.93000030517578
397.0700073242188 187.1999969482422 9.239999771118164
397.1900024414062 187.2599945068359 12.09000015258789
397.1799926757812 187.8999938964844 9.189999580383301
397.0700073242188 185.3999938964844 7.800000190734863
397.1000061035156 188.1900024414062 9.010000228881836
396.9700012207031 187.4400024414062 11.75
397.1199951171875 187.5399932861328 9.189999580383301
397.1900024414062 186.8300018310547 9.310000419616699
397.2699890136719 186.9199981689453 6.21999979019165
396.9800109863281 186.7299957275391 14.84000015258789
397.0700073242188 186.7899932861328 12.10000038146973
396.989990234375 185.9900054931641 14.55000019073486
397.1300048828125 185.5 7.25
397.3099975585938 186.8500061035156 5.880000114440918
397.3699951171875 186.8200073242188 7.349999904632568
396.9800109863281 186.8600006103516 14.93000030517578
397.2900085449219 186.8500061035156 9.979999542236328
397.2099914550781 186.8899993896484 11.22000026702881
397.3200073242188 186.8500061035156 8.579999923706055
397.1900024414062 186.8899993896484 14.02000045776367
397.2000122070312 186.8600006103516 12.65999984741211
397.0299987792969 187.4299926757812 11.97999954223633
397 187.4600067138672 14.93000030517578
