62.63000106811523 465.8200073242188 18.92000007629395
63.40999984741211 465.6900024414062 16.96999931335449
63.11000061035156 465.6900024414062 19.04000091552734
63.2400016784668 465.6799926757812 17.98999977111816
62.86000061035156 465.8099975585938 16.88999938964844
63.06000137329102 466.3500061035156 10.60000038146973
63.20999908447266 466.2000122070312 18.03000068664551
62.81000137329102 466.3200073242188 16.8700008392334
63.04999923706055 466.2999877929688 14.82999992370605
63.11000061035156 466.8500061035156 18.67000007629395
62.77999877929688 466.9700012207031 16.88999938964844
62.91999816894531 466.9800109863281 12.23999977111816
63.02999877929688 467.5599975585938 18.61000061035156
62.77000045776367 467.6400146484375 16.72999954223633
63.27999877929688 467.5 16.86000061035156
63.79000091552734 467.9100036621094 17.80999946594238
63.52000045776367 467.3599853515625 16.69000053405762
62.86999893188477 467.5 13.01000022888184
63.2400016784668 467.4500122070312 18.17000007629395
63.04000091552734 467.510009765625 16.84000015258789
62.79999923706055 467.5700073242188 18.76000022888184
63.09999847412109 466.7999877929688 14.72000026702881
62.81999969482422 466.8299865722656 13.07999992370605
63.13000106811523 466.8200073242188 17.94000053405762
63.33000183105469 466.7799987792969 18.95999908447266
62.79999923706055 466.2099914550781 18.72999954223633
63.5 466.0299987792969 16.76000022888184
63.15000152587891 466.0700073242188 14.71000003814697
63.20999908447266 466.1099853515625 18.03000068664551
63.13999938964844 465.4800109863281 17.98999977111816
63.66999816894531 465.3200073242188 17.79000091552734
62.97999954223633 465.5199890136719 16.8799991607666
62.77000045776367 465.5899963378906 18.82999992370605
63.5099983215332 465.8200073242188 17.8799991607666
63.13000106811523 466.010009765625 7.659999847412109
63.29000091552734 466.5899963378906 7.71999979019165
63.2400016784668 465.8699951171875 18.73999977111816
63.06999969482422 465.9500122070312 16.95999908447266
63.45999908447266 465.8500061035156 16.54999923706055
63.18999862670898 466.510009765625 18.56999969482422
63.29999923706055 466.5299987792969 13.35999965667725
63.25 466.510009765625 17.32999992370605
63.33000183105469 466.510009765625 14.85000038146973
63.29999923706055 466.5199890136719 16.13999938964844
63.54000091552734 467.1900024414062 17.84000015258789
63.09000015258789 467.3099975585938 16.89999961853027
63.20000076293945 467.260009765625 18.52000045776367
63.45999908447266 467.2000122070312 16.21999931335449
63.22000122070312 467.2900085449219 13
62.90000152587891 467.3999938964844 12.32999992370605
63.61999893188477 467.9700012207031 17.77000045776367
63.15999984741211 467.6900024414062 18.79000091552734
63.29000091552734 467.6600036621094 17.8700008392334
63.84000015258789 467.8099975585938 17.76000022888184
62.93000030517578 467.5599975585938 16.80999946594238
62.88999938964844 467.5 13.05000019073486
62.97999954223633 467.5199890136719 12.26000022888184
63.58000183105469 467.0299987792969 17.73999977111816
62.61000061035156 466.7999877929688 16.8700008392334
63.25 466.9599914550781 16.70999908447266
62.97000122070312 466.8900146484375 18.69000053405762
62.68999862670898 466.0899963378906 18.75
63.18999862670898 466.1199951171875 14.82999992370605
63.27999877929688 466.2200012207031 17.93000030517578
62.93000030517578 466.1199951171875 16.88999938964844
63.20000076293945 465.5299987792969 17.96999931335449
63.86999893188477 467.8299865722656 17.70000076293945
63.31999969482422 467.6900024414062 17.8700008392334
63.15999984741211 467.6300048828125 16.85000038146973
62.91999816894531 467.5700073242188 18.70000076293945
63.13000106811523 466.8800048828125 18.6299991607666
63.06000137329102 466.9500122070312 12.28999996185303
63.2400016784668 466.9400024414062 16.36000061035156
62.63000106811523 466.7300109863281 19.06999969482422
62.81999969482422 466.8200073242188 16.84000015258789
63.4900016784668 466.989990234375 17.79999923706055
63.56000137329102 467.0499877929688 12.07999992370605
63.2400016784668 466.2699890136719 14.85000038146973
62.79000091552734 466.1199951171875 18.70000076293945
63.33000183105469 466.3299865722656 12.47000026702881
63.20000076293945 466.2300109863281 17.97999954223633
62.9900016784668 465.5799865722656 18.79999923706055
63.43000030517578 465.6600036621094 18.03000068664551
63.20999908447266 465.6600036621094 16.93000030517578
62.81999969482422 465.989990234375 17.04999923706055
63.36999893188477 466.0899963378906 16.77000045776367
62.95999908447266 466.0499877929688 18.71999931335449
63.25 466.0899963378906 17.94000053405762
63.15000152587891 466.0599975585938 14.97999954223633
62.9900016784668 465.4599914550781 18.04000091552734
63.22000122070312 466.5 7.46999979019165
63.31000137329102 466.5899963378906 12
63.29999923706055 466.5899963378906 14.6899995803833
63.2599983215332 466.6300048828125 15.96000003814697
63.27999877929688 466.6000061035156 13.30000019073486
63.27000045776367 466.6300048828125 18.73999977111816
63.27000045776367 466.6499938964844 17.34000015258789
63.20000076293945 466.5199890136719 10.36999988555908
63.20999908447266 466.510009765625 8.869999885559082
62.81000137329102 467.0499877929688 13.10999965667725
63.04999923706055 467.0599975585938 12.21000003814697
63.2599983215332 467.2099914550781 16.88999938964844
62.65000152587891 467.0199890136719 16.88999938964844
62.81999969482422 467.0899963378906 18.77000045776367
63.59999847412109 467.2900085449219 16.14999961853027
63.13999938964844 467.8200073242188 18.59000015258789
63.43999862670898 467.8800048828125 17.82999992370605
62.68000030517578 466.7900085449219 16.92000007629395
62.84999847412109 467.2000122070312 13.01000022888184
62.81999969482422 466.510009765625 7.599999904632568
62.79999923706055 467.3299865722656 16.81999969482422
62.95000076293945 467.4700012207031 12.22999954223633
62.75 466.6700134277344 13.10999965667725
63.13999938964844 465.739990234375 16.95000076293945
63.34999847412109 466.6799926757812 17.89999961853027
63.06000137329102 465.4800109863281 17.95999908447266
63.54999923706055 467.4100036621094 16.71999931335449
63.63999938964844 467.7999877929688 17.76000022888184
63.20000076293945 466.0599975585938 17.98999977111816
63.45999908447266 467.1700134277344 17.71999931335449
63.27000045776367 466.2099914550781 16.48999977111816
63.11000061035156 465.7900085449219 18.85000038146973
62.83000183105469 467.2999877929688 16.82999992370605
62.70000076293945 466.7900085449219 16.92000007629395
62.88000106811523 467.3699951171875 18.75
62.56999969482422 466.25 16.8799991607666
63.54000091552734 467.3099975585938 16.79000091552734
63.29999923706055 466.3399963378906 17.95000076293945
63.72000122070312 467.8900146484375 17.70999908447266
63.20000076293945 465.7999877929688 18.05999946594238
63.58000183105469 467.3299865722656 17.94000053405762
63.15000152587891 465.75 16.93000030517578
63.40999984741211 466.8099975585938 17.8700008392334
63.25 466.2000122070312 14.6899995803833
63.06999969482422 465.2799987792969 17.98999977111816
63.40999984741211 466.6799926757812 14.73999977111816
62.97999954223633 466.1799926757812 8.489999771118164
63 466.3200073242188 10.39000034332275
62.79000091552734 465.8399963378906 18.84000015258789
62.95000076293945 466.3599853515625 12.27999973297119
63.04000091552734 466.7200012207031 13.09000015258789
62.95000076293945 466.3800048828125 16.71999931335449
62.77999877929688 465.75 16.81999969482422
62.97000122070312 466.1300048828125 6.590000152587891
63 466.6600036621094 15.5600004196167
63.04999923706055 466.9599914550781 18.73999977111816
63.31000137329102 467.7799987792969 17.8700008392334
63.20000076293945 467.4100036621094 16.89999961853027
62.90999984741211 466.4500122070312 18.73999977111816
63.20000076293945 467.5599975585938 18.73999977111816
63.5099983215332 465.9500122070312 16.98999977111816
63.40000152587891 465.7000122070312 18.04999923706055
63.7400016784668 466.8699951171875 17.57999992370605
63.31999969482422 465.2200012207031 17.72999954223633
63.20000076293945 466.6199951171875 6.96999979019165
63.22999954223633 466.4700012207031 8.369999885559082
63.02999877929688 466.4700012207031 13.60000038146973
62.95000076293945 466.4100036621094 16.78000068664551
63.06000137329102 465.9299926757812 16.95999908447266
63.04999923706055 466.6799926757812 12.44999980926514
62.95000076293945 466.8800048828125 13.14000034332275
63.02999877929688 465.9800109863281 18.79000091552734
62.86000061035156 466.510009765625 18.73999977111816
62.93000030517578 467.2099914550781 12.26000022888184
62.95000076293945 466.5700073242188 15.53999996185303
63.13999938964844 466.4700012207031 10.1899995803833
62.81000137329102 466.9599914550781 16.68000030517578
63.09999847412109 465.6400146484375 17.95000076293945
63.22999954223633 467.9400024414062 17.8799991607666
63.2599983215332 467.6400146484375 18.76000022888184
63.36999893188477 467.3399963378906 17.81999969482422
63.34999847412109 467.5700073242188 16.80999946594238
63.5099983215332 466.7699890136719 17.95000076293945
62.88999938964844 465.8599853515625 16.98999977111816
62.65000152587891 466.9700012207031 16.88999938964844
63.02999877929688 465.4100036621094 18.07999992370605
62.95000076293945 465.9200134277344 18.78000068664551
62.7599983215332 466.3699951171875 16.8700008392334
63.70999908447266 465.2699890136719 17.92000007629395
63.43000030517578 466.25 17.93000030517578
63.54999923706055 465.6900024414062 16.86000061035156
63.22999954223633 466.6300048828125 14.77999973297119
63.34999847412109 466.8500061035156 19.02000045776367
63.16999816894531 467.3500061035156 18.60000038146973
63.29000091552734 466.7799987792969 17.8700008392334
63.22000122070312 466.5599975585938 13.17000007629395
63.15999984741211 467.260009765625 16.82999992370605
63.68999862670898 467.760009765625 17.75
62.7599983215332 466.6199951171875 16.8700008392334
62.83000183105469 466.4800109863281 15.22000026702881
63.02999877929688 465.5700073242188 16.81999969482422
62.91999816894531 466.4800109863281 13.14999961853027
62.88999938964844 466 17.1200008392334
63.16999816894531 466.0899963378906 10.19999980926514
62.79000091552734 466.1199951171875 18.73999977111816
63.02000045776367 465.239990234375 18.01000022888184
63.22999954223633 466.0700073242188 8.189999580383301
62.88999938964844 465.6199951171875 18.73999977111816
63.06000137329102 466.239990234375 12.05000019073486
63.36999893188477 467.0599975585938 12.10000038146973
62.97999954223633 467.6300048828125 18.70000076293945
63.22000122070312 466.6600036621094 17.98999977111816
63.11999893188477 467.1000061035156 18.63999938964844
63.08000183105469 467.5400085449219 16.86000061035156
63.25 466.489990234375 18.69000053405762
63.47000122070312 465.8399963378906 16.88999938964844
63.38000106811523 466.1799926757812 17.93000030517578
63.36000061035156 465.8900146484375 18.97999954223633
63.65000152587891 467.5899963378906 17.67000007629395
63.77000045776367 467 17.77000045776367
63.13999938964844 466.0400085449219 7.929999828338623
62.93000030517578 465.7999877929688 18.88999938964844
62.93000030517578 465.5299987792969 16.82999992370605
63.09000015258789 466.0700073242188 6.71999979019165
62.61000061035156 466.8599853515625 17.07999992370605
63.15999984741211 466.0799865722656 9.180000305175781
62.72000122070312 466.3200073242188 16.6299991607666
63.20999908447266 466.1099853515625 10.44999980926514
63.22999954223633 466.1700134277344 11.64000034332275
63.2599983215332 466.3900146484375 14.88000011444092
63.52999877929688 465.6300048828125 16.27000045776367
63.63999938964844 465.3699951171875 17.89999961853027
63.18000030517578 466.9299926757812 16.42000007629395
63.34999847412109 466.3500061035156 16.19000053405762
63.29000091552734 466.7000122070312 18.10000038146973
63.47999954223633 465.9299926757812 16.93000030517578
63.43000030517578 466.1199951171875 17.89999961853027
63.31999969482422 466.5400085449219 17.11000061035156
63.08000183105469 467.3900146484375 16.82999992370605
63.2599983215332 467.0899963378906 18.76000022888184
63.04999923706055 467.75 18.75
63.2599983215332 466.3099975585938 13.80000019073486
