315.3299865722656 378.5899963378906 14.57999992370605
315.5400085449219 376.9800109863281 14.6899995803833
315.9500122070312 378.6700134277344 14.60000038146973
315.8099975585938 378.1300048828125 14.52000045776367
316.3699951171875 378.3399963378906 11.88000011444092
316.4400024414062 378.7000122070312 10.51000022888184
316.3500061035156 378.1900024414062 14.64000034332275
316.3999938964844 378.5400085449219 13.44999980926514
316.4700012207031 378.75 14.96000003814697
316.9700012207031 378.5 5.190000057220459
317.010009765625 378.239990234375 14.55000019073486
316.4599914550781 375.9200134277344 14.92000007629395
318.2099914550781 378.1600036621094 4.960000038146973
315.6199951171875 380.1199951171875 14.88000011444092
315.7999877929688 378.5400085449219 14.57999992370605
315.8500061035156 378.3500061035156 10.17000007629395
316.6300048828125 379.010009765625 14.77000045776367
316.5299987792969 378.5499877929688 14.77999973297119
317.25 378.4700012207031 14.75
315.5499877929688 378.7099914550781 14.59000015258789
316.1199951171875 378.489990234375 14.5600004196167
316.7000122070312 378.760009765625 12.5
316.7000122070312 378.9200134277344 9.420000076293945
316.6400146484375 378.9100036621094 7.409999847412109
316.7099914550781 378.8900146484375 10.92000007629395
316.6799926757812 378.6799926757812 13.93000030517578
316.6000061035156 378.3500061035156 14.65999984741211
317.2799987792969 378.6000061035156 14.61999988555908
316.5299987792969 380.1099853515625 9.699999809265137
316.5799865722656 378.6499938964844 6.820000171661377
316.5299987792969 378.7000122070312 8.430000305175781
316.6499938964844 378.6000061035156 5.03000020980835
317.1300048828125 378.6099853515625 14.77000045776367
316.4599914550781 378.7799987792969 14.89999961853027
316.5 378.7099914550781 10.30000019073486
316.4500122070312 378.7999877929688 13.5600004196167
316.4599914550781 378.7300109863281 11.86999988555908
315.3999938964844 378.3399963378906 14.64000034332275
310.6400146484375 377.8299865722656 9.319999694824219
312.4700012207031 378.1300048828125 9.659999847412109
314.4400024414062 378.3299865722656 10
315.6199951171875 378.0199890136719 14.77000045776367
316.5700073242188 377.8099975585938 10.13000011444092
315.9299926757812 378.5499877929688 14.60999965667725
316.4200134277344 378.4500122070312 14.72999954223633
317.5199890136719 378.2000122070312 14.82999992370605
317.8500061035156 378.2099914550781 4.929999828338623
317.0199890136719 378.2999877929688 14.63000011444092
316.4700012207031 379.9100036621094 9.680000305175781
316.7300109863281 379.760009765625 9.640000343322754
316.760009765625 378.3200073242188 10.05000019073486
316.0299987792969 378.5700073242188 14.5600004196167
317.1600036621094 378.3099975585938 14.67000007629395
315.5299987792969 378.7000122070312 14.64999961853027
316.5499877929688 378.4100036621094 14.64999961853027
314.0899963378906 378.3299865722656 10.02000045776367
316.7099914550781 378.0499877929688 10.07999992370605
315.6600036621094 378.25 14.6899995803833
317.0299987792969 378.6300048828125 9.989999771118164
316.9599914550781 378.6300048828125 11.14000034332275
316.7200012207031 378.6400146484375 14.64000034332275
317.4500122070312 378.489990234375 14.71000003814697
316.8599853515625 378.6400146484375 12.27000045776367
317.1900024414062 378.6700134277344 4.849999904632568
317.1499938964844 378.6799926757812 6.179999828338623
317.010009765625 378.6499938964844 8.579999923706055
317.0799865722656 378.6400146484375 7.380000114440918
316.7799987792969 378.6499938964844 13.47999954223633
312.8099975585938 378.1300048828125 9.729999542236328
314.7799987792969 378.3800048828125 10
315.4200134277344 378.4400024414062 10.10000038146973
315.3200073242188 378.4299926757812 14.53999996185303
315.510009765625 377.7799987792969 14.75
316.0599975585938 378.5 10.30000019073486
316.0199890136719 378.489990234375 14.57999992370605
316.8299865722656 378.5599975585938 13.02000045776367
316.5 379.9299926757812 9.720000267028809
316.8999938964844 378.5299987792969 8.699999809265137
316.9400024414062 378.489990234375 6.800000190734863
316.7799987792969 378.5799865722656 14.77000045776367
316.8399963378906 378.510009765625 10.92000007629395
317.510009765625 378.3399963378906 14.6899995803833
318.2799987792969 378.1799926757812 5
313.739990234375 378.260009765625 9.850000381469727
314.3500061035156 378.25 9.979999542236328
315.7900085449219 378.5700073242188 14.52999973297119
316.4299926757812 378.5499877929688 11.85000038146973
316.5799865722656 377.8999938964844 10.09000015258789
316.4100036621094 378.6700134277344 14.77000045776367
317.3399963378906 377.6099853515625 14.6899995803833
317.2000122070312 378.1000061035156 14.73999977111816
317.0700073242188 378.5700073242188 11.77999973297119
316.6499938964844 380.0700073242188 9.739999771118164
317.4500122070312 379.8500061035156 14.90999984741211
314.7799987792969 378.4500122070312 9.989999771118164
315.3900146484375 378.3699951171875 14.64999961853027
316.0199890136719 378.7000122070312 14.47999954223633
316.7000122070312 378.7900085449219 6.900000095367432
316.6499938964844 378.8099975585938 8.819999694824219
316.6499938964844 378.760009765625 12.19999980926514
316.6199951171875 378.7200012207031 13.93000030517578
316.7300109863281 378.3299865722656 14.64000034332275
316.3999938964844 379.7900085449219 9.75
316.5199890136719 379.1400146484375 15.10999965667725
316.6300048828125 378.8099975585938 10.51000022888184
317.239990234375 378.6799926757812 14.68000030517578
316.5499877929688 379.8200073242188 9.739999771118164
315.5400085449219 378.760009765625 14.73999977111816
316.6499938964844 378.4500122070312 6.239999771118164
316.4599914550781 378.3699951171875 9.909999847412109
316.4599914550781 378.3299865722656 11.59000015258789
316.5499877929688 378.3399963378906 14.65999984741211
317.1300048828125 378.4700012207031 14.61999988555908
316.6099853515625 378.4200134277344 8.060000419616699
315.9800109863281 378.1700134277344 14.4399995803833
316.489990234375 379.9599914550781 9.600000381469727
316.5199890136719 380.0799865722656 15.10999965667725
310.8900146484375 377.9500122070312 9.420000076293945
309.8800048828125 377.6900024414062 9.329999923706055
310.3599853515625 377.8099975585938 9.380000114440918
316 378.6900024414062 14.56999969482422
315.4700012207031 378.5599975585938 14.61999988555908
315.3399963378906 378.4299926757812 10.11999988555908
316.4700012207031 378.8099975585938 14.81999969482422
316.239990234375 378.7200012207031 11.82999992370605
314.760009765625 378.2900085449219 10.07999992370605
317.4100036621094 378.2799987792969 14.72999954223633
318.3200073242188 378.3599853515625 5.019999980926514
316.4599914550781 379.6099853515625 9.729999542236328
313.010009765625 378.1600036621094 9.720000267028809
316.3900146484375 378.9200134277344 15.09000015258789
317.2900085449219 378.3900146484375 14.72999954223633
316.9100036621094 378.3500061035156 10.15999984741211
316.7099914550781 378.2200012207031 14.59000015258789
316.6499938964844 377.5700073242188 9.859999656677246
316.4100036621094 376.8099975585938 14.97999954223633
317.010009765625 378.6600036621094 7.28000020980835
316.9599914550781 378.6600036621094 8.460000038146973
316.9800109863281 378.6700134277344 9.689999580383301
317.0499877929688 378.6499938964844 5.989999771118164
317.0899963378906 378.6099853515625 4.739999771118164
316.8699951171875 378.6400146484375 10.98999977111816
316.7799987792969 378.6700134277344 12.15999984741211
315.9400024414062 378.4500122070312 14.5600004196167
316.7699890136719 378.6700134277344 13.32999992370605
316.6799926757812 378.6700134277344 14.60000038146973
318.260009765625 378.1300048828125 5.019999980926514
316.6600036621094 377.8200073242188 9.880000114440918
