421.0299987792969 389.6799926757812 5.619999885559082
420.5499877929688 389.6799926757812 14.39999961853027
421.010009765625 389.6499938964844 11.77999973297119
421.0199890136719 389.6700134277344 8.609999656677246
421.0299987792969 389.6199951171875 10.17000007629395
421.1799926757812 389.5199890136719 15.93000030517578
421.0499877929688 389.6900024414062 7.170000076293945
420.9500122070312 389.5899963378906 14.85000038146973
421.1199951171875 390.2900085449219 10.1899995803833
420.9400024414062 390.260009765625 14.86999988555908
421.0199890136719 390.2099914550781 14.90999984741211
420.9800109863281 390.1700134277344 10.26000022888184
421.5499877929688 389.9700012207031 5.420000076293945
420.3800048828125 389.7200012207031 14.31999969482422
420.9599914550781 389.6000061035156 14.46000003814697
420.5 389.5799865722656 14.47000026702881
421.0799865722656 389.3999938964844 14.64000034332275
421.0799865722656 390.1600036621094 16.01000022888184
421.5799865722656 389.8999938964844 5.630000114440918
421.4100036621094 389.9500122070312 7.949999809265137
421.4200134277344 389.9400024414062 6.659999847412109
421.3399963378906 389.9800109863281 9.210000038146973
420.7999877929688 389.4100036621094 14.59000015258789
421.1199951171875 389.3500061035156 13.97999954223633
420.8900146484375 389.3999938964844 16.04000091552734
420.9700012207031 389.3800048828125 14.53999996185303
420.5299987792969 389.2799987792969 14.02000045776367
421 389.4100036621094 15.81999969482422
421.0400085449219 389.3699951171875 12.75
421.1199951171875 390.1300048828125 14.97999954223633
420.7000122070312 389.989990234375 14.55000019073486
421 390.0299987792969 9.260000228881836
421.0599975585938 390 7.75
420.989990234375 389.9800109863281 6.28000020980835
421.3800048828125 390.0299987792969 5.429999828338623
420.4400024414062 389.6700134277344 14.36999988555908
420.9200134277344 389.7999877929688 14.51000022888184
421.4200134277344 390.010009765625 5.360000133514404
421.0700073242188 389.1700134277344 10.15999984741211
421.1499938964844 389.4400024414062 15.76000022888184
420.8900146484375 389.3699951171875 14.43000030517578
420.8500061035156 389.8699951171875 12.98999977111816
421.25 389.9100036621094 9.109999656677246
421.3599853515625 389.9400024414062 6.579999923706055
420.5700073242188 389.8500061035156 14.47000026702881
421.2099914550781 390.0799865722656 14.72000026702881
421.3299865722656 390.1900024414062 6.880000114440918
421.2999877929688 389.5299987792969 14.05000019073486
421.2799987792969 389.5299987792969 15.42000007629395
421.4800109863281 389.6400146484375 10.35999965667725
421.3999938964844 389.5799865722656 11.53999996185303
421.4299926757812 389.6199951171875 9.100000381469727
421.4700012207031 389.6499938964844 7.829999923706055
420.8200073242188 389.4400024414062 14.5
421.5499877929688 389.7000122070312 6.53000020980835
421.3999938964844 389.5899963378906 12.80000019073486
421.6300048828125 389.6499938964844 10.48999977111816
420.8599853515625 389.8599853515625 15.48999977111816
420.7699890136719 389.4400024414062 14.47999954223633
420.9500122070312 389.9400024414062 12.48999977111816
420.989990234375 390.260009765625 14.88000011444092
420.8800048828125 389.8599853515625 13.96000003814697
421.010009765625 390.0400085449219 9.880000114440918
421.0799865722656 390.1099853515625 7.070000171661377
420.9800109863281 389.9700012207031 11.11999988555908
421.0199890136719 390.0700073242188 8.5
421.1099853515625 389.3999938964844 15.85000038146973
421.2099914550781 389.9400024414062 5.949999809265137
421.1499938964844 389.6700134277344 13.42000007629395
421.1600036621094 389.8500061035156 9.850000381469727
420.4100036621094 389.4800109863281 14.51000022888184
420.8999938964844 389.1199951171875 14.27999973297119
420.9800109863281 389.5799865722656 14.72999954223633
420.989990234375 389.3500061035156 13.09000015258789
421.0199890136719 389.8299865722656 16.07999992370605
421.0499877929688 389.6000061035156 11.76000022888184
421.1300048828125 390.0499877929688 14.84000015258789
421.0499877929688 389.4100036621094 10.1899995803833
420.3900146484375 389.6499938964844 14.46000003814697
421.2999877929688 389.3599853515625 15.27999973297119
421.2799987792969 389.3699951171875 13.92000007629395
421.2900085449219 389.4400024414062 12.4399995803833
421.2799987792969 389.5599975585938 10.81999969482422
421.2799987792969 389.5499877929688 9.470000267028809
421.260009765625 389.6900024414062 6.679999828338623
421.2699890136719 389.5799865722656 8.069999694824219
421.2999877929688 389.739990234375 5.269999980926514
420.7699890136719 389.8900146484375 14.63000011444092
420.6400146484375 389.3399963378906 14.43000030517578
421.3299865722656 389.7200012207031 14.18000030517578
421.239990234375 390.0199890136719 14.86999988555908
421.3999938964844 389.8699951171875 11.59000015258789
421.260009765625 389.7300109863281 15.6899995803833
421.3699951171875 389.7699890136719 12.89000034332275
421.4700012207031 389.8800048828125 10.27999973297119
420.6199951171875 389.4200134277344 14.48999977111816
420.5700073242188 389.8099975585938 13.88000011444092
420.75 389.3200073242188 14.5
420.6199951171875 389.8299865722656 14.39999961853027
421.1400146484375 389.8099975585938 10.97999954223633
421.1700134277344 390.2099914550781 14.97000026702881
421.0199890136719 390.2200012207031 10.13000011444092
421.3200073242188 389.3999938964844 12.85000038146973
420.9299926757812 390.1799926757812 14.94999980926514
421.0799865722656 389.5199890136719 15.80000019073486
421.2799987792969 389.6099853515625 9.449999809265137
421.1700134277344 389.5199890136719 12.77000045776367
421.3699951171875 389.8299865722656 5.670000076293945
420.5400085449219 389.3099975585938 14.47000026702881
421.1900024414062 389.6600036621094 15.98999977111816
421.2099914550781 389.4500122070312 14.97999954223633
421.0299987792969 390.1300048828125 15.05000019073486
421.510009765625 389.9400024414062 5.599999904632568
421.6000061035156 389.8500061035156 7.28000020980835
421.1099853515625 389.4100036621094 12.25
421.1400146484375 389.4700012207031 13.64000034332275
421.0400085449219 389.489990234375 10.85999965667725
