455.2000122070312 77.22000122070312 7.550000190734863
455.5 77.12999725341797 8.350000381469727
454.6400146484375 77.30999755859375 10
454.2900085449219 77.41999816894531 9.25
453.6799926757812 76.94999694824219 6.550000190734863
453.8299865722656 76.90000152587891 4.800000190734863
452.25 77.33999633789062 5.059999942779541
453.8999938964844 76.84999847412109 10.11999988555908
454.260009765625 76.75 9.409999847412109
452.5499877929688 77.22000122070312 5.869999885559082
453.7699890136719 76.84999847412109 9.069999694824219
453.4800109863281 76.98000335693359 8.180000305175781
453.5400085449219 79 9
453.6900024414062 78.94999694824219 10.11999988555908
454.2000122070312 78.83000183105469 9.199999809265137
455.1499938964844 77.94000244140625 7.480000019073486
455.5199890136719 77.83999633789062 8.140000343322754
455.2799987792969 77.88999938964844 9.779999732971191
453.4599914550781 78.37000274658203 9.050000190734863
455.5 77.83000183105469 9.399999618530273
455.5599975585938 77.81999969482422 10.69999980926514
454.1900024414062 78.16999816894531 9.180000305175781
453.6700134277344 78.26999664306641 10.11999988555908
453.7999877929688 77.52999877929688 10.10000038146973
455.010009765625 77.30000305175781 5.110000133514404
454.010009765625 80.81999969482422 10.17000007629395
454.489990234375 80.70999908447266 9.300000190734863
453.7900085449219 80.87000274658203 9.159999847412109
453.5 77.63999938964844 7.900000095367432
455.4200134277344 77.16000366210938 5.829999923706055
453.5700073242188 77.62000274658203 9.159999847412109
453.9599914550781 80.12000274658203 9.170000076293945
454.2900085449219 80 9.920000076293945
454.3699951171875 79.37000274658203 10.02000045776367
454.0299987792969 79.44999694824219 9.210000038146973
453.9100036621094 82.16000366210938 10.10000038146973
454.3900146484375 82.01999664306641 9.220000267028809
453.75 82.19000244140625 9.010000228881836
453.7900085449219 81.58000183105469 9.109999656677246
454.0199890136719 81.5 10.21000003814697
454.5299987792969 81.41000366210938 9.260000228881836
454.2699890136719 84.19000244140625 9.180000305175781
454.2099914550781 83.51000213623047 9.260000228881836
454.5599975585938 83.41000366210938 10.02999973297119
453.8099975585938 82.84999847412109 10.06999969482422
454.3099975585938 82.77999877929688 9.229999542236328
453.4599914550781 76.86000061035156 8.279999732971191
452.3099975585938 77.12000274658203 5.679999828338623
453.6600036621094 78.83999633789062 9.149999618530273
454.2200012207031 78.66999816894531 9.170000076293945
453.989990234375 78.73000335693359 10.0600004196167
455.9299926757812 76.90000152587891 6.46999979019165
455.2900085449219 77.08999633789062 6.590000152587891
453.989990234375 77.45999908447266 9.270000457763672
453.739990234375 77.48000335693359 10.09000015258789
454.5299987792969 77.29000091552734 9.380000114440918
453.4700012207031 77.55000305175781 8.949999809265137
455.6300048828125 76.97000122070312 5.150000095367432
453.4299926757812 77.55000305175781 6.559999942779541
455.4200134277344 77.06999969482422 8.300000190734863
453.8699951171875 77.41999816894531 7.320000171661377
455.0899963378906 77.12999725341797 5.119999885559082
455.3500061035156 77.73999786376953 6.78000020980835
455.5599975585938 77.73000335693359 10.72000026702881
453.510009765625 78.23999786376953 9.140000343322754
454.0299987792969 78.13999938964844 9.170000076293945
454.5599975585938 78 9.609999656677246
453.7799987792969 78.18000030517578 10.14999961853027
455.4700012207031 77.73000335693359 8.510000228881836
454.3800048828125 79.37999725341797 9.369999885559082
453.7200012207031 79.52999877929688 9.180000305175781
453.6600036621094 80.29000091552734 10.13000011444092
453.8699951171875 80.20999908447266 9.189999580383301
454.4700012207031 80.05000305175781 9.310000419616699
454.3299865722656 80.11000061035156 9.979999542236328
453.6700134277344 80.91000366210938 10.02999973297119
454.4700012207031 80.68000030517578 9.229999542236328
454.3099975585938 80.73999786376953 9.960000038146973
453.8900146484375 80.83999633789062 9.189999580383301
453.9700012207031 81.30000305175781 9.199999809265137
453.760009765625 81.37000274658203 10.0600004196167
454.3299865722656 81.23999786376953 10.02000045776367
454.5199890136719 81.15000152587891 9.369999885559082
454.7300109863281 81.73999786376953 9.350000381469727
454.1600036621094 81.91000366210938 9.189999580383301
453.9500122070312 81.98000335693359 10.09000015258789
454.9500122070312 82.37000274658203 9.170000076293945
453.7099914550781 82.73000335693359 9.239999771118164
454.0700073242188 82.62000274658203 10.10000038146973
454.3500061035156 82.55999755859375 9.140000343322754
453.8099975585938 83.33999633789062 9.130000114440918
454.3999938964844 83.15000152587891 9.199999809265137
454.8500061035156 83.08000183105469 9.689999580383301
454.7799987792969 83.59999847412109 10.06999969482422
454.4299926757812 83.68000030517578 9.180000305175781
455.0499877929688 83.5 9.210000038146973
453.7699890136719 83.87000274658203 9.420000076293945
453.2099914550781 76.84999847412109 6.650000095367432
453.7799987792969 76.70999908447266 6.510000228881836
453.8500061035156 77.37999725341797 10.17000007629395
453.8399963378906 77.40000152587891 9.220000267028809
454.3999938964844 77.25 9.300000190734863
455.4800109863281 77.01999664306641 8.239999771118164
453.3099975585938 77.56999969482422 10.15999984741211
455.489990234375 77.01000213623047 6.619999885559082
454.8900146484375 77.19999694824219 5.150000095367432
453.2200012207031 77.58999633789062 6.550000190734863
455.4400024414062 77.06999969482422 5.139999866485596
455.989990234375 76.91000366210938 6.480000019073486
453.760009765625 78.12000274658203 9.180000305175781
454.3099975585938 78.01000213623047 9.229999542236328
453.8099975585938 78.12999725341797 10.07999992370605
454.3299865722656 77.97000122070312 10.02000045776367
456 77.61000061035156 6.46999979019165
455.4599914550781 77.72000122070312 7.829999923706055
453.7999877929688 78.73000335693359 10.10000038146973
454.3599853515625 78.58999633789062 9.170000076293945
454.3500061035156 78.58000183105469 10.03999996185303
453.760009765625 78.76000213623047 9.220000267028809
454.25 79.30999755859375 9.979999542236328
454.1799926757812 80.80999755859375 9.189999580383301
453.6600036621094 79.44999694824219 10.10000038146973
454.260009765625 79.30999755859375 9.220000267028809
454.2799987792969 80.08999633789062 10.01000022888184
453.7200012207031 80.23000335693359 10.02000045776367
454.2999877929688 80.06999969482422 9.170000076293945
453.6799926757812 80.94999694824219 9.159999847412109
453.6900024414062 80.91999816894531 10.0600004196167
454.2300109863281 80.76999664306641 10.01000022888184
453.5499877929688 81.51000213623047 10.14000034332275
454.1700134277344 81.37000274658203 9.149999618530273
454.7200012207031 81.23999786376953 9.220000267028809
453.4500122070312 82.23000335693359 10.06999969482422
454.5799865722656 81.94999694824219 9.189999580383301
454.0700073242188 82.05999755859375 10.10999965667725
454.0700073242188 82.08000183105469 9.140000343322754
454.0199890136719 82.83000183105469 10.09000015258789
453.4800109863281 82.95999908447266 9.939999580383301
454.6499938964844 82.69999694824219 10
454.6099853515625 82.69000244140625 9.170000076293945
454.0199890136719 82.84999847412109 9.210000038146973
453.4700012207031 83.69000244140625 9.470000267028809
454 83.58999633789062 9.220000267028809
454.5799865722656 83.41999816894531 10.02000045776367
454.6000061035156 83.43000030517578 9.189999580383301
454 83.54000091552734 9.970000267028809
454.3999938964844 84.05000305175781 9.210000038146973
454.4400024414062 84.01000213623047 9.979999542236328
455.6400146484375 76.63999938964844 5.010000228881836
454.3200073242188 77 6.880000114440918
454.0499877929688 77.02999877929688 5.949999809265137
455.1199951171875 76.73000335693359 5.210000038146973
455.8399963378906 77.12999725341797 6.519999980926514
455.4700012207031 77.20999908447266 5.25
454.7799987792969 77.44000244140625 9.210000038146973
454.1499938964844 77.62999725341797 9.289999961853027
453.5700073242188 77.75 9.25
453.8099975585938 77.73000335693359 10.09000015258789
455.5299987792969 77.25 7.659999847412109
454.1400146484375 78.26999664306641 9.989999771118164
453.2999877929688 76.55999755859375 6.630000114440918
453.8999938964844 78.33000183105469 9.180000305175781
453.5599975585938 78.44999694824219 10.14999961853027
454.489990234375 78.19999694824219 9.109999656677246
455.5400085449219 77.88999938964844 8.380000114440918
454.4299926757812 77 9.340000152587891
453.4800109863281 77.25 10.21000003814697
452.5199890136719 77.41999816894531 5.099999904632568
454 77.12000274658203 10.11999988555908
453.760009765625 77.12000274658203 7.099999904632568
454.8900146484375 80.08000183105469 9.060000419616699
454.2900085449219 80.19999694824219 9.239999771118164
453.9400024414062 80.29000091552734 10.10000038146973
453.7200012207031 79.12000274658203 9.210000038146973
454.3299865722656 78.94999694824219 9.199999809265137
453.9400024414062 80.90000152587891 9.199999809265137
454.2300109863281 80.84999847412109 10.06999969482422
453.6499938964844 80.98999786376953 10.14000034332275
454.5899963378906 80.76000213623047 9.109999656677246
454.2099914550781 79.69000244140625 10.0600004196167
453.6499938964844 79.87000274658203 10.19999980926514
453.9500122070312 79.73999786376953 9.189999580383301
454.510009765625 79.62000274658203 9.159999847412109
454.8800048828125 81.31999969482422 9.069999694824219
454.3399963378906 81.44000244140625 9.220000267028809
453.9800109863281 81.58999633789062 10.02999973297119
453.6799926757812 80.36000061035156 9.210000038146973
454.5199890136719 82.04000091552734 9.149999618530273
453.9400024414062 82.16999816894531 9.220000267028809
454.8299865722656 82.54000091552734 9.039999961853027
453.9599914550781 82.79000091552734 10.07999992370605
454.2799987792969 82.66000366210938 9.159999847412109
454.5 82.62999725341797 9.949999809265137
453.9800109863281 83.40000152587891 9.220000267028809
454.5899963378906 83.26000213623047 9.149999618530273
454.2300109863281 83.40000152587891 9.989999771118164
454.4299926757812 84.01999664306641 9.220000267028809
455.6099853515625 77.58999633789062 10.14999961853027
453.7300109863281 77.09999847412109 8.170000076293945
455.3999938964844 77.48999786376953 7.889999866485596
453.75 77.08999633789062 6.670000076293945
455.510009765625 77.55000305175781 8.989999771118164
453.7999877929688 77.08000183105469 5.210000038146973
454.1400146484375 77.22000122070312 10.14000034332275
453.1900024414062 76.94999694824219 7.760000228881836
455.2799987792969 77.44000244140625 5.340000152587891
454.5899963378906 76.65000152587891 4.690000057220459
453.7900085449219 77.15000152587891 9.369999885559082
453.6300048828125 78.55000305175781 9.170000076293945
453.8599853515625 78.62999725341797 10.02999973297119
454.3099975585938 78.68000030517578 9.279999732971191
455.4299926757812 78.23999786376953 10.6899995803833
454.0899963378906 77.91000366210938 9.210000038146973
453.5 77.70999908447266 9.069999694824219
453.6000061035156 77.79000091552734 10.09000015258789
453.4200134277344 77.70999908447266 7.789999961853027
452.3999938964844 77.44000244140625 5.670000076293945
454.4400024414062 77.95999908447266 9.899999618530273
454.2799987792969 80.68000030517578 9.220000267028809
453.5899963378906 80.54000091552734 9.100000381469727
453.8099975585938 80.59999847412109 10.10999965667725
454.4200134277344 80.05999755859375 9.979999542236328
454.1099853515625 79.98999786376953 9.189999580383301
453.6700134277344 79.86000061035156 10.02999973297119
454.2900085449219 79.37000274658203 9.779999732971191
454.489990234375 82.77999877929688 9.220000267028809
453.7900085449219 82.59999847412109 9.109999656677246
453.8599853515625 79.27999877929688 9.180000305175781
454.1499938964844 82.06999969482422 9.180000305175781
454.010009765625 82.63999938964844 10.10000038146973
453.5700073242188 81.93000030517578 8.930000305175781
454.4599914550781 82.16000366210938 9.890000343322754
453.6700134277344 81.98999786376953 10
454.510009765625 81.51999664306641 9.279999732971191
454.2000122070312 81.45999908447266 9.890000343322754
453.8500061035156 81.34999847412109 9.140000343322754
454.1199951171875 84.15000152587891 9.140000343322754
454.1099853515625 83.33000183105469 10.09000015258789
453.8500061035156 83.30000305175781 9.159999847412109
454.5499877929688 83.44999694824219 9.229999542236328
454.989990234375 76.75 4.71999979019165
455.739990234375 76.94000244140625 6.53000020980835
455.4599914550781 76.86000061035156 5.150000095367432
453.4599914550781 77.04000091552734 6.550000190734863
453.8500061035156 77.11000061035156 7.340000152587891
455.0400085449219 77.47000122070312 5.159999847412109
453.8099975585938 77.15000152587891 5.090000152587891
453.5899963378906 77.05999755859375 8.239999771118164
454.5700073242188 77.30999755859375 9.470000267028809
453.7200012207031 77.05000305175781 10.15999984741211
455.5499877929688 77.56999969482422 7.940000057220459
455.989990234375 77.69000244140625 6.440000057220459
455.4200134277344 77.55000305175781 6.210000038146973
453.9200134277344 77.12000274658203 9.340000152587891
454.0599975585938 77.83000183105469 9.159999847412109
453.4800109863281 77.66000366210938 9.130000114440918
454.4800109863281 77.94000244140625 9.869999885559082
453.8099975585938 77.73999786376953 10.09000015258789
453.6799926757812 78.41000366210938 9.210000038146973
454.3099975585938 78.55999755859375 9.220000267028809
454.0799865722656 78.52999877929688 10
453.7699890136719 79.19000244140625 9.170000076293945
453.5299987792969 79.13999938964844 10.13000011444092
454.2000122070312 79.26000213623047 10.01000022888184
454.3900146484375 79.34999847412109 9.279999732971191
453.7999877929688 79.80999755859375 10.11999988555908
454.0499877929688 79.87000274658203 9.189999580383301
454.510009765625 80.01000213623047 9.890000343322754
453.6300048828125 80.38999938964844 9.119999885559082
454 80.44999694824219 10.15999984741211
454.25 80.52999877929688 9.180000305175781
453.6600036621094 81.04000091552734 10.07999992370605
453.9100036621094 81.13999938964844 9.260000228881836
454.510009765625 81.26000213623047 9.260000228881836
454.3200073242188 81.20999908447266 9.989999771118164
453.6799926757812 81.81999969482422 10.02999973297119
454.3399963378906 81.94999694824219 9.960000038146973
454.510009765625 82.01000213623047 9.25
453.9400024414062 81.86000061035156 9.199999809265137
453.8800048828125 82.47000122070312 10.07999992370605
454.1400146484375 82.51000213623047 9.180000305175781
454.5799865722656 82.61000061035156 9.899999618530273
454.6300048828125 83.19000244140625 9.930000305175781
454.0299987792969 83.04000091552734 10.07999992370605
454.2999877929688 83.08000183105469 9.180000305175781
453.9400024414062 83.62000274658203 9.460000038146973
454.5700073242188 83.79000091552734 9.199999809265137
454.3999938964844 83.75 9.949999809265137
455.9200134277344 77.72000122070312 6.400000095367432
455.9100036621094 77.70999908447266 5.460000038146973
453.7099914550781 77.16000366210938 6.900000095367432
455.4100036621094 77.62999725341797 7.800000190734863
455.3399963378906 77.58000183105469 5.28000020980835
453.7300109863281 77.26000213623047 10.19999980926514
454.3200073242188 77.34999847412109 9.229999542236328
453.6799926757812 77.12000274658203 5.079999923706055
454.0199890136719 77.87999725341797 9.199999809265137
453.489990234375 77.77999877929688 10.09000015258789
454.2999877929688 78.69000244140625 10.01000022888184
454.3200073242188 78.65000152587891 9.180000305175781
453.760009765625 78.51999664306641 9.170000076293945
453.7699890136719 78.52999877929688 10.13000011444092
453.5299987792969 79.08999633789062 10.09000015258789
454.0400085449219 79.23999786376953 9.210000038146973
454.3800048828125 79.90000152587891 9.960000038146973
454.3599853515625 79.88999938964844 9.170000076293945
453.7900085449219 79.75 9.149999618530273
453.8099975585938 79.79000091552734 10.11999988555908
454 80.51999664306641 10.07999992370605
453.9599914550781 80.47000122070312 9.189999580383301
454.5299987792969 80.61000061035156 9.210000038146973
454.2200012207031 81.37000274658203 9.979999542236328
453.7000122070312 81.22000122070312 10.09000015258789
454.2200012207031 81.33000183105469 9.189999580383301
454.6600036621094 82.16000366210938 9.149999618530273
454.010009765625 81.98000335693359 9.159999847412109
454.0499877929688 82.01999664306641 10.10000038146973
454.3900146484375 82.73000335693359 9.159999847412109
454.3900146484375 82.73999786376953 10.02999973297119
453.8299865722656 82.61000061035156 10.03999996185303
454.6099853515625 83.5 9.130000114440918
454.6400146484375 83.51000213623047 9.989999771118164
454.0499877929688 83.37000274658203 10.10000038146973
454.0499877929688 83.34999847412109 9.279999732971191
453.7200012207031 84.11000061035156 9.090000152587891
455.4599914550781 76.55000305175781 5.179999828338623
455.2799987792969 77.27999877929688 8.300000190734863
454.1099853515625 77.05999755859375 4.420000076293945
454.9500122070312 77.23999786376953 5.119999885559082
455.6099853515625 77.40000152587891 5.159999847412109
454.1799926757812 77.01999664306641 6.769999980926514
456.010009765625 77.48000335693359 6.5
455.739990234375 77.43000030517578 7.75
455.4100036621094 77.37000274658203 6.75
454.5299987792969 77.06999969482422 10.02000045776367
454.3299865722656 77.01999664306641 9.270000457763672
453.4800109863281 76.84999847412109 8.449999809265137
453.8099975585938 77.58999633789062 9.199999809265137
455.5700073242188 78.01999664306641 8.779999732971191
453.4700012207031 77.5 10.18000030517578
455.5599975585938 78.01999664306641 10.8100004196167
452.1600036621094 77.22000122070312 5.849999904632568
455.2799987792969 78 7.880000114440918
454.5199890136719 77.77999877929688 9.399999618530273
453.9500122070312 76.91000366210938 10.02999973297119
454.3099975585938 78.30999755859375 9.979999542236328
454.0499877929688 78.26999664306641 9.210000038146973
454.6300048828125 78.40000152587891 9.050000190734863
453.739990234375 78.15000152587891 10.02000045776367
453.9100036621094 78.81999969482422 10.03999996185303
453.6400146484375 78.80000305175781 9.25
453.7999877929688 79.56999969482422 9.189999580383301
454.4100036621094 79.70999908447266 9.159999847412109
454.2999877929688 78.93000030517578 9.220000267028809
454.0899963378906 79.63999938964844 10.0600004196167
453.5599975585938 80.16999816894531 10.07999992370605
454.510009765625 80.41999816894531 9.180000305175781
453.9400024414062 80.30000305175781 9.199999809265137
454.0700073242188 80.95999908447266 9.199999809265137
453.760009765625 80.83999633789062 10.07999992370605
454.3399963378906 81 9.970000267028809
454.6900024414062 81.08000183105469 9.149999618530273
454.3200073242188 81.61000061035156 9.199999809265137
454.5400085449219 81.66999816894531 9.930000305175781
453.9700012207031 81.51999664306641 9.970000267028809
453.8999938964844 82.22000122070312 9.25
454.510009765625 82.37999725341797 9.149999618530273
454.1199951171875 82.23999786376953 10.03999996185303
454.0199890136719 82.81999969482422 9.229999542236328
453.739990234375 82.76000213623047 10.10999965667725
454.6799926757812 82.98999786376953 9.100000381469727
454.510009765625 83.5 9.970000267028809
453.9299926757812 83.37999725341797 10.05000019073486
454.260009765625 83.48000335693359 9.149999618530273
454.8900146484375 83.62999725341797 9.090000152587891
454.4800109863281 84.20999908447266 9.050000190734863
453.9200134277344 84.06999969482422 9.260000228881836
453.9599914550781 82.55000305175781 9.180000305175781
454.2799987792969 83.83999633789062 9.229999542236328
454.1400146484375 83.23000335693359 9.279999732971191
453.9100036621094 82.23999786376953 10.09000015258789
454.0499877929688 82.84999847412109 10.11999988555908
452.5799865722656 77.19000244140625 5.75
454.6700134277344 82.95999908447266 9.170000076293945
454.5499877929688 82.33999633789062 9.220000267028809
454 80.12999725341797 10.13000011444092
454.3599853515625 81.66000366210938 9.25
453.75 79.20999908447266 9.239999771118164
454.0299987792969 80.37999725341797 9.180000305175781
454.2200012207031 81.02999877929688 9.159999847412109
453.6799926757812 78.88999938964844 10.0600004196167
453.9200134277344 79.84999847412109 9.199999809265137
453.7999877929688 79.5 10.13000011444092
454.0899963378906 77.69000244140625 9.180000305175781
454.25 78.33000183105469 9.239999771118164
454.5599975585938 79.58000183105469 9.159999847412109
454.4599914550781 79.19000244140625 10.14999961853027
453.989990234375 77.33000183105469 10.18000030517578
454.3900146484375 78.90000152587891 9.149999618530273
455.6300048828125 77.73999786376953 7.789999961853027
455.3999938964844 76.94000244140625 5.179999828338623
455.489990234375 77.30999755859375 6.510000228881836
456.0799865722656 76.97000122070312 6.519999980926514
453.6799926757812 82.33000183105469 10.15999984741211
452.4200134277344 77.15000152587891 5.829999923706055
453.7900085449219 82.87999725341797 9.859999656677246
453.9200134277344 83.47000122070312 10.05000019073486
453.9700012207031 83.45999908447266 9.310000419616699
454.0799865722656 83.98000335693359 9.199999809265137
453.8399963378906 80.30999755859375 10.03999996185303
453.7000122070312 79.69000244140625 10.05000019073486
454.1199951171875 81.34999847412109 9.180000305175781
453.5799865722656 79.15000152587891 10.10999965667725
454.4100036621094 82.55999755859375 9.989999771118164
454.4400024414062 82.55999755859375 9.170000076293945
454.260009765625 81.94000244140625 10.10000038146973
454.5700073242188 83.09999847412109 9.970000267028809
454.5400085449219 83.05999755859375 9.210000038146973
454.7300109863281 83.69000244140625 9.189999580383301
453.9700012207031 80.83999633789062 10.11999988555908
453.9700012207031 80.81999969482422 9.159999847412109
454.2799987792969 81.91999816894531 9.199999809265137
453.75 77.15000152587891 10.18000030517578
453.75 77.05000305175781 6.869999885559082
454.1700134277344 78.83999633789062 10.05000019073486
454.2999877929688 79.38999938964844 9.25
453.7300109863281 77.02999877929688 5.119999885559082
454.0499877929688 78.30000305175781 9.140000343322754
454.1600036621094 78.81999969482422 9.159999847412109
454.3299865722656 79.44999694824219 10.05000019073486
454.7300109863281 81.12999725341797 9.239999771118164
454.4400024414062 80.04000091552734 9.229999542236328
453.8999938964844 77.72000122070312 9.199999809265137
454.6099853515625 80.58000183105469 9.199999809265137
454.3599853515625 77.44000244140625 9.270000457763672
454.4800109863281 77.98999786376953 9.329999923706055
454.489990234375 77.98000335693359 10
454.239990234375 76.87999725341797 9.329999923706055
455.0299987792969 77.51999664306641 5.400000095367432
455.6400146484375 77.25 7.840000152587891
455.5 76.66000366210938 5.139999866485596
455.6499938964844 77.22000122070312 6.53000020980835
455.6199951171875 77.22000122070312 5.159999847412109
456.1799926757812 76.90000152587891 6.440000057220459
454.0799865722656 83.45999908447266 9.989999771118164
454.1000061035156 83.66999816894531 9.270000457763672
453.9299926757812 82.87000274658203 9.760000228881836
453.7999877929688 82.44999694824219 9.210000038146973
454.2200012207031 84.08000183105469 9.789999961853027
454.6600036621094 83.33000183105469 9.189999580383301
454.489990234375 82.51000213623047 9.979999542236328
453.9500122070312 80.33000183105469 9.229999542236328
454.25 81.51000213623047 9.149999618530273
453.739990234375 79.5 10.14000034332275
453.7999877929688 79.72000122070312 9.25
454.5499877929688 82.72000122070312 9.189999580383301
453.8800048828125 80.08000183105469 10.07999992370605
454.0700073242188 80.95999908447266 9.180000305175781
454 80.69999694824219 10.14000034332275
454.3800048828125 82.13999938964844 9.189999580383301
454.5400085449219 80.63999938964844 9.189999580383301
454.1099853515625 78.83000183105469 9.130000114440918
454.239990234375 79.43000030517578 9.199999809265137
453.7300109863281 77.41000366210938 10.11999988555908
454.3699951171875 79.93000030517578 9.409999847412109
453.7099914550781 77.08999633789062 6.730000019073486
453.6600036621094 77.15000152587891 8.869999885559082
453.9800109863281 78.29000091552734 9.199999809265137
453.7999877929688 77.66000366210938 9.170000076293945
454.489990234375 77.86000061035156 9.75
454.2799987792969 76.83000183105469 6.610000133514404
454.2300109863281 76.81999969482422 9.020000457763672
454.3999938964844 77.41000366210938 9.229999542236328
455.0199890136719 76.98000335693359 5.039999961853027
455.1900024414062 77.58999633789062 5.260000228881836
455.7200012207031 77.16999816894531 7.900000095367432
455.6499938964844 76.91000366210938 6.519999980926514
455.6199951171875 76.66000366210938 5.050000190734863
455.739990234375 77.30999755859375 5.119999885559082
456.1600036621094 76.80000305175781 6.429999828338623
453.9200134277344 81.37000274658203 10.10999965667725
454.010009765625 81.80999755859375 9.25
454.2099914550781 82.59999847412109 9.199999809265137
453.8200073242188 81.11000061035156 9.25
454.3599853515625 83.33000183105469 9.149999618530273
454.0499877929688 82.06999969482422 10.14000034332275
453.8699951171875 83.61000061035156 9.699999809265137
453.4500122070312 76.80000305175781 6.619999885559082
453.4500122070312 76.80999755859375 7.869999885559082
454.1900024414062 79.76999664306641 9.189999580383301
453.6199951171875 77.48999786376953 6.610000133514404
453.6499938964844 77.5 9.319999694824219
454.3699951171875 80.56999969482422 9.149999618530273
454.4599914550781 80.86000061035156 10.01000022888184
453.9100036621094 78.51999664306641 10.11999988555908
453.739990234375 77.79000091552734 10.14000034332275
454.5799865722656 81.29000091552734 9.229999542236328
453.6099853515625 77.34999847412109 8.279999732971191
454 79.08000183105469 9.140000343322754
453.8599853515625 78.31999969482422 9.170000076293945
454.239990234375 76.87000274658203 6.679999828338623
454.4400024414062 77.69999694824219 9.260000228881836
454.2699890136719 77.01000213623047 9.220000267028809
455.4800109863281 76.68000030517578 4.800000190734863
455.6400146484375 77.19999694824219 5.190000057220459
455.6799926757812 77.23000335693359 7.789999961853027
455.6300048828125 77.22000122070312 6.53000020980835
455.1000061035156 77.69999694824219 5.400000095367432
454.9700012207031 77.16999816894531 5.039999961853027
452.3200073242188 77.23000335693359 5.579999923706055
453.989990234375 76.80000305175781 10.11999988555908
453.6900024414062 77.73999786376953 9.210000038146973
453.7799987792969 76.95999908447266 6.590000152587891
453.8500061035156 77.37000274658203 10.10000038146973
453.6799926757812 78.05999755859375 10.11999988555908
453.6400146484375 77.54000091552734 6.639999866485596
453.7200012207031 77.41000366210938 8
454.489990234375 76.93000030517578 9.579999923706055
454.2200012207031 78.12999725341797 9.25
454.0299987792969 78.72000122070312 9.180000305175781
454.3699951171875 77.5 9.270000457763672
453.8900146484375 79.61000061035156 10.14000034332275
453.7699890136719 79.91999816894531 9.170000076293945
453.7099914550781 80.18000030517578 10.10999965667725
454.0199890136719 78.98999786376953 10.13000011444092
453.8800048828125 79.30000305175781 9.149999618530273
454.9299926757812 77.12999725341797 5.010000228881836
454.4400024414062 79.69000244140625 9.260000228881836
453.7999877929688 82.43000030517578 10.10000038146973
453.8200073242188 82.19999694824219 9.199999809265137
453.9800109863281 81.80000305175781 10.10000038146973
454.3200073242188 80.27999877929688 9.279999732971191
453.989990234375 81.52999877929688 9.149999618530273
454.1700134277344 80.88999938964844 9.149999618530273
453.6600036621094 82.98000335693359 9.850000381469727
455.7300109863281 77.05000305175781 5.110000133514404
455.6499938964844 77.47000122070312 6.610000133514404
455.7099914550781 77.87999725341797 9.939999580383301
455.6000061035156 77.80999755859375 7.75
455.7999877929688 76.83000183105469 6.550000190734863
454.239990234375 83.75 9.170000076293945
452.4100036621094 77.26000213623047 5.650000095367432
453.5299987792969 77.58000183105469 10.0600004196167
453.6700134277344 77.04000091552734 9.989999771118164
453.6700134277344 77.48999786376953 6.670000076293945
453.8200073242188 76.95999908447266 6.920000076293945
454.1000061035156 78.05000305175781 9.939999580383301
453.8099975585938 79.19000244140625 10.09000015258789
453.6900024414062 79.66000366210938 9.220000267028809
453.9800109863281 78.56999969482422 9.189999580383301
454.1300048828125 78.04000091552734 9.170000076293945
454.2699890136719 77.40000152587891 9.229999542236328
453.8200073242188 79.15000152587891 9.159999847412109
453.6499938964844 79.69000244140625 10.13000011444092
454.3800048828125 76.86000061035156 9.279999732971191
453.7300109863281 81.76999664306641 10.07999992370605
453.760009765625 81.75 9.159999847412109
453.8699951171875 81.22000122070312 9.180000305175781
454.0299987792969 80.59999847412109 9.170000076293945
453.9800109863281 80.66000366210938 10.14999961853027
454.4400024414062 78.94000244140625 9.979999542236328
454.8699951171875 77.75 5.340000152587891
454.4500122070312 78.91000366210938 9.199999809265137
454.7300109863281 77.81999969482422 9.659999847412109
454.3399963378906 79.43000030517578 9.229999542236328
454.1900024414062 80.04000091552734 9.199999809265137
455.1499938964844 76.62999725341797 5.210000038146973
453.8299865722656 81.26000213623047 10.09000015258789
454.3200073242188 79.48000335693359 9.930000305175781
455.0499877929688 77.20999908447266 5.059999942779541
455.4500122070312 77.48000335693359 7.78000020980835
455.6900024414062 76.87000274658203 5.130000114440918
455.6400146484375 76.91000366210938 6.53000020980835
455.5499877929688 77.44999694824219 5.639999866485596
453.8599853515625 83.69999694824219 9.689999580383301
454.1000061035156 82.61000061035156 10.14000034332275
454.510009765625 80.94999694824219 10.01000022888184
454.3599853515625 81.55000305175781 9.960000038146973
454.5400085449219 80.93000030517578 9.199999809265137
454.2699890136719 82.05999755859375 9.159999847412109
454.1600036621094 82.61000061035156 9.149999618530273
453.989990234375 83.20999908447266 10
454.7200012207031 80.37999725341797 9.199999809265137
454.4200134277344 81.5 9.229999542236328
454.4700012207031 84.11000061035156 9.220000267028809
454.5700073242188 83.58999633789062 9.979999542236328
454.4200134277344 84.12000274658203 10.01000022888184
454.6000061035156 83.58000183105469 9.180000305175781
454.75 83.05000305175781 9.279999732971191
452.3299865722656 77.20999908447266 5.03000020980835
453.7200012207031 76.98000335693359 8.340000152587891
453.7200012207031 76.87000274658203 6.599999904632568
453.6099853515625 77.37999725341797 9.310000419616699
453.6799926757812 77.18000030517578 10.17000007629395
453.5700073242188 77.23999786376953 5.130000114440918
453.5299987792969 77.75 10.06999969482422
453.5599975585938 77.44999694824219 6.550000190734863
454.3900146484375 77.19000244140625 9.279999732971191
453.7900085449219 79.63999938964844 9.189999580383301
453.7099914550781 79.98999786376953 10.07999992370605
454.0799865722656 78.40000152587891 9.229999542236328
454.2300109863281 77.80000305175781 9.229999542236328
453.8699951171875 79.41000366210938 10.07999992370605
453.6199951171875 80.26000213623047 9.220000267028809
453.9100036621094 79.08000183105469 9.170000076293945
455.0799865722656 76.75 4.840000152587891
454.260009765625 80.44000244140625 9.229999542236328
453.8699951171875 82.05999755859375 10.07999992370605
454.3800048828125 79.80000305175781 9.189999580383301
453.9100036621094 81.66999816894531 9.189999580383301
454.1000061035156 81.08000183105469 9.189999580383301
453.9800109863281 81.44999694824219 10.10000038146973
454.9599914550781 77.23000335693359 5.150000095367432
455.6300048828125 76.98999786376953 5.130000114440918
455.6000061035156 77.29000091552734 6.559999942779541
455.5299987792969 77.79000091552734 9.390000343322754
455.5400085449219 77.48999786376953 7.909999847412109
454.6099853515625 81.44000244140625 9.130000114440918
455.4700012207031 77.55999755859375 5.519999980926514
454.0199890136719 83.69000244140625 9.899999618530273
453.989990234375 83.83000183105469 9.239999771118164
454.4500122070312 82.06999969482422 9.210000038146973
454.1099853515625 83.26999664306641 9.199999809265137
455.4800109863281 77.94999694824219 11.01000022888184
454.2699890136719 82.66000366210938 9.180000305175781
456.1400146484375 77.65000152587891 6.440000057220459
454.7099914550781 83.73999786376953 9.180000305175781
452.2799987792969 77.11000061035156 5
453.6199951171875 77.13999938964844 9.029999732971191
453.510009765625 77.63999938964844 8.109999656677246
453.5799865722656 77.27999877929688 10.17000007629395
453.7300109863281 76.91000366210938 6.800000190734863
453.6700134277344 76.98000335693359 8.039999961853027
453.7099914550781 79.20999908447266 9.970000267028809
453.6400146484375 79.68000030517578 9.140000343322754
453.8900146484375 78.47000122070312 10.01000022888184
454.1600036621094 77.38999938964844 9.229999542236328
453.7799987792969 78.95999908447266 9.180000305175781
453.989990234375 78.19999694824219 9.140000343322754
454.2799987792969 77.01999664306641 7.199999809265137
455.8099975585938 76.81999969482422 4.989999771118164
453.9500122070312 80.98000335693359 10.10000038146973
453.8399963378906 81.44999694824219 9.170000076293945
454.1900024414062 80.01000213623047 9.189999580383301
454.3999938964844 79.31999969482422 9.130000114440918
454.5400085449219 78.56999969482422 9.109999656677246
454.7900085449219 77.59999847412109 9.579999923706055
454.0199890136719 80.73000335693359 9.119999885559082
454.9400024414062 77.16000366210938 4.989999771118164
454.5199890136719 81.91999816894531 9.100000381469727
454.1499938964844 83.36000061035156 9.159999847412109
454.2300109863281 82.91999816894531 9.979999542236328
455.760009765625 76.75 6.429999828338623
454.3399963378906 82.59999847412109 9.149999618530273
454.6499938964844 81.22000122070312 9.100000381469727
455.6499938964844 77.31999969482422 5.360000133514404
455.6300048828125 77.37999725341797 7.880000114440918
454.6900024414062 83.76000213623047 9.140000343322754
