310.8800048828125 128.3899993896484 16.86000061035156
312.1799926757812 128.3699951171875 16.95000076293945
313.2999877929688 130.0200042724609 13.40999984741211
313.4400024414062 130.5800018310547 13.47999954223633
312.6099853515625 127.4700012207031 17
312.7999877929688 128.1799926757812 16.78000068664551
313.2999877929688 127.3000030517578 16.45000076293945
313.3699951171875 127.3399963378906 13.21000003814697
313.3399963378906 127.3000030517578 11.71000003814697
313.3800048828125 127.6100006103516 17.21999931335449
313.4700012207031 127.6999969482422 10.56999969482422
313.4100036621094 127.4300003051758 9.529999732971191
313.3699951171875 127.1399993896484 6.929999828338623
313.3500061035156 127.1900024414062 8.720000267028809
314.1099853515625 127.6399993896484 13.02999973297119
314.6700134277344 127.5299987792969 17.23999977111816
314.4100036621094 126.5199966430664 16.88999938964844
315.4500122070312 127.6800003051758 12.85000038146973
316.0799865722656 127.4899978637695 17.15999984741211
316.1900024414062 127.6100006103516 10.39000034332275
316.510009765625 126.7099990844727 16.76000022888184
311.1400146484375 128.6000061035156 17.02000045776367
313.2200012207031 129.4100036621094 13.0600004196167
313.510009765625 130.3800048828125 13.42000007629395
312.989990234375 128.1000061035156 16.78000068664551
313.0799865722656 128.6300048828125 16.88999938964844
312.8399963378906 127.7900009155273 13.01000022888184
313.3900146484375 129.8999938964844 13.39999961853027
312.8399963378906 127.5299987792969 16.73999977111816
313.4299926757812 127.5199966430664 13.0600004196167
313.5199890136719 127.7600021362305 17.25
313.4299926757812 127.7300033569336 9.390000343322754
314.0700073242188 127.7799987792969 12.9399995803833
313.9299926757812 127.5299987792969 9.390000343322754
314.0400085449219 127.9599990844727 10.55000019073486
314.4599914550781 126.6900024414062 16.88999938964844
314.75 127.7399978637695 17.23999977111816
315.3399963378906 127.9100036621094 10.4399995803833
315.7200012207031 126.6800003051758 16.85000038146973
310.2200012207031 127.6900024414062 13
312.2999877929688 128.4100036621094 17.03000068664551
312.8599853515625 127.7799987792969 16.73999977111816
313.510009765625 130.3300018310547 13.4399995803833
313.3599853515625 129.8000030517578 13.32999992370605
312.9800109863281 128.3899993896484 16.82999992370605
313.510009765625 127.5699996948242 10.68000030517578
313.6700134277344 128.4600067138672 16.97999954223633
313.4400024414062 127.4700012207031 12.89999961853027
313.5599975585938 127.7900009155273 9.300000190734863
313.4599914550781 127.2699966430664 9.409999847412109
313.3800048828125 127.3499984741211 17.10000038146973
314.2300109863281 127.6399993896484 10.56999969482422
315.010009765625 127.6100006103516 10.48999977111816
314.9400024414062 127.5 17.18000030517578
315.7799987792969 127.629997253418 10.39999961853027
315.6499938964844 127.5500030517578 17.15999984741211
316.4299926757812 127.6600036621094 10.22999954223633
313.0700073242188 128.1399993896484 16.69000053405762
313.4800109863281 127.4899978637695 9.590000152587891
313.5899963378906 128 10.53999996185303
313.5599975585938 127.7300033569336 12.80000019073486
313.5799865722656 127.9100036621094 9.050000190734863
314.5599975585938 126.7699966430664 16.92000007629395
313.8999938964844 126.8099975585938 16.98999977111816
316.0499877929688 127.7900009155273 10.39000034332275
313.1499938964844 130.4199981689453 13.42000007629395
312.8800048828125 128.5099945068359 16.80999946594238
313.1600036621094 127.6500015258789 17.1200008392334
312.9599914550781 127.6699981689453 14.46000003814697
312.7799987792969 127.7200012207031 16.55999946594238
312.9599914550781 127.6100006103516 8.010000228881836
312.9500122070312 127.5500030517578 6.300000190734863
312.9599914550781 127.6500015258789 12.73999977111816
312.9700012207031 127.5999984741211 9.520000457763672
312.9700012207031 127.6100006103516 11.22000026702881
312.8999938964844 127.5500030517578 4.880000114440918
312.9500122070312 126.9800033569336 16.70000076293945
313.7099914550781 126.7600021362305 16.93000030517578
314.260009765625 126.6500015258789 16.93000030517578
309.989990234375 127.75 10.43000030517578
313.2099914550781 126.9000015258789 16.77000045776367
309.7799987792969 128.4499969482422 16.90999984741211
313.0299987792969 127.6900024414062 16.79000091552734
312.5199890136719 127.8899993896484 10.68000030517578
316.6300048828125 126.7799987792969 16.79999923706055
312.9800109863281 127.7600021362305 10.55000019073486
313.4800109863281 127.5599975585938 17.15999984741211
315.4800109863281 127.8300018310547 10.47999954223633
316.0400085449219 127.6800003051758 10.39000034332275
312.75 128.4400024414062 16.86000061035156
316.6099853515625 127.5500030517578 10.10999965667725
315.4299926757812 127.7300033569336 17.17000007629395
312.25 128.5700073242188 16.85000038146973
313.3500061035156 130.3999938964844 13.4399995803833
313.4200134277344 130.5899963378906 13.43000030517578
314.2000122070312 127.8000030517578 10.65999984741211
315.1099853515625 127.629997253418 17.21999931335449
314.1700134277344 127.8000030517578 12.93000030517578
312.8399963378906 128.1699981689453 16.82999992370605
313.9299926757812 127.8399963378906 9.260000228881836
311.7300109863281 128.4799957275391 17.01000022888184
313.260009765625 127.3099975585938 5.670000076293945
313.1199951171875 127.379997253418 10.06999969482422
316.2099914550781 126.6699981689453 16.89999961853027
313.1499938964844 127.4000015258789 13.21000003814697
313.5199890136719 127.2600021362305 9.390000343322754
313.2900085449219 127.3499984741211 10.85000038146973
312.8599853515625 127.4899978637695 16.8700008392334
313.3699951171875 127.3300018310547 7.570000171661377
313.6300048828125 127.25 9.390000343322754
313.4299926757812 127.3300018310547 6.389999866485596
313.4800109863281 127.370002746582 5.039999961853027
313.2900085449219 127.2699966430664 16.6200008392334
313.3200073242188 127.3300018310547 11.38000011444092
313.3500061035156 127.3199996948242 10.1899995803833
313.3299865722656 127.2900009155273 12.76000022888184
313.5400085449219 127.8000030517578 15.25
313.8699951171875 127.75 9.359999656677246
313.6000061035156 127.7900009155273 12.6899995803833
313.7699890136719 127.8000030517578 10.52999973297119
313.0899963378906 128.5399932861328 16.84000015258789
313.2900085449219 129.9700012207031 13.40999984741211
313.6400146484375 130.4900054931641 13.38000011444092
310.760009765625 128.3500061035156 16.8799991607666
311.4500122070312 128.4700012207031 16.8799991607666
311.5599975585938 127.7600021362305 10.52999973297119
312.1400146484375 128.5299987792969 17.01000022888184
313.1000061035156 126.9899978637695 16.75
312.8299865722656 128.1699981689453 16.79000091552734
312.9800109863281 127.5699996948242 16.81999969482422
312.9100036621094 127.620002746582 13.17000007629395
313.5700073242188 127.2900009155273 9.390000343322754
313.5299987792969 127.5 10.5
313.6199951171875 127.2699966430664 12.69999980926514
313.4800109863281 127.8099975585938 13.06999969482422
313.6199951171875 127.5100021362305 17.18000030517578
314.2300109863281 127.629997253418 10.52000045776367
314.6099853515625 126.5400009155273 16.8799991607666
313.5899963378906 130.3099975585938 13.35000038146973
315.2000122070312 126.5699996948242 16.85000038146973
314.8399963378906 127.75 10.47000026702881
316.0799865722656 127.5999984741211 10.36999988555908
317.1900024414062 126.5899963378906 16.75
317.8599853515625 126.6900024414062 16.85000038146973
310.5199890136719 127.6699981689453 12.93000030517578
310.2799987792969 128.4199981689453 16.86000061035156
310.8900146484375 128.6399993896484 16.95000076293945
311.1499938964844 127.8399963378906 12.93000030517578
311.8500061035156 127.8099975585938 10.57999992370605
312.1199951171875 128.6100006103516 16.90999984741211
312.3800048828125 127.7900009155273 12.97999954223633
313.1000061035156 127.2399978637695 16.73999977111816
312.9599914550781 127.75 16.85000038146973
313.0799865722656 127.4499969482422 13.36999988555908
313.1499938964844 127.3199996948242 7.090000152587891
312.3800048828125 127.4899978637695 17.1299991607666
313.1799926757812 127.4000015258789 5.690000057220459
312.8099975585938 128.2200012207031 16.73999977111816
313.1700134277344 129.7599945068359 13.31999969482422
313.7200012207031 127.8000030517578 9.350000381469727
313.7000122070312 127.75 10.56999969482422
313.0299987792969 130.2400054931641 13.39000034332275
313.8599853515625 127.3199996948242 9.319999694824219
313.7099914550781 127.5599975585938 12.85000038146973
313.8699951171875 126.8099975585938 16.86000061035156
314.2900085449219 127.8399963378906 12.92000007629395
314.8200073242188 127.620002746582 17.27000045776367
314.7999877929688 127.9199981689453 13.07999992370605
315.4700012207031 127.8099975585938 10.48999977111816
316.1300048828125 127.8199996948242 12.98999977111816
316.9700012207031 126.8899993896484 16.81999969482422
318.1600036621094 126.6900024414062 16.77000045776367
308.489990234375 127.7200012207031 10.38000011444092
309.1799926757812 127.6600036621094 10.39000034332275
309.1900024414062 127.6900024414062 12.9399995803833
310.6000061035156 127.9100036621094 10.52999973297119
312.8200073242188 127.4100036621094 16.73999977111816
312.5199890136719 128.6000061035156 16.93000030517578
313.5599975585938 127.6100006103516 17.20000076293945
313.4200134277344 130.7899932861328 13.40999984741211
313.510009765625 127.6500015258789 12.86999988555908
313.2999877929688 128.6300048828125 16.90999984741211
313.4700012207031 127.7300033569336 10.56999969482422
313.5 127.4300003051758 9.399999618530273
314.2200012207031 127.7699966430664 17.22999954223633
314.1400146484375 127.8399963378906 10.48999977111816
314.75 127.9599990844727 10.43000030517578
315.1400146484375 126.6500015258789 16.95999908447266
315.8200073242188 126.8199996948242 16.81999969482422
316.2699890136719 127.629997253418 10.28999996185303
316.0899963378906 127.870002746582 13.03999996185303
315.6900024414062 126.8199996948242 16.77000045776367
315.0599975585938 126.8099975585938 16.8799991607666
314.8200073242188 127.6699981689453 17.22999954223633
313.6700134277344 127.8600006103516 12.89000034332275
312.9599914550781 130.8300018310547 13.38000011444092
313.2300109863281 127.7300033569336 8.989999771118164
313.1799926757812 127.8399963378906 10.56999969482422
313.1600036621094 127.7900009155273 13.05000019073486
313.1600036621094 127.8099975585938 15.82999992370605
313.1499938964844 127.7600021362305 14.39000034332275
313.1499938964844 127.6800003051758 16.97999954223633
313.2799987792969 127.7699966430664 7.739999771118164
313.2000122070312 127.7600021362305 11.86999988555908
312.9700012207031 128.3399963378906 16.78000068664551
313.3099975585938 127.6900024414062 6.389999866485596
312.5599975585938 127.8000030517578 10.72000026702881
310.6600036621094 128.5700073242188 16.94000053405762
310.0499877929688 128.5299987792969 16.92000007629395
313.2099914550781 130.3099975585938 13.44999980926514
313.0700073242188 129.5800018310547 13.18000030517578
312.7900085449219 128.8300018310547 16.77000045776367
312.9200134277344 127.4400024414062 5.760000228881836
313 127.4199981689453 8.789999961853027
312.9599914550781 127.4400024414062 7.21999979019165
313.0499877929688 127.3899993896484 11.98999977111816
313.1400146484375 127.4300003051758 13.43000030517578
313.0700073242188 127.3600006103516 15.05000019073486
313.0199890136719 127.4000015258789 10.39999961853027
313.010009765625 127.3399963378906 16.77000045776367
316.489990234375 127.5500030517578 10.17000007629395
313.2300109863281 130.6000061035156 13.4399995803833
313.4100036621094 129.8999938964844 13.39000034332275
310.7300109863281 128.6199951171875 16.88999938964844
308.0599975585938 127.879997253418 10.38000011444092
312.9700012207031 128.5700073242188 16.84000015258789
310.2099914550781 127.8499984741211 13
310.8999938964844 127.9800033569336 10.53999996185303
313 127.8399963378906 12.89999961853027
312.1499938964844 127.6699981689453 17.28000068664551
312.7099914550781 127.7300033569336 10.72000026702881
313.2200012207031 127.870002746582 10.65999984741211
313.2000122070312 127.9400024414062 16.73999977111816
313.75 128.0099945068359 10.60999965667725
312.6400146484375 127.8000030517578 17.09000015258789
315.5799865722656 127.6600036621094 10.48999977111816
312.8900146484375 127.0999984741211 16.75
313.2099914550781 127.129997253418 13.03999996185303
315.010009765625 127.6100006103516 17.19000053405762
314.2000122070312 126.7200012207031 16.80999946594238
317.010009765625 126.8300018310547 16.80999946594238
316.5 126.7300033569336 16.80999946594238
313.2000122070312 130.7100067138672 13.40999984741211
313.2699890136719 130.1399993896484 13.47000026702881
309.7000122070312 128.5399932861328 16.85000038146973
313.2900085449219 129.5 13.13000011444092
311.9200134277344 128.3699951171875 16.93000030517578
312.4500122070312 128.5399932861328 16.89999961853027
312.9500122070312 128.6399993896484 16.84000015258789
312.9200134277344 128.0200042724609 16.72999954223633
313.5199890136719 127.5500030517578 17.19000053405762
313.3800048828125 127.5999984741211 11.43000030517578
314.0899963378906 127.6900024414062 17.21999931335449
313.5299987792969 127.6699981689453 9.399999618530273
313.6499938964844 127.6600036621094 12.92000007629395
313.3399963378906 127.5699996948242 13.63000011444092
314.3099975585938 127.870002746582 10.63000011444092
313.7799987792969 127.6900024414062 10.63000011444092
312.8800048828125 127.379997253418 16.77000045776367
313.2900085449219 127.5 16.03000068664551
314.2900085449219 127.7900009155273 12.97999954223633
316.3399963378906 126.7900009155273 16.84000015258789
315.8200073242188 126.6800003051758 16.85000038146973
313.3900146484375 126.7200012207031 16.75
315.5499877929688 127.8199996948242 10.47000026702881
313.6099853515625 127.3399963378906 9.409999847412109
314.0299987792969 127.4499969482422 8.899999618530273
313.4200134277344 127.3199996948242 13.07999992370605
313.239990234375 127.3199996948242 16.6200008392334
313.5799865722656 128.1499938964844 10.56999969482422
313.3800048828125 128.1900024414062 16.69000053405762
313.1900024414062 130.1499938964844 13.44999980926514
313.3500061035156 130.9299926757812 13.4399995803833
