441.3099975585938 2.849999904632568 13.21000003814697
443.4800109863281 1.429999947547913 13.26000022888184
442.3599853515625 3.069999933242798 13.15999984741211
441.239990234375 1.470000028610229 13.35999965667725
442.0899963378906 0.449999988079071 2.630000114440918
442.1199951171875 0.3899999856948853 6.75
442.1300048828125 0.4099999964237213 5.300000190734863
441.1400146484375 0.5600000023841858 12.6899995803833
442.8299865722656 0.1400000005960464 13.5
442.0899963378906 0.3899999856948853 8.140000343322754
442.1400146484375 0.3100000023841858 13.4399995803833
441.4599914550781 0.5 13.44999980926514
442.1000061035156 0.4199999868869781 4.130000114440918
442.1499938964844 0.3799999952316284 9.609999656677246
443.3299865722656 0.6399999856948853 12.30000019073486
443.4100036621094 0.6000000238418579 13.48999977111816
441.2300109863281 1.159999966621399 13.46000003814697
442.2999877929688 1.019999980926514 13.35999965667725
442.0299987792969 0.2700000107288361 9.130000114440918
443.510009765625 0.7300000190734863 13.46000003814697
442.7099914550781 0.1700000017881393 13.48999977111816
441.9800109863281 0.25 2.309999942779541
441.5 0.449999988079071 13.57999992370605
442.0299987792969 0.25 6.559999942779541
441.7200012207031 0.4300000071525574 12.8100004196167
441.1300048828125 0.550000011920929 12.71000003814697
440.8200073242188 0.3899999856948853 13.52999973297119
441.3800048828125 0.25 13.52000045776367
442.1799926757812 0.6299999952316284 13.5600004196167
442.7699890136719 0.5 13.47999954223633
443.3900146484375 0.3300000131130219 13.55000019073486
442.2999877929688 1.320000052452087 13.27000045776367
443.4800109863281 1.029999971389771 13.32999992370605
443.3500061035156 0.3700000047683716 11.69999980926514
442.1799926757812 0.6499999761581421 12.64000034332275
441.9700012207031 0.119999997317791 13.56999969482422
443.4299926757812 1.360000014305115 13.35000038146973
443.4299926757812 0.6399999856948853 12.59000015258789
442.8299865722656 0.05999999865889549 11.77999973297119
442.739990234375 0.119999997317791 13.51000022888184
441.1600036621094 1.220000028610229 13.34000015258789
442.3399963378906 0.1899999976158142 12.25
442.3999938964844 0.8999999761581421 9.119999885559082
442.1400146484375 0.2700000107288361 13.60000038146973
441.5 0.4399999976158142 13.52999973297119
442.3800048828125 0.9100000262260437 13.40999984741211
443.5299987792969 0.07999999821186066 13.47000026702881
443.2000122070312 0.7599999904632568 13.34000015258789
441.5700073242188 0.4099999964237213 13.51000022888184
442.3099975585938 1.230000019073486 13.35999965667725
441.75 0.4199999868869781 11.85999965667725
440.8599853515625 0.2300000041723251 13.40999984741211
441.2300109863281 0.9200000166893005 12.59000015258789
442.0499877929688 0.4000000059604645 7.340000152587891
442.3200073242188 0.550000011920929 13.59000015258789
442.0400085449219 0.3899999856948853 6.039999961853027
442.0400085449219 0.3600000143051147 4.559999942779541
442.0599975585938 0.4600000083446503 8.569999694824219
442.0499877929688 0.3799999952316284 3.220000028610229
441.260009765625 0.2899999916553497 12.68000030517578
441.8299865722656 0.3199999928474426 2.170000076293945
442.2000122070312 0.5199999809265137 11.03999996185303
441.1499938964844 0.6600000262260437 13.5
441.989990234375 0.8799999952316284 12.57999992370605
442.3699951171875 0.9800000190734863 13.4399995803833
442.3599853515625 0.4099999964237213 3.849999904632568
442.3299865722656 0.2899999916553497 13.5600004196167
442.2999877929688 0.9800000190734863 9.109999656677246
441.6099853515625 0.1500000059604645 11.6899995803833
442.9400024414062 0.4199999868869781 13.5
442.1199951171875 0.3300000131130219 4.849999904632568
443.510009765625 0.5600000023841858 13.52999973297119
441.75 0.1299999952316284 13.5600004196167
442.1300048828125 0.3600000143051147 2.380000114440918
442.25 0.300000011920929 11.75
442.3800048828125 1.149999976158142 13.36999988555908
442.2699890136719 1.070000052452087 9.119999885559082
441.6799926757812 0.3799999952316284 13.52999973297119
442.260009765625 0.4900000095367432 13.47999954223633
442.8099975585938 0.6299999952316284 13.61999988555908
441.0400085449219 0.1599999964237213 11.75
441.989990234375 0.2800000011920929 2.140000104904175
441.6400146484375 0.3499999940395355 11.82999992370605
441.25 0.8700000047683716 13.40999984741211
442.7999877929688 0.6399999856948853 12.71000003814697
441.0700073242188 0.2300000041723251 13.53999996185303
443.3900146484375 0.8100000023841858 13.30000019073486
441.2699890136719 0.8899999856948853 13.4399995803833
441 0.8399999737739563 12.57999992370605
441.9100036621094 0.4900000095367432 13.60000038146973
442.3200073242188 0.6499999761581421 10.97999954223633
442.2099914550781 0.6200000047683716 12.8100004196167
442.4700012207031 0.6299999952316284 13.53999996185303
441.6600036621094 0.4699999988079071 12.8100004196167
442.3599853515625 0.699999988079071 9.210000038146973
442.1799926757812 0.7099999785423279 2.220000028610229
442.3800048828125 0.75 5
443.4299926757812 0.8799999952316284 12.69999980926514
442.5400085449219 1.190000057220459 13.34000015258789
442.510009765625 0.02999999932944775 13.53999996185303
443.1700134277344 0.2199999988079071 13.5
442.3999938964844 0.6899999976158142 7.03000020980835
443.2000122070312 0.2599999904632568 11.72999954223633
441.1799926757812 0.3400000035762787 13.52999973297119
442.6099853515625 0.119999997317791 11.80000019073486
443.8099975585938 0.4000000059604645 11.67000007629395
443.6600036621094 0.3199999928474426 13.23999977111816
441.2699890136719 0.7900000214576721 13.52000045776367
441.0899963378906 0.1700000017881393 13.52999973297119
442.4400024414062 0.5199999809265137 2.630000114440918
442.6099853515625 0.8899999856948853 9.050000190734863
441.2000122070312 0.5299999713897705 12.80000019073486
442.4800109863281 0.5099999904632568 4.460000038146973
442.5199890136719 0.5799999833106995 6.28000020980835
442.5499877929688 0.4399999976158142 11.34000015258789
441.9599914550781 0.5899999737739563 12.73999977111816
442.6099853515625 0.5600000023841858 13.31999969482422
443.3900146484375 0.7699999809265137 13.47000026702881
443.3099975585938 0.5299999713897705 12.72000026702881
443.2200012207031 0.2099999934434891 11.8100004196167
442.5299987792969 0.5199999809265137 9.699999809265137
441.4200134277344 0.4600000083446503 13.5600004196167
442 0.07999999821186066 11.72999954223633
442.0199890136719 0.2300000041723251 13.53999996185303
441.4299926757812 0.4099999964237213 12.82999992370605
442.1400146484375 0.6700000166893005 12.77999973297119
442.6499938964844 0.5299999713897705 13.52999973297119
443.1900024414062 0.1400000005960464 13.48999977111816
442.2699890136719 1.309999942779541 13.28999996185303
443.3200073242188 0.6700000166893005 13.57999992370605
443.4299926757812 1.240000009536743 13.22000026702881
443.3099975585938 0.6200000047683716 12.81999969482422
442.6400146484375 0.4799999892711639 12.8100004196167
441.0199890136719 0.3600000143051147 12.77000045776367
441.1400146484375 0.8999999761581421 13.39000034332275
441.6799926757812 0.550000011920929 13.51000022888184
442.3099975585938 0.8899999856948853 13.40999984741211
442.2699890136719 0.4000000059604645 4.03000020980835
442.1900024414062 0.3499999940395355 10.19999980926514
442.1499938964844 0.239999994635582 13.61999988555908
442.7699890136719 0.07000000029802322 13.51000022888184
442.239990234375 0.2199999988079071 2.160000085830688
443.5 0.3100000023841858 13.53999996185303
442.2699890136719 0.3899999856948853 6.96999979019165
442.2200012207031 0.4099999964237213 12.77000045776367
443.4800109863281 0.07000000029802322 11.71000003814697
443.5799865722656 0.5 12.76000022888184
441.6499938964844 0.3199999928474426 11.78999996185303
441.7900085449219 0.3700000047683716 11.85000038146973
442.3299865722656 0.4099999964237213 4.840000152587891
442.3699951171875 0.2599999904632568 12.30000019073486
442.2699890136719 0.2800000011920929 2.369999885559082
442.3699951171875 0.4099999964237213 6.239999771118164
442.3500061035156 0.4000000059604645 7.800000190734863
442.3999938964844 0.300000011920929 13.60000038146973
441.1400146484375 0.3700000047683716 12.67000007629395
442.3099975585938 0.3600000143051147 3.579999923706055
443.1600036621094 0.550000011920929 13.53999996185303
442.3699951171875 0.2599999904632568 10.88000011444092
441.0700073242188 0.1299999952316284 11.75
441.2200012207031 0.6600000262260437 13.48999977111816
441.7799987792969 0.1800000071525574 13.53999996185303
441.1799926757812 1.240000009536743 13.40999984741211
441.5 0.03999999910593033 13.57999992370605
442.0199890136719 0.3100000023841858 13.53999996185303
441.3900146484375 0.4300000071525574 12.88000011444092
441.9200134277344 0.3300000131130219 11.72000026702881
441.2200012207031 0.9399999976158142 12.5600004196167
442.260009765625 0.7200000286102295 6.349999904632568
441.8800048828125 0.6600000262260437 12.72000026702881
442.3800048828125 0.699999988079071 8.119999885559082
442.1600036621094 0.6100000143051147 2.710000038146973
442.489990234375 0.5699999928474426 11.35999965667725
443.2200012207031 0.8199999928474426 12.81999969482422
442.4500122070312 0.6200000047683716 9.670000076293945
443.2799987792969 0.4000000059604645 11.64999961853027
443.3800048828125 0.3700000047683716 13.47000026702881
442.2000122070312 0.7099999785423279 4.610000133514404
440.7999877929688 0.3199999928474426 13.46000003814697
442.6900024414062 0.1000000014901161 13.51000022888184
442.3900146484375 1.269999980926514 13.30000019073486
441.3500061035156 0.6499999761581421 13.52000045776367
442.5700073242188 0.4600000083446503 12.86999988555908
441.1400146484375 1.379999995231628 13.38000011444092
440.8099975585938 0.4300000071525574 12.67000007629395
441.3299865722656 0.7200000286102295 12.64000034332275
441.2900085449219 0.7799999713897705 13.53999996185303
442.0400085449219 0.6700000166893005 12.60999965667725
441.5400085449219 0.1400000005960464 11.75
441.4400024414062 0.25 13.48999977111816
442.1499938964844 0.1299999952316284 13.53999996185303
442.2900085449219 0.6499999761581421 5.380000114440918
443.3699951171875 0.3100000023841858 11.82999992370605
443.3200073242188 0.4000000059604645 12.78999996185303
442.6799926757812 0.6100000143051147 13.60999965667725
442.6799926757812 0.550000011920929 12.78999996185303
442.1700134277344 0.4699999988079071 10.22000026702881
443.260009765625 0.4399999976158142 13.53999996185303
441.3200073242188 0.6200000047683716 13.51000022888184
441.1499938964844 1.210000038146973 13.40999984741211
442.4400024414062 0.5600000023841858 5.46999979019165
442.3999938964844 1.019999980926514 9.069999694824219
441.9599914550781 0.5199999809265137 12.77000045776367
442.5599975585938 0.7300000190734863 13.55000019073486
442.7000122070312 0.1500000059604645 13.5
443.2900085449219 0.3600000143051147 11.77000045776367
441.3500061035156 0.3600000143051147 11.77999973297119
442.0599975585938 0.3600000143051147 13.61999988555908
442.0700073242188 0.119999997317791 11.67000007629395
443.2699890136719 0.550000011920929 13.46000003814697
442.3900146484375 1.370000004768372 13.27000045776367
442.4400024414062 0.4000000059604645 3.410000085830688
441.510009765625 0.2199999988079071 11.75
441.3200073242188 0.7900000214576721 13.43000030517578
441.4800109863281 0.07999999821186066 13.52000045776367
442.1799926757812 0.2599999904632568 8.210000038146973
442.239990234375 0.3300000131130219 5.260000228881836
442.1700134277344 0.3799999952316284 6.659999847412109
442.7999877929688 0.1000000014901161 11.6899995803833
442.2099914550781 0.1700000017881393 9.810000419616699
442.2900085449219 0.2300000041723251 2.480000019073486
443.4200134277344 0.2700000107288361 11.77000045776367
442.6300048828125 0.5899999737739563 13.56999969482422
443.3900146484375 0.2199999988079071 13.47999954223633
442.1099853515625 0.4300000071525574 13.53999996185303
442.1600036621094 0.119999997317791 12.76000022888184
442.260009765625 0.3700000047683716 3.75
