203.7400054931641 260.489990234375 15.75
203.4400024414062 259.7900085449219 17.25
202.9100036621094 259.9500122070312 15.15999984741211
203.0200042724609 259.9400024414062 13.22000026702881
203.0500030517578 259.9299926757812 16.61000061035156
203.0500030517578 259.3299865722656 5.130000114440918
202.9799957275391 259.3399963378906 7.079999923706055
202.9100036621094 259.260009765625 15.89000034332275
202.9700012207031 259.3200073242188 8.989999771118164
202.3500061035156 259.4100036621094 15.73999977111816
204.8500061035156 260 15.6899995803833
202.6999969482422 259.7799987792969 15.73999977111816
202.8600006103516 259.7200012207031 13.64999961853027
202.9799957275391 259.6600036621094 12.10999965667725
203.6999969482422 259.5199890136719 17.22999954223633
202.8899993896484 259.0299987792969 15.88000011444092
202.3699951171875 259.1799926757812 15.77999973297119
204.1300048828125 258.0899963378906 15.73999977111816
204.7100067138672 257.7099914550781 15.69999980926514
203.2100067138672 258.7900085449219 15.85000038146973
202.9100036621094 259.5400085449219 15.72000026702881
204.3300018310547 259.1700134277344 17.17000007629395
203.2200012207031 259.5499877929688 11.46000003814697
203.3500061035156 259.510009765625 9.039999961853027
203.4700012207031 259.5400085449219 6.650000095367432
203.3500061035156 259.989990234375 16.81999969482422
205.5500030517578 259.4599914550781 15.60999965667725
203.8200073242188 260.5700073242188 15.67000007629395
203.8300018310547 260.8200073242188 15.78999996185303
203.8699951171875 260.25 15.64000034332275
203.3300018310547 259.739990234375 14.30000019073486
203.2400054931641 259.7799987792969 17.1299991607666
203.2200012207031 259.7699890136719 15.72000026702881
203.3099975585938 259.7200012207031 12.9399995803833
203.3800048828125 259.6600036621094 8.710000038146973
203.3200073242188 259.7000122070312 10.18000030517578
203.3699951171875 259.6600036621094 7.289999961853027
202.6199951171875 259.3200073242188 15.88000011444092
203.3699951171875 259.6900024414062 11.60000038146973
203.3099975585938 259 4.050000190734863
203.3000030517578 259.0299987792969 5.519999980926514
203.2700042724609 259.0799865722656 6.940000057220459
202.9600067138672 259.1300048828125 15.77999973297119
203.1000061035156 259.0199890136719 4.949999809265137
204.9700012207031 259.6099853515625 15.60999965667725
203.0599975585938 259.0400085449219 6.789999961853027
202.8899993896484 259.9500122070312 16.47999954223633
203.2599945068359 260.010009765625 17.20999908447266
202.9100036621094 259.8999938964844 14.84000015258789
202.8899993896484 259.8800048828125 13.02000045776367
202.8899993896484 259.8699951171875 11.28999996185303
203.2899932861328 260.7000122070312 15.67000007629395
202.9499969482422 261.2200012207031 15.77000045776367
202.1499938964844 260.6700134277344 17.15999984741211
203.3600006103516 260.9700012207031 15.71000003814697
203.5800018310547 260.3699951171875 15.68000030517578
202.8699951171875 260.1799926757812 17.04999923706055
204.1000061035156 260.4800109863281 15.75
203.0500030517578 259.5499877929688 10.34000015258789
202.6100006103516 259.3699951171875 15.77999973297119
203.6000061035156 259.5799865722656 17.20999908447266
204.8399963378906 259.9400024414062 15.63000011444092
203.1399993896484 259.5 15.71000003814697
205.5599975585938 259.4599914550781 15.63000011444092
204.9499969482422 258.760009765625 17.1299991607666
204.1199951171875 257.9800109863281 15.73999977111816
205.1199951171875 258.5799865722656 17.15999984741211
203.6300048828125 258.1600036621094 15.82999992370605
205.5 259.4100036621094 15.63000011444092
203.1699981689453 258.8099975585938 15.72999954223633
203.8200073242188 258.8999938964844 10.13000011444092
203.2899932861328 259.5199890136719 12.57999992370605
203.3500061035156 259.4299926757812 6.78000020980835
203.3500061035156 259.3999938964844 4.079999923706055
203.3200073242188 259.4599914550781 9.810000419616699
203.5399932861328 259.6199951171875 17.25
202.1600036621094 259.2999877929688 15.89000034332275
202.6799926757812 259.4200134277344 15.77000045776367
203.0200042724609 260.1700134277344 16.56999969482422
204.0599975585938 260.4100036621094 15.72000026702881
203.4600067138672 260.2799987792969 15.72999954223633
202.0500030517578 260.6700134277344 17.1299991607666
202.4900054931641 261.5599975585938 15.64999961853027
202.9900054931641 261.1000061035156 15.6899995803833
203.8699951171875 260.6600036621094 15.68000030517578
203.3000030517578 259.9200134277344 16.79999923706055
203.2599945068359 259.9400024414062 15.47000026702881
203.2599945068359 259.9299926757812 13.93000030517578
203.1999969482422 259.9299926757812 12.40999984741211
203.0399932861328 259.1900024414062 15.71000003814697
205.1100006103516 259.7099914550781 15.64999961853027
203.2400054931641 259.3099975585938 10.21000003814697
203.3699951171875 259.3699951171875 7.53000020980835
203.4199981689453 259.4299926757812 4.71999979019165
203.3300018310547 259.3500061035156 8.909999847412109
203.3500061035156 259.3900146484375 6.159999847412109
206.0200042724609 259.1499938964844 15.64999961853027
202.8699951171875 259.8900146484375 12.10000038146973
202.9499969482422 259.7099914550781 7.210000038146973
202.9100036621094 259.8299865722656 10.51000022888184
202.6799926757812 259.4400024414062 15.75
203.2599945068359 259.8500061035156 17.20000076293945
203.3699951171875 259.7999877929688 12.55000019073486
203.3200073242188 259.8900146484375 14.1899995803833
203.3999938964844 259.4800109863281 7.119999885559082
203.3999938964844 259.510009765625 5.699999809265137
203.3899993896484 259.760009765625 10.94999980926514
203.3999938964844 259.6400146484375 9.140000343322754
203.4600067138672 260.5199890136719 15.65999984741211
202.0899963378906 260.6099853515625 17.22999954223633
202.6900024414062 260.3500061035156 17.14999961853027
203.3000030517578 260.2000122070312 15.64999961853027
203.1900024414062 259.8099975585938 9.949999809265137
203.4799957275391 260.7900085449219 15.6899995803833
203.1199951171875 259.5899963378906 8.729999542236328
203.2700042724609 259.8900146484375 16.96999931335449
203.2100067138672 259.9100036621094 13.94999980926514
204.0099945068359 260.3299865722656 15.60000038146973
203.8000030517578 259.5 17.29999923706055
205.6499938964844 259.239990234375 15.60000038146973
202.6999969482422 259.5700073242188 15.75
203.2200012207031 258.7000122070312 15.8100004196167
203.6300048828125 260.4599914550781 15.71000003814697
204.0599975585938 259.3999938964844 17.19000053405762
205.1199951171875 258.8399963378906 17.1299991607666
203.0299987792969 260.0899963378906 16.79000091552734
202.9700012207031 259.75 14.44999980926514
202.9400024414062 259.5899963378906 13.22999954223633
202.8500061035156 259.25 15.75
202.9600067138672 259.4700012207031 10.25
202.9299926757812 259.4500122070312 8.75
202.9199981689453 259.2799987792969 7.369999885559082
202.9199981689453 259.1000061035156 4.599999904632568
202.9600067138672 259.2999877929688 5.760000228881836
202.9499969482422 259.5899963378906 11.72000026702881
203.7899932861328 260.75 15.72000026702881
203.2899932861328 260.2000122070312 15.60999965667725
203.2700042724609 260.0700073242188 16.86000061035156
203.1699981689453 259.7099914550781 7.96999979019165
203.2599945068359 259.6199951171875 6.25
203.3699951171875 259.5199890136719 4.5
202.8899993896484 259.8999938964844 12.89999961853027
203.0500030517578 259.8399963378906 9.680000305175781
202.8399963378906 259.8900146484375 14.47999954223633
202.2700042724609 259.2799987792969 15.76000022888184
202.8600006103516 259.3200073242188 15.78999996185303
203.0299987792969 258.7799987792969 15.75
203.4499969482422 260.0400085449219 17.03000068664551
203.25 259.6199951171875 7.380000114440918
203.1600036621094 260.9700012207031 15.68000030517578
203.2599945068359 259.3200073242188 5.730000019073486
203.2799987792969 260.4100036621094 15.65999984741211
204.4900054931641 258.9500122070312 17.13999938964844
204.5899963378906 258.989990234375 17.18000030517578
203.7700042724609 260.3999938964844 15.67000007629395
203.2299957275391 259.8299865722656 16.86000061035156
202.4400024414062 260.4500122070312 17.1200008392334
203.0500030517578 259.2799987792969 7.559999942779541
202.8699951171875 258.8999938964844 15.8100004196167
202.7299957275391 259.4700012207031 15.73999977111816
203.2200012207031 259.0599975585938 4.550000190734863
202.8800048828125 259.5 10.47999954223633
202.9900054931641 259.1099853515625 5.96999979019165
202.9900054931641 259.2099914550781 7.449999809265137
203 259.260009765625 8.859999656677246
202.9900054931641 259.7300109863281 16.07999992370605
203 259 4.639999866485596
203 259.5499877929688 13.19999980926514
203.0399932861328 259.3500061035156 10.27000045776367
203.0200042724609 259.4500122070312 11.75
202.9900054931641 259.6300048828125 14.59000015258789
203.5299987792969 260.2699890136719 15.6899995803833
205.3500061035156 258.489990234375 17.09000015258789
