104.1500015258789 327.5700073242188 16.20000076293945
103.9800033569336 326.9500122070312 5.070000171661377
103.620002746582 326.9700012207031 14.8100004196167
104.1999969482422 326.7900085449219 14.97000026702881
103.9800033569336 326.9700012207031 7.090000152587891
104.0999984741211 326.8699951171875 11.0600004196167
104.0800018310547 326.9299926757812 9.039999961853027
107.2300033569336 325.3599853515625 16.21999931335449
105 328.0700073242188 14.90999984741211
106.379997253418 327.0199890136719 14.80000019073486
104.5599975585938 326.0199890136719 14.9399995803833
105.5800018310547 325.2300109863281 15.05000019073486
104.8300018310547 327.8500061035156 14.88000011444092
105.4400024414062 327.7200012207031 14.77000045776367
104.9100036621094 327.2200012207031 15.8100004196167
106.5999984741211 326.7799987792969 14.84000015258789
104.3499984741211 327.3900146484375 15.82999992370605
102.7699966430664 327.0700073242188 14.85999965667725
103.4000015258789 326.9100036621094 14.90999984741211
106.1500015258789 326.2099914550781 16.25
103.8899993896484 326.7999877929688 14.89000034332275
104.5599975585938 325.8900146484375 14.90999984741211
105.7799987792969 324.9599914550781 14.88000011444092
106.4100036621094 324.7999877929688 14.89000034332275
105.9499969482422 325.0599975585938 14.92000007629395
104.2799987792969 326.2699890136719 14.92000007629395
107.1100006103516 325.510009765625 16.23999977111816
103.7200012207031 326.3800048828125 15.01000022888184
104.3199996948242 327.010009765625 11.42000007629395
105.6500015258789 326.5899963378906 16.36000061035156
104.370002746582 327.010009765625 9.600000381469727
104 327.0199890136719 14.85999965667725
104.4100036621094 327.0299987792969 7.429999828338623
107.6399993896484 326.1000061035156 14.82999992370605
104.870002746582 328.0400085449219 14.85999965667725
104.4100036621094 327.5299987792969 15.8100004196167
106.5599975585938 326.9800109863281 14.6899995803833
103.9000015258789 327.6099853515625 16.42000007629395
104.6500015258789 327.4599914550781 14.64999961853027
104.4700012207031 327.5799865722656 14.96000003814697
104.2799987792969 326.7699890136719 4.769999980926514
104.2300033569336 326.8699951171875 11.72000026702881
104.2900009155273 326.7799987792969 7.489999771118164
103.9199981689453 326.9800109863281 15.03999996185303
104.2900009155273 326.7999877929688 6.190000057220459
104.2200012207031 326.8299865722656 8.880000114440918
104.4899978637695 328.3299865722656 14.85000038146973
104.2200012207031 327.489990234375 15.93000030517578
105.0899963378906 327.6700134277344 14.93000030517578
103.879997253418 326.7699890136719 14.85999965667725
103.9899978637695 326.6600036621094 5.980000019073486
104.0899963378906 326.760009765625 9.609999656677246
104.0699996948242 326.7099914550781 7.760000228881836
103.9100036621094 326.6199951171875 4.25
104.8899993896484 325.7999877929688 14.93000030517578
105.5999984741211 325.2000122070312 14.80000019073486
103.75 328.6700134277344 14.86999988555908
103.6600036621094 327.8800048828125 16.39999961853027
104.7799987792969 328.1700134277344 14.84000015258789
102.8499984741211 327.0499877929688 14.90999984741211
104.0299987792969 327.3200073242188 15.84000015258789
104.5500030517578 327.4299926757812 15.81999969482422
104.5299987792969 327.4400024414062 14.77000045776367
106.0899963378906 327.1700134277344 14.84000015258789
104.9899978637695 326.9100036621094 16.35000038146973
103.8600006103516 326.6499938964844 14.90999984741211
104.3499984741211 326.0400085449219 14.9399995803833
106.4800033569336 325.75 16.20000076293945
107.629997253418 326.0400085449219 14.72999954223633
106.7099990844727 324.489990234375 14.85000038146973
104.3300018310547 327.5499877929688 15.72000026702881
104.7099990844727 327.6300048828125 14.80000019073486
105.3600006103516 327.7999877929688 14.89000034332275
102.879997253418 327.1799926757812 14.81999969482422
104.2600021362305 326.6900024414062 5.300000190734863
103.75 326.6799926757812 14.94999980926514
104.3399963378906 326.7099914550781 7.820000171661377
104.7600021362305 326.9100036621094 16.35000038146973
105.7699966430664 326.5499877929688 16.39999961853027
106.5500030517578 326.7099914550781 14.88000011444092
104.1600036621094 326.1400146484375 15.03999996185303
106.129997253418 326.0400085449219 16.42000007629395
106.9000015258789 325.5799865722656 16.26000022888184
106.1900024414062 324.6499938964844 14.89000034332275
104.4000015258789 326.7699890136719 8.659999847412109
104.2799987792969 326.8099975585938 4.300000190734863
104.3199996948242 326.7999877929688 7.170000076293945
104.2900009155273 326.7900085449219 5.650000095367432
107.620002746582 326.1600036621094 14.72000026702881
107.370002746582 325.3900146484375 16.25
106.1600036621094 326.2099914550781 16.27000045776367
106.4300003051758 327 14.82999992370605
105.8399963378906 327.3500061035156 14.77000045776367
105.3399963378906 325.4299926757812 14.85000038146973
104.9199981689453 325.8299865722656 15
104.6500015258789 327.4100036621094 14.88000011444092
104.8300018310547 328.0400085449219 14.90999984741211
104.0899963378906 327.010009765625 4.480000019073486
104.0699996948242 327.0899963378906 6.289999961853027
104.0100021362305 327.2900085449219 10.25
103.7300033569336 326.6099853515625 15.01000022888184
104.0500030517578 327.2000122070312 8.260000228881836
103.1500015258789 327.0199890136719 14.89999961853027
103.8399963378906 327.7799987792969 16.38999938964844
104.6900024414062 328.260009765625 14.89000034332275
104.4199981689453 327.239990234375 15.85000038146973
104.5299987792969 327.6600036621094 14.84000015258789
105.6800003051758 327.4100036621094 14.85000038146973
106.2699966430664 327.1099853515625 14.82999992370605
106.8499984741211 326.6300048828125 14.82999992370605
107.4199981689453 326.1700134277344 14.76000022888184
105.3600006103516 325.489990234375 14.90999984741211
104.6999969482422 327.5899963378906 14.8100004196167
104.8499984741211 328.1900024414062 14.89000034332275
103.9499969482422 326.6400146484375 4.260000228881836
103.8000030517578 326.6300048828125 14.96000003814697
103.9499969482422 327.0499877929688 9.199999809265137
104.0400009155273 327.6300048828125 16.35000038146973
103.9599990844727 326.8699951171875 6.699999809265137
103.8399963378906 326.8699951171875 14.85000038146973
104.0699996948242 327.6799926757812 16.34000015258789
103.7699966430664 326.739990234375 4.809999942779541
105.4899978637695 327.489990234375 14.85000038146973
104.8600006103516 327.8500061035156 14.85999965667725
105.6500015258789 326.5299987792969 16.18000030517578
104.5599975585938 328.1700134277344 14.77999973297119
103.8300018310547 327.6300048828125 16.27000045776367
104.2200012207031 327.2099914550781 8.760000228881836
104.0100021362305 327.0899963378906 14.80000019073486
104.0999984741211 327.2999877929688 12.14999961853027
104.0199966430664 327.2999877929688 13.76000022888184
103.7900009155273 326.8900146484375 4.889999866485596
103.370002746582 326.8699951171875 14.90999984741211
106.5800018310547 325.8099975585938 16.28000068664551
106.2300033569336 324.6499938964844 14.85000038146973
104.8199996948242 327.6199951171875 14.88000011444092
105.379997253418 325.3699951171875 14.88000011444092
104.7099990844727 328.2300109863281 14.85999965667725
104.4899978637695 326.1000061035156 14.97000026702881
104.1999969482422 327.3200073242188 15.82999992370605
103.6500015258789 326.6700134277344 14.92000007629395
106.879997253418 326.6300048828125 14.85000038146973
106.0699996948242 327.0499877929688 14.6899995803833
105.2799987792969 327.6400146484375 14.77999973297119
104.6600036621094 328.1300048828125 14.89000034332275
103.9599990844727 328.5899963378906 14.82999992370605
104.3499984741211 327.1000061035156 13.31999969482422
104.2099990844727 327.2699890136719 15.73999977111816
103.9700012207031 326.760009765625 7.110000133514404
103.7300033569336 326.6300048828125 14.94999980926514
104.0999984741211 326.5899963378906 4.650000095367432
103.8899993896484 326.7300109863281 7.050000190734863
103.9000015258789 326.6600036621094 5.650000095367432
103.879997253418 326.5400085449219 4.28000020980835
103.8600006103516 326.8200073242188 8.460000038146973
104.0299987792969 326.6000061035156 14.85000038146973
104.5100021362305 327.0599975585938 10.36999988555908
104.5500030517578 327.1900024414062 13.25
104.5199966430664 327.0899963378906 11.84000015258789
104.5100021362305 327.25 14.59000015258789
104.5500030517578 327.3500061035156 15.92000007629395
104.379997253418 327.8099975585938 14.86999988555908
106.25 326.010009765625 16.35000038146973
