53.34000015258789 360.7999877929688 3.630000114440918
54.22999954223633 361.8800048828125 15.94999980926514
53.52999877929688 361.4400024414062 11.02000045776367
53.4900016784668 361.510009765625 13.78999996185303
53.52000045776367 361.4700012207031 12.35999965667725
53.43999862670898 361.4700012207031 9.670000076293945
55.25 363.8599853515625 4.760000228881836
54.56999969482422 359.4500122070312 16.40999984741211
53.56000137329102 361.2000122070312 6.5
54.52999877929688 360.8699951171875 17.15999984741211
53.65999984741211 361.1099853515625 13.22000026702881
53.59999847412109 361.1600036621094 10.98999977111816
53.54000091552734 361.1799926757812 8.840000152587891
54.68999862670898 362.2000122070312 16.45000076293945
54.84999847412109 362.2000122070312 15.89000034332275
54.45000076293945 359.4400024414062 16.45000076293945
54.88999938964844 360.6799926757812 17.17000007629395
53.68000030517578 360.9599914550781 15.96000003814697
54.16999816894531 361.5499877929688 15.92000007629395
55.13000106811523 361.989990234375 16.28000068664551
54.47999954223633 362.1499938964844 15.9399995803833
53.81999969482422 360.9299926757812 7
53.70999908447266 360.9200134277344 8.699999809265137
53.84999847412109 360.9400024414062 5.28000020980835
54.13000106811523 361.4100036621094 16.95000076293945
53.9900016784668 361.5 14.53999996185303
54.38000106811523 361.3500061035156 15.93000030517578
54.61000061035156 361.9100036621094 15.88000011444092
54.86000061035156 362.6600036621094 9.319999694824219
55.40000152587891 363.3399963378906 5.920000076293945
53.58000183105469 361.1000061035156 13.71000003814697
53.70000076293945 361.1199951171875 14.9399995803833
53.97999954223633 361.1600036621094 17.17000007629395
53.75 361.1099853515625 16.22999954223633
54.70999908447266 362.0499877929688 16.43000030517578
54.2599983215332 361.9700012207031 15.86999988555908
53.5099983215332 361.1199951171875 11.11999988555908
53.5 361.1700134277344 9.779999732971191
53.58000183105469 361.1499938964844 12.39999961853027
53.43999862670898 361.1499938964844 8.340000152587891
53.36000061035156 361.1799926757812 7.190000057220459
54.70000076293945 360.7699890136719 17.13999938964844
55.56999969482422 361.6099853515625 16.29000091552734
53.66999816894531 361.0700073242188 12.11999988555908
53.59000015258789 361.0299987792969 10.0600004196167
53.70000076293945 361.0899963378906 14.1899995803833
53.84999847412109 361.1600036621094 16.10000038146973
53.52999877929688 360.9700012207031 7.840000152587891
54.09000015258789 361.2699890136719 17.26000022888184
53.45000076293945 360.9200134277344 5.519999980926514
54.56999969482422 362.010009765625 15.97000026702881
55.43000030517578 363.989990234375 4.760000228881836
54.56000137329102 362.4100036621094 16.26000022888184
54.95000076293945 362.6099853515625 9.289999961853027
54.40999984741211 361.6900024414062 15.90999984741211
54.38000106811523 361.0400085449219 17.1200008392334
53.72999954223633 360.8999938964844 15.93000030517578
54.11000061035156 359.6300048828125 16.51000022888184
55.58000183105469 360.3399963378906 17.01000022888184
54.79000091552734 360.7699890136719 17.07999992370605
53.81999969482422 361.0199890136719 4.369999885559082
53.93000030517578 361.1499938964844 12.94999980926514
53.88999938964844 361.1099853515625 8.489999771118164
53.88000106811523 361.2099914550781 14.75
53.88999938964844 361.0700073242188 6.489999771118164
53.97000122070312 361.239990234375 17.04000091552734
53.86999893188477 361.1199951171875 10.56999969482422
55.65000152587891 361.6400146484375 16.36000061035156
54.2599983215332 361.2799987792969 15.89999961853027
54.68999862670898 362.1499938964844 16.01000022888184
54.31000137329102 362.0299987792969 12.90999984741211
54.93000030517578 362.8099975585938 9.140000343322754
55.59999847412109 360.3200073242188 17.05999946594238
55.31000137329102 363.6499938964844 4.699999809265137
55.13999938964844 363.2200012207031 6.949999809265137
54.65999984741211 362.1400146484375 16.27000045776367
54.43000030517578 361.1600036621094 17.02000045776367
53.5 360.1799926757812 16.39999961853027
53.66999816894531 360.7200012207031 16.04000091552734
53.93999862670898 361.3599853515625 11.02000045776367
53.90999984741211 361.4299926757812 12.85000038146973
53.93999862670898 361.260009765625 8.909999847412109
53.84999847412109 361.489990234375 14.6899995803833
53.40000152587891 361.3200073242188 7.880000114440918
53.45999908447266 361.2900085449219 5.869999885559082
53.47999954223633 361.1799926757812 3.849999904632568
53.79000091552734 360.8800048828125 15.94999980926514
53.90999984741211 361.4500122070312 15.9399995803833
54.90999984741211 362.7000122070312 9.279999732971191
54.79000091552734 362.1700134277344 16.02000045776367
55.29000091552734 361.8299865722656 16.34000015258789
55.36000061035156 361.8500061035156 16.31999969482422
54.9900016784668 360.5199890136719 17.11000061035156
54.75 359.4200134277344 16.48999977111816
54.15999984741211 359.7900085449219 16.51000022888184
55.34000015258789 363.7200012207031 4.75
54.02000045776367 361.1900024414062 15.9399995803833
53.97999954223633 361.010009765625 16.98999977111816
54.15000152587891 361.7999877929688 15.94999980926514
53.4900016784668 360.989990234375 6.079999923706055
53.52000045776367 361.0799865722656 8.279999732971191
53.4900016784668 361.2099914550781 10.6899995803833
53.52000045776367 360.7900085449219 4.46999979019165
53.52000045776367 360.7999877929688 5.800000190734863
53.40000152587891 360.1600036621094 15.97000026702881
53.59999847412109 361.0199890136719 11.21000003814697
53.61999893188477 361.1199951171875 13.9399995803833
53.54000091552734 360.9100036621094 8.609999656677246
53.54000091552734 360.8699951171875 7.199999809265137
53.56000137329102 360.8500061035156 16.04999923706055
53.56000137329102 360.989990234375 9.930000305175781
53.65000152587891 361.1499938964844 15.44999980926514
54.59999847412109 361.9500122070312 15.9399995803833
55.36000061035156 363.5599975585938 4.800000190734863
55.36000061035156 363.3299865722656 6.21999979019165
54.47999954223633 362.6499938964844 15.96000003814697
54.66999816894531 361.989990234375 16.02000045776367
54.72999954223633 362.739990234375 9.229999542236328
54.15999984741211 361.489990234375 16
54.11999893188477 361.3200073242188 17.20000076293945
53.52999877929688 361.4400024414062 13.64000034332275
53.61000061035156 360.9400024414062 15.94999980926514
53.79000091552734 361.3200073242188 8.149999618530273
53.63000106811523 361.3999938964844 11.85000038146973
53.70999908447266 361.3500061035156 10.06999969482422
53.84999847412109 361.2699890136719 6.320000171661377
53.43000030517578 360.4599914550781 15.98999977111816
54.27000045776367 359.5799865722656 16.5
53.63999938964844 361.2200012207031 9.979999542236328
53.84000015258789 361.1799926757812 15.85000038146973
53.63000106811523 361.0899963378906 8.729999542236328
54.27000045776367 361.8200073242188 13.13000011444092
54.29000091552734 362.0700073242188 15.89000034332275
55.18000030517578 361.8200073242188 16.5
55.29999923706055 363.010009765625 7.170000076293945
55.90000152587891 361.3699951171875 16.40999984741211
55.13000106811523 363.7900085449219 4.670000076293945
55.52999877929688 360.3099975585938 17.14999961853027
54.38999938964844 361.989990234375 15.89999961853027
53.9900016784668 361.0400085449219 15.89999961853027
53.52999877929688 361.1300048828125 10.80000019073486
53.68000030517578 360.9500122070312 8.439999580383301
53.79000091552734 360.8500061035156 5.829999923706055
56.0099983215332 361.2300109863281 16.44000053405762
54.5099983215332 362.260009765625 16.07999992370605
54.06000137329102 360.9700012207031 6.460000038146973
54.06999969482422 361.2799987792969 13.1899995803833
54.11999893188477 361.2799987792969 14.67000007629395
54.09999847412109 361.3999938964844 15.92000007629395
54.06000137329102 361.1799926757812 10.53999996185303
53.61000061035156 360.3999938964844 15.92000007629395
