441.8599853515625 51.2599983215332 13.44999980926514
440.9100036621094 52.72000122070312 13.56999969482422
441.7099914550781 51.36999893188477 5.53000020980835
441.7900085449219 51.2599983215332 12.15999984741211
441.7000122070312 51.34999847412109 8.229999542236328
441.7799987792969 51.29999923706055 9.510000228881836
441.1199951171875 51.43999862670898 13.3100004196167
441.760009765625 51.29000091552734 10.89999961853027
441.7000122070312 51.34000015258789 6.940000057220459
441.7099914550781 51.47000122070312 6.260000228881836
441.8299865722656 51.4900016784668 10.55000019073486
441.7900085449219 51.45000076293945 8.300000190734863
442.4100036621094 51.38999938964844 13.31999969482422
441.7799987792969 51.52000045776367 13.28999996185303
441.0199890136719 51.59000015258789 13.38000011444092
441.6000061035156 51.43999862670898 13.30000019073486
442.2099914550781 51.29999923706055 13.31999969482422
442.4700012207031 51.36000061035156 13.30000019073486
442.010009765625 51.5 11.73999977111816
442.0499877929688 51.43000030517578 10.02000045776367
441.8800048828125 51.5099983215332 13.39999961853027
442.0199890136719 51.41999816894531 7.650000095367432
441.9500122070312 51.40000152587891 5.429999828338623
440.9500122070312 51.06999969482422 13.47000026702881
441.739990234375 51.38000106811523 13.25
442.4599914550781 51.52000045776367 13.31999969482422
440.8599853515625 51.13999938964844 13.34000015258789
441.75 51.34000015258789 9.109999656677246
441.75 51.2599983215332 6.579999923706055
441.739990234375 51.29000091552734 7.809999942779541
441.6900024414062 51.34999847412109 11.80000019073486
442.8699951171875 52.31999969482422 13.5
441.7900085449219 51.47999954223633 5.809999942779541
441.7200012207031 51.38000106811523 10.81999969482422
442.7900085449219 51.61000061035156 13.40999984741211
441.7699890136719 51.41999816894531 8.229999542236328
441.9200134277344 51.47000122070312 10.10000038146973
441.7200012207031 51.34999847412109 13.14000034332275
441.0700073242188 51.20000076293945 13.39000034332275
442.25 51.47000122070312 13.30000019073486
441.7799987792969 49.52000045776367 10.36999988555908
441 48.56000137329102 13.34000015258789
441.8800048828125 52.34999847412109 13.73999977111816
441.6400146484375 51.59000015258789 13.31999969482422
441.0899963378906 51.45000076293945 13.35999965667725
442.8099975585938 51.90999984741211 13.52000045776367
441.989990234375 50.88999938964844 8.729999542236328
442.7099914550781 51.09999847412109 13.43000030517578
441.8699951171875 49.58000183105469 13.67000007629395
442.9200134277344 48.40000152587891 13.17000007629395
440.9400024414062 46.70999908447266 13.11999988555908
440.9800109863281 52.40000152587891 13.5
442.3900146484375 51.5099983215332 13.31999969482422
441.9800109863281 51.5 9.939999580383301
441.8099975585938 51.38000106811523 13.39000034332275
441.1099853515625 51.22000122070312 13.27999973297119
441.9700012207031 51.5099983215332 5.860000133514404
442.010009765625 51.47999954223633 7.940000057220459
441.9299926757812 51.41999816894531 11.85000038146973
442.8900146484375 51.11999893188477 13.42000007629395
441.0199890136719 48.68000030517578 13.21000003814697
441.9800109863281 47.7599983215332 13.39999961853027
441.8800048828125 47.06000137329102 13.40999984741211
440.9800109863281 51.43000030517578 13.36999988555908
441.7699890136719 51.75 13.3100004196167
441.6700134277344 51.43000030517578 12.30000019073486
442.4700012207031 51.34999847412109 13.35999965667725
440.989990234375 51.61999893188477 13.36999988555908
441.6199951171875 51.31999969482422 13.28999996185303
441.75 51.56999969482422 5.659999847412109
441.0299987792969 49 13.25
441.8699951171875 49.70999908447266 10.46000003814697
442.2900085449219 51.5 13.3100004196167
441.8699951171875 49.88000106811523 13.64999961853027
442.8099975585938 51.31000137329102 13.39999961853027
441.5599975585938 51.63000106811523 13.36999988555908
442.0899963378906 51.34999847412109 13.28999996185303
442.1000061035156 51.20000076293945 9.149999618530273
442.0499877929688 51.13999938964844 11.86999988555908
441.9200134277344 50.68000030517578 13.73999977111816
441.989990234375 48.2599983215332 13.52000045776367
442.7200012207031 51.27999877929688 13.34000015258789
441.2300109863281 51.5099983215332 13.42000007629395
441.8599853515625 51.20000076293945 11.47999954223633
441.8599853515625 51.20000076293945 12.85999965667725
441.7999877929688 51.34000015258789 7.179999828338623
441.7999877929688 51.34000015258789 5.730000019073486
441.8599853515625 51.27999877929688 9.989999771118164
441.9100036621094 51.45999908447266 11.56999969482422
441.739990234375 51.54999923706055 7.78000020980835
441.8500061035156 51.43999862670898 9.609999656677246
442.010009765625 51.41999816894531 13.3100004196167
441.6700134277344 51.56000137329102 6
441.9100036621094 46.61999893188477 13.27999973297119
441.3299865722656 51.54999923706055 13.27999973297119
441.8999938964844 49.27000045776367 13.6899995803833
441.8099975585938 52.56000137329102 13.73999977111816
442.1300048828125 51.36000061035156 13.3100004196167
442.7900085449219 48.59999847412109 13.15999984741211
442.7699890136719 51.2599983215332 13.39000034332275
440.9100036621094 48.33000183105469 13.18000030517578
441.3999938964844 51.40000152587891 13.30000019073486
441.8699951171875 49.4900016784668 13.75
442.1900024414062 51.27000045776367 13.22999954223633
442.0299987792969 51.38000106811523 7.909999847412109
442.7799987792969 51.54000091552734 13.40999984741211
441.4200134277344 51.36000061035156 13.28999996185303
442.1300048828125 51.22000122070312 13.09000015258789
442.2200012207031 51.18000030517578 8.880000114440918
442.1600036621094 51.2400016784668 10.25
442.8999938964844 51.34999847412109 13.38000011444092
