481.7999877929688 199 6.860000133514404
482.0599975585938 198.8999938964844 7.800000190734863
482.4800109863281 198.8099975585938 8.689999580383301
481.8399963378906 199.6300048828125 7.760000228881836
482.4599914550781 199.4799957275391 7.820000171661377
481.0400085449219 199.8099975585938 10.02000045776367
483.6199951171875 199.1799926757812 8.239999771118164
483.1499938964844 199.3099975585938 7.800000190734863
481.9200134277344 199.5899963378906 9.229999542236328
482.760009765625 199.3800048828125 8.859999656677246
481.2799987792969 200.4499969482422 7.019999980926514
481.8599853515625 200.2899932861328 7.099999904632568
481.1300048828125 200.4299926757812 9.229999542236328
482.4800109863281 200.1499938964844 7.230000019073486
482.6099853515625 200.0700073242188 10.60999965667725
482.989990234375 199.9900054931641 7.769999980926514
481.9700012207031 200.1999969482422 10.63000011444092
480.5400085449219 201.1100006103516 10.01000022888184
481.2200012207031 200.9400024414062 9.960000038146973
482.6799926757812 200.5899963378906 9.539999961853027
483.0799865722656 200.5 8.399999618530273
481.9400024414062 200.8099975585938 7.929999828338623
480.8599853515625 201.0399932861328 9.180000305175781
481.8900146484375 200.8300018310547 6.349999904632568
483.9200134277344 200.2700042724609 9.619999885559082
483.510009765625 200.3899993896484 9
482.0299987792969 200.7799987792969 9.539999961853027
482.2099914550781 200.6799926757812 10.78999996185303
481.4599914550781 201.5899963378906 6.829999923706055
482.1300048828125 201.3899993896484 8.510000228881836
482.6099853515625 201.2599945068359 9.060000419616699
482.0799865722656 201.3899993896484 10.46000003814697
482.3399963378906 201.3300018310547 9.689999580383301
482.8399963378906 201.1999969482422 10.28999996185303
480.9500122070312 201.7100067138672 8.159999847412109
482.0700073242188 201.4600067138672 6.840000152587891
481.6700134277344 201.5099945068359 7.860000133514404
483.5199890136719 201.0500030517578 8.390000343322754
482.9500122070312 201.1900024414062 8.109999656677246
481.6700134277344 201.5099945068359 9.729999542236328
481.0799865722656 201.6699981689453 9.539999961853027
481.6900024414062 202.2599945068359 7.090000152587891
481.5199890136719 202.3099975585938 9.529999732971191
482.5 202.1000061035156 6.869999885559082
481.1600036621094 202.3600006103516 10.43000030517578
483 201.9100036621094 10.59000015258789
481.6600036621094 202.2599945068359 10.78999996185303
482.25 202.1000061035156 9.199999809265137
482.3999938964844 202.75 8.270000457763672
482.5299987792969 202.6999969482422 9.800000190734863
481.9299926757812 202.8800048828125 9.539999961853027
482.2200012207031 202.8500061035156 8.180000305175781
482.0700073242188 202.8899993896484 9.449999809265137
481.8699951171875 202.3800048828125 9.300000190734863
482.4299926757812 202.2299957275391 9.479999542236328
482.0299987792969 202.3099975585938 7.039999961853027
483.0599975585938 202.0700073242188 8.770000457763672
482.8800048828125 202.1000061035156 10.46000003814697
481.489990234375 202.4499969482422 7.090000152587891
483.4100036621094 201.3099975585938 8.319999694824219
482.1700134277344 201.6300048828125 8.869999885559082
481.4700012207031 201.7799987792969 9.819999694824219
481.7099914550781 201.6799926757812 6.880000114440918
482.3099975585938 201.5299987792969 6.989999771118164
480.9400024414062 201.9400024414062 9.800000190734863
481.6300048828125 201.7200012207031 8.010000228881836
480.4599914550781 202.0200042724609 8.699999809265137
482.6600036621094 201.4900054931641 9.920000076293945
482.75 201.4600067138672 8.590000152587891
482.0400085449219 201.6699981689453 9.970000267028809
483.5199890136719 200.5200042724609 8.430000305175781
483.6199951171875 200.4900054931641 7.179999828338623
483.9500122070312 200.4100036621094 9.619999885559082
483.0499877929688 200.6199951171875 6.900000095367432
482.4100036621094 200.8200073242188 8.510000228881836
482.239990234375 200.8500061035156 10.14999961853027
481.1499938964844 201.1300048828125 9.630000114440918
481.9599914550781 200.9199981689453 6.53000020980835
481.8299865722656 200.9299926757812 7.889999866485596
480.5599975585938 201.3099975585938 10.02999973297119
480.7099914550781 201.2100067138672 7.920000076293945
481.3500061035156 200.3899993896484 8.020000457763672
481.4599914550781 200.3200073242188 6.849999904632568
480.6400146484375 200.5700073242188 10.05000019073486
481.8999938964844 200.2400054931641 9.079999923706055
481.0499877929688 201.1900024414062 10.90999984741211
482.489990234375 200.75 7.309999942779541
482.0899963378906 200.1999969482422 6.510000228881836
481.2999877929688 200.4199981689453 9.010000228881836
483.0899963378906 199.9700012207031 8.689999580383301
482.6199951171875 200.0599975585938 7.260000228881836
482.3599853515625 200.1399993896484 10.31999969482422
483.1900024414062 199.9100036621094 7.860000133514404
483.6499938964844 199.8099975585938 8.75
482.1199951171875 199.6000061035156 9.159999847412109
481.6700134277344 199.6799926757812 8.090000152587891
483.3800048828125 199.2400054931641 7.900000095367432
480.9700012207031 199.8800048828125 9.529999732971191
480.8800048828125 199.8999938964844 10.55000019073486
481.75 199.6600036621094 6.809999942779541
482.2999877929688 199.5299987792969 7.150000095367432
482.75 199.4400024414062 8.5
481.0599975585938 199.8300018310547 8.229999542236328
482.489990234375 198.8099975585938 8.569999694824219
483.0899963378906 198.6499938964844 8.390000343322754
482 198.9100036621094 7.300000190734863
481.3999938964844 199.0299987792969 6.960000038146973
481.2200012207031 199.1199951171875 8.869999885559082
481.8299865722656 198.7200012207031 7.860000133514404
481.6300048828125 198.7899932861328 7
480.6799926757812 199.6900024414062 10.64999961853027
481.7799987792969 199.4400024414062 7.650000095367432
481.6300048828125 199.4799957275391 6.889999866485596
481.1400146484375 199.6199951171875 7.110000133514404
483.5299987792969 199.0299987792969 7.690000057220459
481.3399963378906 199.5500030517578 8.260000228881836
481.8699951171875 200.1499938964844 10.60000038146973
481.7200012207031 200.2799987792969 6.599999904632568
481.0499877929688 200.3899993896484 9.699999809265137
481.5499877929688 199.5 9.390000343322754
482.2300109863281 200.1300048828125 6.460000038146973
482.2200012207031 200.0800018310547 9.289999961853027
483.2200012207031 199.8399963378906 8.430000305175781
481.4100036621094 200.3300018310547 8.050000190734863
483.1099853515625 199.0899963378906 8.449999809265137
481.8800048828125 200.1900024414062 7.449999809265137
483.0400085449219 199.8999938964844 7.480000019073486
480.7799987792969 200.4499969482422 11.13000011444092
481.6099853515625 200.2400054931641 9.270000457763672
482.5400085449219 200.0299987792969 8.029999732971191
482.0299987792969 200.9100036621094 7.590000152587891
481.3699951171875 201.0599975585938 6.909999847412109
483.4200134277344 200.5299987792969 8.510000228881836
481.6400146484375 201 8.239999771118164
482.9200134277344 200.6399993896484 8.979999542236328
480.9800109863281 201.1199951171875 10.97000026702881
483.8099975585938 200.4700012207031 7.25
482.4400024414062 200.7599945068359 9.510000228881836
482.5799865722656 200.7400054931641 7.25
481.3699951171875 201.0399932861328 10.03999996185303
481.7999877929688 200.9499969482422 9.039999961853027
481.4700012207031 201.6600036621094 9.859999656677246
482.1600036621094 201.4600067138672 10.35000038146973
481.6499938964844 201.6199951171875 7.71999979019165
480.5599975585938 201.8800048828125 8.439999580383301
481.0599975585938 201.7299957275391 7.920000076293945
482 201.5299987792969 9.329999923706055
482.0599975585938 201.5099945068359 6.840000152587891
483.5599975585938 201.1000061035156 8.369999885559082
480.8299865722656 201.8099975585938 9.569999694824219
482.6000061035156 201.3600006103516 9.770000457763672
482.3299865722656 201.4199981689453 8.350000381469727
481.5499877929688 202.3200073242188 9.689999580383301
481.7799987792969 202.2899932861328 10.80000019073486
482.8699951171875 202.0200042724609 10.46000003814697
482.5700073242188 202.0700073242188 8.880000114440918
482.0700073242188 202.1999969482422 9.329999923706055
481.6300048828125 202.3800048828125 7.059999942779541
482.2000122070312 202.1900024414062 7
482.2200012207031 202.8999938964844 9.449999809265137
481.7099914550781 203.0500030517578 9.689999580383301
481.4700012207031 198.6199951171875 7.25
483.0799865722656 198.9600067138672 7.829999923706055
480.8200073242188 199.5500030517578 10.31999969482422
481.3399963378906 199.3999938964844 8.529999732971191
481.7900085449219 199.2899932861328 9.529999732971191
481.2900085449219 199.3899993896484 6.949999809265137
481.2999877929688 199.4499969482422 9.899999618530273
482.5 199.7400054931641 8.159999847412109
481.6199951171875 199.9799957275391 7.590000152587891
481.1499938964844 200.1100006103516 8.210000038146973
480.8699951171875 200.2100067138672 10.55000019073486
481.7799987792969 199.9700012207031 10.94999980926514
481.2099914550781 200.1000061035156 9.739999771118164
482.7699890136719 199.6399993896484 7.239999771118164
483.239990234375 200.0800018310547 8.409999847412109
481.7999877929688 200.4400024414062 8.229999542236328
482.0799865722656 200.4199981689453 10.14999961853027
481.1600036621094 200.6499938964844 9.670000076293945
481.4800109863281 200.5299987792969 8.930000305175781
481.9100036621094 200.3899993896484 7
481.6700134277344 200.5299987792969 10.81999969482422
481.2099914550781 200.5899963378906 6.949999809265137
481.9400024414062 201.0399932861328 8.359999656677246
482.2799987792969 200.9400024414062 7.489999771118164
481.4400024414062 201.2200012207031 10.14999961853027
480.9200134277344 201.2899932861328 7.710000038146973
481.9599914550781 201.0299987792969 6.71999979019165
481.4100036621094 201.1699981689453 7.230000019073486
482.6600036621094 200.8399963378906 6.869999885559082
480.6799926757812 201.3899993896484 10.11999988555908
483.3099975585938 201.3899993896484 8.310000419616699
481.75 201.8000030517578 9.390000343322754
482.7099914550781 201.5700073242188 9.899999618530273
482.010009765625 201.7200012207031 6.980000019073486
481.6300048828125 201.8699951171875 10.60000038146973
481.3399963378906 201.9100036621094 9.979999542236328
480.739990234375 202.0899963378906 10.1899995803833
482.260009765625 201.6999969482422 8.880000114440918
483.2300109863281 201.4299926757812 9.600000381469727
482.0799865722656 202.3699951171875 7.130000114440918
483.0299987792969 202.1699981689453 10.63000011444092
481.3500061035156 202.5200042724609 7.159999847412109
482.4700012207031 202.2599945068359 9.520000457763672
481.7799987792969 202.4499969482422 9.5
482.6799926757812 202.7599945068359 9.949999809265137
481.7900085449219 202.9700012207031 9.649999618530273
482.9299926757812 199.0399932861328 9.340000152587891
482.1000061035156 198.8099975585938 8
483.3800048828125 199.1600036621094 8.079999923706055
481.8399963378906 198.7599945068359 7.059999942779541
482.3299865722656 199.6699981689453 8.079999923706055
482.6799926757812 199.75 7.159999847412109
481.5400085449219 199.5099945068359 8.5
483.4500122070312 199.9799957275391 8.510000228881836
482.010009765625 199.6399993896484 9.050000190734863
481.5499877929688 199.4799957275391 6.829999923706055
481.8699951171875 199.5500030517578 7.53000020980835
483.7900085449219 200.0500030517578 9.420000076293945
483.0199890136719 200.5399932861328 8.729999542236328
481.2999877929688 200.1100006103516 9.680000305175781
482.8200073242188 200.4799957275391 7.320000171661377
482.2999877929688 200.3200073242188 6.940000057220459
482.3099975585938 200.3999938964844 10.57999992370605
481.6499938964844 200.2100067138672 10.56999969482422
481.6499938964844 200.1900024414062 8.760000228881836
483.6099853515625 200.6600036621094 7.110000133514404
482.010009765625 200.3000030517578 9.640000343322754
482.8099975585938 201.1199951171875 10.10000038146973
482.1499938964844 200.9199981689453 10.14999961853027
482.0499877929688 200.8800048828125 8.550000190734863
480.5599975585938 200.5599975585938 9.170000076293945
481.7799987792969 200.8300018310547 7.570000171661377
482.8699951171875 201.0899963378906 8.239999771118164
480.9700012207031 200.6300048828125 9.869999885559082
483.4299926757812 201.25 8.390000343322754
482.5 200.9799957275391 7.28000020980835
481.739990234375 200.8099975585938 5.900000095367432
481.3900146484375 200.6999969482422 6.940000057220459
482.8099975585938 201.7700042724609 10.55000019073486
481.739990234375 201.5 9.760000228881836
482.1300048828125 201.5800018310547 8.689999580383301
482.1099853515625 201.5599975585938 6.909999847412109
481.2699890136719 201.3899993896484 11.14000034332275
481.8099975585938 201.4900054931641 7.869999885559082
482.3399963378906 201.6199951171875 9.930000305175781
481.2000122070312 201.3300018310547 9.439999580383301
481.3299865722656 201.3699951171875 7.300000190734863
482.5799865722656 202.4400024414062 9.979999542236328
482.2799987792969 202.3600006103516 7.179999828338623
482.2200012207031 202.3600006103516 9.25
481.6799926757812 202.2299957275391 10.71000003814697
480.6300048828125 201.9600067138672 8.350000381469727
480.6199951171875 202 9.960000038146973
481.6900024414062 202.2100067138672 6.989999771118164
481.3699951171875 202.1699981689453 9.829999923706055
481.6199951171875 202.8999938964844 9.600000381469727
482.2699890136719 203 8.220000267028809
480.2900085449219 201.75 8.329999923706055
481.2999877929688 202.0099945068359 9.960000038146973
481.8200073242188 202.0899963378906 10.72000026702881
482.1700134277344 202.25 7.019999980926514
480.9100036621094 201.9100036621094 7.840000152587891
482.5 202.2700042724609 9.569999694824219
481.5400085449219 202.1000061035156 7.079999923706055
481.9700012207031 202.1699981689453 9.25
482.0400085449219 202.1799926757812 8.149999618530273
481.8800048828125 201.5200042724609 7.920000076293945
480.6900024414062 201.2200012207031 7.78000020980835
481.3900146484375 201.3999938964844 7.440000057220459
480.5299987792969 201.1199951171875 9.970000267028809
482.5799865722656 201.6999969482422 6.869999885559082
481.6300048828125 201.3899993896484 10.93000030517578
482.7999877929688 201.6999969482422 10.4399995803833
481.75 201.4299926757812 9.550000190734863
482.010009765625 201.5299987792969 6.71999979019165
482.4200134277344 201.6399993896484 8.720000267028809
480.9500122070312 200.6600036621094 9.869999885559082
481.0700073242188 200.6699981689453 8.819999694824219
480.3800048828125 200.5299987792969 9.850000381469727
481.2300109863281 200.7599945068359 7.070000171661377
480.8599853515625 200.6000061035156 11.03999996185303
482.6799926757812 201.0800018310547 9.75
482.7300109863281 201.0800018310547 8.909999847412109
482.3500061035156 201.0399932861328 7.420000076293945
482.2099914550781 201 8.579999923706055
483.1499938964844 201.1600036621094 10.56999969482422
482.0799865722656 200.9400024414062 10.13000011444092
482.8599853515625 201.1499938964844 7.699999809265137
481.7900085449219 200.8800048828125 6.650000095367432
483.3800048828125 201.2700042724609 8.310000419616699
483.8900146484375 201.4199981689453 8.529999732971191
481.510009765625 200.8099975585938 9.529999732971191
482.4800109863281 200.3899993896484 10.51000022888184
482.75 200.5299987792969 7.099999904632568
483.1799926757812 200.6100006103516 8.619999885559082
482.25 200.3800048828125 6.519999980926514
481.8800048828125 200.25 10.48999977111816
481.3599853515625 200.1300048828125 9.579999923706055
480.8500061035156 200.0099945068359 8.590000152587891
481.5700073242188 200.2200012207031 6.909999847412109
481.25 199.3899993896484 8.449999809265137
481.9599914550781 199.5899963378906 6.639999866485596
481.8500061035156 199.5800018310547 7.630000114440918
482.2799987792969 199.6300048828125 10.02000045776367
482.4100036621094 199.6799926757812 8.329999923706055
483 199.8399963378906 7.599999904632568
481.1300048828125 199.3600006103516 10.07999992370605
483.5199890136719 199.9499969482422 8.460000038146973
481.7099914550781 199.5299987792969 9.260000228881836
482.5499877929688 199.7200012207031 6.980000019073486
481.3599853515625 199.4299926757812 7.230000019073486
482.7999877929688 199.2100067138672 7.539999961853027
483.3500061035156 199.3099975585938 7.71999979019165
481.6600036621094 198.9400024414062 6.949999809265137
481.5299987792969 198.8699951171875 8.949999809265137
482.7000122070312 199.1600036621094 9.090000152587891
482.2099914550781 199.0299987792969 7.599999904632568
483.0499877929688 198.6699981689453 8.220000267028809
483.6000061035156 198.7700042724609 8.020000457763672
483.1300048828125 199.0800018310547 7.840000152587891
481.8699951171875 198.7700042724609 7.239999771118164
482.6400146484375 198.9700012207031 8.020000457763672
482 198.8099975585938 7.929999828338623
482.8599853515625 199 9.270000457763672
482.1799926757812 198.8399963378906 8.680000305175781
483.4100036621094 199.8099975585938 8.720000267028809
483.1300048828125 199.7299957275391 7.289999961853027
481.2999877929688 199.3099975585938 10.03999996185303
481.75 199.4100036621094 9.350000381469727
481.8900146484375 199.4199981689453 6.949999809265137
481.5799865722656 199.3300018310547 8.329999923706055
481.1000061035156 199.2400054931641 8.850000381469727
482.739990234375 199.6199951171875 7.940000057220459
481.2900085449219 199.2400054931641 6.860000133514404
483.9299926757812 200.6999969482422 8.819999694824219
482.3999938964844 200.2599945068359 6.929999828338623
481.9800109863281 200.1999969482422 10.65999984741211
482.989990234375 200.4199981689453 7.010000228881836
481.7900085449219 200.1399993896484 6.630000114440918
482.8099975585938 200.3999938964844 9.069999694824219
481.25 200.0399932861328 9.670000076293945
480.7799987792969 199.9499969482422 10.60000038146973
483.2799987792969 200.5 8.420000076293945
483.6499938964844 200.5899963378906 7.139999866485596
481.9400024414062 200.1699981689453 7.360000133514404
482.1799926757812 200.2200012207031 8.720000267028809
482.6099853515625 200.3999938964844 11.0600004196167
481.6099853515625 200.0899963378906 8.779999732971191
481.010009765625 200.6600036621094 10.86999988555908
480.8500061035156 200.6000061035156 9.840000152587891
481.3999938964844 200.6999969482422 6.800000190734863
482.1099853515625 200.8500061035156 7.21999979019165
481.4100036621094 200.75 10.09000015258789
483.4299926757812 201.2299957275391 8.289999961853027
481.739990234375 200.7899932861328 8.520000457763672
481.1600036621094 200.6499938964844 8.779999732971191
481.9299926757812 200.8000030517578 6.440000057220459
482.7799987792969 201.0399932861328 7.599999904632568
480.9299926757812 200.5599975585938 7.590000152587891
482.0799865722656 201.4700012207031 6.78000020980835
481.5499877929688 201.3399963378906 7.090000152587891
481.0700073242188 201.2299957275391 7.460000038146973
482.4400024414062 201.5399932861328 8.460000038146973
481.2099914550781 201.2700042724609 11.11999988555908
482.1799926757812 201.5299987792969 10.3100004196167
480.9500122070312 201.2299957275391 9.859999656677246
482.9700012207031 201.6600036621094 8.369999885559082
482.8099975585938 201.6600036621094 10.47999954223633
481.6099853515625 201.9900054931641 9.210000038146973
481.2699890136719 201.8800048828125 7.460000038146973
482.25 202.1000061035156 6.519999980926514
481.1199951171875 201.8699951171875 10.02000045776367
480.7900085449219 201.7700042724609 8.289999961853027
481.8599853515625 202.0700073242188 10.59000015258789
482.2099914550781 202.1199951171875 9.130000114440918
480.239990234375 201.6300048828125 8.369999885559082
482.7099914550781 202.2599945068359 8.880000114440918
481.2900085449219 202.6199951171875 7.079999923706055
481.7699890136719 202.7799987792969 9.529999732971191
480.4800109863281 202.4600067138672 8.510000228881836
482.0599975585938 202.8500061035156 8.210000038146973
480.8900146484375 202.5599975585938 10.6899995803833
481.4700012207031 203.3500061035156 9.739999771118164
482.8699951171875 198.6499938964844 8.199999809265137
483.5299987792969 198.8099975585938 8.020000457763672
482.510009765625 198.5800018310547 8.949999809265137
481.2200012207031 198.9299926757812 9.329999923706055
482.489990234375 199.2599945068359 9.130000114440918
481.6600036621094 199.0399932861328 7.300000190734863
482.5199890136719 199.2899932861328 7.71999979019165
483.1300048828125 199.3899993896484 7.510000228881836
481.0599975585938 199.5299987792969 10.30000019073486
481.8999938964844 199.7299957275391 9.069999694824219
481.4400024414062 199.6100006103516 9.659999847412109
481.4800109863281 199.6399993896484 8.189999580383301
482.75 199.9499969482422 7.769999980926514
482.3399963378906 199.8500061035156 10.02999973297119
481.8599853515625 199.7400054931641 7.449999809265137
480.9299926757812 200.2400054931641 9.920000076293945
481.3500061035156 200.3500061035156 9.340000152587891
482.1700134277344 200.5500030517578 9.569999694824219
482.6700134277344 200.6799926757812 9.140000343322754
481.7999877929688 200.4299926757812 8.75
481.9200134277344 200.4499969482422 10.5
483.0199890136719 200.7700042724609 6.96999979019165
483.6700134277344 200.9499969482422 8.430000305175781
481.989990234375 200.5299987792969 7.699999809265137
482.1900024414062 200.5899963378906 6.590000152587891
480.8200073242188 201.0099945068359 10.9399995803833
481.2099914550781 201.1199951171875 10.28999996185303
481.2999877929688 201.1499938964844 7.440000057220459
481.989990234375 201.2899932861328 8.859999656677246
482.5299987792969 201.4299926757812 8.520000457763672
482.3399963378906 201.4100036621094 6.679999828338623
483.1300048828125 201.6100006103516 8.260000228881836
481.7200012207031 201.9100036621094 9.810000419616699
481.3800048828125 201.8600006103516 7.53000020980835
481.3099975585938 201.7799987792969 10.44999980926514
482.6600036621094 202.1399993896484 8.909999847412109
480.9200134277344 201.7400054931641 8.210000038146973
482.1499938964844 202.0099945068359 9.229999542236328
482.3399963378906 202.1100006103516 6.829999923706055
481.7900085449219 201.9499969482422 7.019999980926514
481.3699951171875 202.3899993896484 10.11999988555908
480.6199951171875 202.25 8.550000190734863
482.1300048828125 202.6399993896484 7.190000057220459
482.5799865722656 202.7200012207031 8.079999923706055
481.8099975585938 202.5099945068359 9.460000038146973
483.4100036621094 199.0299987792969 8.029999732971191
483.8900146484375 200.8999938964844 8.869999885559082
483.8599853515625 200.8500061035156 7.230000019073486
483.7300109863281 200.2799987792969 7.670000076293945
483.7000122070312 200.2700042724609 9.130000114440918
482.9200134277344 199.2700042724609 9.239999771118164
482.7799987792969 198.7100067138672 8.149999618530273
483.1700134277344 200.2799987792969 8.449999809265137
483.239990234375 200.3999938964844 7.269999980926514
483.3299865722656 200.8899993896484 8.340000152587891
482.989990234375 199.4900054931641 8.359999656677246
483.0299987792969 199.6799926757812 7.199999809265137
482.3399963378906 199.5299987792969 7.820000171661377
482.5 200.3200073242188 10.73999977111816
482.6700134277344 200.8099975585938 7.340000152587891
482.8399963378906 201.5500030517578 8.880000114440918
482.4599914550781 200.0599975585938 7.309999942779541
482.6300048828125 200.8000030517578 8.800000190734863
482.5899963378906 200.4700012207031 6.639999866485596
481.8500061035156 200.5899963378906 10.52999973297119
481.7200012207031 200.0399932861328 9.430000305175781
481.8900146484375 200.7100067138672 9.319999694824219
481.9200134277344 200.8300018310547 8.170000076293945
482.1300048828125 201.6000061035156 6.869999885559082
482.1900024414062 201.9600067138672 9.039999961853027
481.9200134277344 200.8399963378906 6.670000076293945
481.5299987792969 199.4199981689453 9.590000152587891
481.4599914550781 198.9799957275391 8.720000267028809
482.2799987792969 202.2799987792969 6.840000152587891
481.0199890136719 200.0599975585938 10.02999973297119
481.1000061035156 200.3000030517578 9.079999923706055
481.4599914550781 201.5399932861328 7.119999885559082
480.989990234375 199.8999938964844 8.220000267028809
481.2300109863281 200.8899993896484 10.27000045776367
481.5199890136719 201.9799957275391 9.520000457763672
481.6099853515625 202.1399993896484 6.889999866485596
480.6499938964844 200.9100036621094 11.03999996185303
480.8599853515625 201.6499938964844 8.130000114440918
483.8399963378906 201.0700073242188 8.630000114440918
483.7799987792969 200.7700042724609 7.210000038146973
483.739990234375 200.5700073242188 9.319999694824219
483.5400085449219 199.8099975585938 8.75
483.6099853515625 200.2400054931641 7.699999809265137
483.4700012207031 199.5500030517578 7.360000133514404
483.3299865722656 199.0500030517578 7.889999866485596
483.2699890136719 201.2200012207031 10.48999977111816
482.7300109863281 199.1799926757812 9.149999618530273
483.2200012207031 201.3000030517578 8.210000038146973
482.7900085449219 199.5500030517578 8.170000076293945
483.0299987792969 200.5 7.110000133514404
482.989990234375 200.2700042724609 8.760000228881836
482.6099853515625 198.9400024414062 8.020000457763672
482.5400085449219 198.5299987792969 8.949999809265137
483.0700073242188 200.6799926757812 8.130000114440918
482.4599914550781 200.6699981689453 8.369999885559082
482.3599853515625 200.3099975585938 6.78000020980835
482.7799987792969 201.6499938964844 10.27999973297119
482.3699951171875 199.9900054931641 10.92000007629395
482.4400024414062 200.4499969482422 10.39999961853027
481.9700012207031 198.7299957275391 7.909999847412109
482.7999877929688 201.9199981689453 8.789999961853027
482.2999877929688 199.7700042724609 9.899999618530273
482.3299865722656 200.0700073242188 8.75
482.1099853515625 199.1900024414062 7.110000133514404
482.6600036621094 201.3600006103516 8.989999771118164
481.9100036621094 198.5599975585938 7.070000171661377
482.2099914550781 199.7100067138672 7
481.7699890136719 200.6000061035156 8.529999732971191
481.739990234375 200.4499969482422 10.59000015258789
481.4200134277344 199.3699951171875 8.300000190734863
481.6499938964844 200.0700073242188 8.869999885559082
481.5400085449219 199.5899963378906 9.369999885559082
481.3299865722656 199.0399932861328 6.929999828338623
481.4100036621094 199.1699981689453 10.10000038146973
482.3200073242188 202.8600006103516 8.229999542236328
482.1700134277344 202.2100067138672 8.260000228881836
481.8999938964844 201.3800048828125 6.760000228881836
481.9100036621094 201.25 8.890000343322754
482.0199890136719 201.6100006103516 8.020000457763672
482.010009765625 201.4900054931641 10.18000030517578
481.8399963378906 201.0599975585938 8.010000228881836
481.7699890136719 200.7400054931641 6.650000095367432
482.0799865722656 201.9499969482422 6.920000076293945
482.0599975585938 201.8600006103516 9.029999732971191
481.3399963378906 202.0500030517578 7.28000020980835
481.3800048828125 202.0099945068359 9.920000076293945
481.6600036621094 203.1100006103516 9.680000305175781
480.8900146484375 200.0899963378906 9.369999885559082
480.9700012207031 200.4499969482422 10.96000003814697
480.9700012207031 200.4700012207031 8.659999847412109
481.1900024414062 201.4900054931641 7.579999923706055
480.9500122070312 200.2799987792969 10.15999984741211
481.0299987792969 200.8200073242188 7.269999980926514
481.1600036621094 201.3200073242188 9.510000228881836
481.1000061035156 200.8500061035156 10.28999996185303
481.4400024414062 202.5399932861328 7.130000114440918
480.7999877929688 199.6600036621094 10.46000003814697
480.7999877929688 199.8999938964844 8.550000190734863
480.2900085449219 200.6699981689453 10.0600004196167
483.4500122070312 199.0800018310547 7.840000152587891
483.75 200.25 7.599999904632568
483.9200134277344 200.8399963378906 7.230000019073486
483.739990234375 200.1399993896484 8.829999923706055
483.1300048828125 199.9400024414062 7.670000076293945
482.8500061035156 198.7700042724609 8.109999656677246
483.2999877929688 200.5800018310547 7.130000114440918
483 199.3300018310547 8.050000190734863
483.4400024414062 201.1100006103516 8.310000419616699
483.2900085449219 200.5200042724609 8.390000343322754
482.9299926757812 199.2400054931641 9.470000267028809
482.5499877929688 200.2599945068359 7.260000228881836
482.8500061035156 201.3300018310547 7.829999923706055
482.4200134277344 199.6699981689453 7.230000019073486
482.3699951171875 199.5700073242188 8.800000190734863
482.75 201.2200012207031 9.939999580383301
482.7300109863281 200.8000030517578 7.179999828338623
482.7799987792969 201.2799987792969 8.890000343322754
482.9100036621094 201.7100067138672 10.38000011444092
483.0400085449219 202.2799987792969 10.64999961853027
482.6499938964844 200.6900024414062 8.869999885559082
482.260009765625 199.0399932861328 7.989999771118164
481.5799865722656 199.2599945068359 9.529999732971191
481.5199890136719 198.8800048828125 7.03000020980835
481.760009765625 200.0399932861328 7.449999809265137
482.0899963378906 201.5500030517578 10.27000045776367
481.9200134277344 200.5700073242188 8.010000228881836
481.8200073242188 200.3899993896484 10.27000045776367
481.6300048828125 199.4499969482422 6.849999904632568
481.7200012207031 199.8999938964844 9.010000228881836
481.6000061035156 199.3399963378906 8.010000228881836
482.1400146484375 201.6499938964844 8.859999656677246
482.1199951171875 201.2799987792969 6.570000171661377
482.239990234375 201.7700042724609 6.940000057220459
482.4299926757812 202.7799987792969 8.229999542236328
482.3900146484375 202.6499938964844 9.75
481.9700012207031 200.6600036621094 6.349999904632568
482.260009765625 202.1799926757812 9.350000381469727
482.0700073242188 201.1499938964844 8.199999809265137
481.2099914550781 200.3999938964844 6.789999961853027
480.9599914550781 199.6100006103516 10.53999996185303
481.260009765625 200.7799987792969 9.920000076293945
481.3800048828125 201 6.800000190734863
481.6600036621094 202.1199951171875 6.960000038146973
481.1199951171875 200.1900024414062 9.689999580383301
481.6900024414062 202.4700012207031 9.609999656677246
481.6600036621094 202.3999938964844 10.82999992370605
481.0199890136719 199.7100067138672 9.449999809265137
481.5 201.5 7.130000114440918
481.1600036621094 200.2899932861328 8.319999694824219
481.8500061035156 203.0700073242188 9.659999847412109
481.3699951171875 201.2700042724609 10.52999973297119
481.5299987792969 201.9199981689453 9.659999847412109
481.7699890136719 202.6399993896484 7.269999980926514
480.6499938964844 200.5299987792969 9.710000038146973
480.8500061035156 201.2799987792969 7.670000076293945
480.9100036621094 201.7100067138672 9.659999847412109
480.9599914550781 201.8200073242188 8.090000152587891
480.760009765625 201.0399932861328 11.05000019073486
481.0299987792969 202.2200012207031 10.30000019073486
480.3599853515625 201.9700012207031 8.630000114440918
483.9599914550781 201 8.770000457763672
483.6300048828125 199.7700042724609 8.659999847412109
483.7799987792969 200.2400054931641 7.380000114440918
483.4100036621094 198.8699951171875 7.760000228881836
482.8500061035156 199.4600067138672 9
482.989990234375 199.9600067138672 7.550000190734863
482.7699890136719 199.1100006103516 9.979999542236328
483.1000061035156 200.2799987792969 6.690000057220459
483.0700073242188 200.3899993896484 8.289999961853027
483.2900085449219 201.0599975585938 8.229999542236328
483.2000122070312 200.7899932861328 7.019999980926514
482.3699951171875 200.4299926757812 10.40999984741211
482.6900024414062 201.6999969482422 10.55000019073486
482.260009765625 199.8800048828125 6.699999809265137
482.1900024414062 199.6699981689453 9.069999694824219
482.5 201.0299987792969 8.800000190734863
481.9800109863281 198.8899993896484 7.75
482.1199951171875 199.3300018310547 6.550000190734863
482.6900024414062 201.7299957275391 8.600000381469727
482.3699951171875 200.3899993896484 6.96999979019165
482.4299926757812 200.7700042724609 11.3100004196167
482.6099853515625 201.3399963378906 9.810000419616699
482.1600036621094 202.4299926757812 9.409999847412109
482.0499877929688 201.9700012207031 10.60000038146973
481.7300109863281 200.6300048828125 10.76000022888184
482.0700073242188 201.9499969482422 7
481.9299926757812 201.5399932861328 10.0600004196167
481.7900085449219 200.8000030517578 8.5
482.3200073242188 202.8600006103516 8.189999580383301
481.9599914550781 201.6300048828125 8.020000457763672
481.5199890136719 199.9100036621094 9.369999885559082
481.9400024414062 201.3699951171875 6.820000171661377
482.0299987792969 201.8500061035156 9.119999885559082
481.4200134277344 199.4499969482422 6.869999885559082
481.9100036621094 201.2799987792969 8.909999847412109
481.8299865722656 200.9100036621094 6.510000228881836
481.510009765625 202.1000061035156 10.81999969482422
481.5299987792969 202.0599975585938 7.119999885559082
481.3099975585938 201.2599945068359 9.399999618530273
481.3299865722656 201.2899932861328 7.429999828338623
480.9599914550781 199.7799987792969 8.319999694824219
481.6199951171875 202.5599975585938 9.600000381469727
481.4400024414062 201.7100067138672 10.01000022888184
481.2099914550781 200.9400024414062 10.36999988555908
481.7699890136719 203.1000061035156 9.729999542236328
480.8800048828125 202.1000061035156 8.369999885559082
480.9400024414062 202.5500030517578 10.78999996185303
480.8200073242188 202.0700073242188 10.19999980926514
480.7300109863281 201.4900054931641 8.170000076293945
484 200.8999938964844 8.949999809265137
483.2000122070312 201.5899963378906 8.25
483.5299987792969 200.3999938964844 7.349999904632568
483.0599975585938 201.8600006103516 10.31999969482422
483.1900024414062 201.2799987792969 10.57999992370605
483.4400024414062 200.3999938964844 8.800000190734863
483.6199951171875 199.7200012207031 9.029999732971191
483.3599853515625 200.8800048828125 8.359999656677246
482.5700073242188 201.8999938964844 6.880000114440918
482.4299926757812 201.9400024414062 9.800000190734863
482.4299926757812 202.2100067138672 8.930000305175781
482.5799865722656 201.4799957275391 8.850000381469727
482.8699951171875 200.4100036621094 8.180000305175781
482.3699951171875 202.5500030517578 8.170000076293945
482.5700073242188 201.3200073242188 10.05000019073486
483 199.9499969482422 8.670000076293945
483.1300048828125 199.4499969482422 7.699999809265137
482.760009765625 200.4100036621094 11.10999965667725
482.8500061035156 200.3000030517578 9.399999618530273
483.2300109863281 199.0099945068359 8.279999732971191
481.9200134277344 201.8999938964844 8.989999771118164
481.8999938964844 202.3200073242188 6.989999771118164
482.0700073242188 201.2899932861328 9.199999809265137
482.5400085449219 199.4900054931641 8.470000267028809
482.1700134277344 200.8000030517578 9.699999809265137
481.9100036621094 201.8399963378906 10.42000007629395
482.2300109863281 200.4299926757812 10.39999961853027
482.4800109863281 199.8399963378906 7.829999923706055
482.4599914550781 200.1900024414062 6.960000038146973
482.2699890136719 200.6600036621094 8
482.6099853515625 199.1100006103516 9.300000190734863
482.2699890136719 200.9100036621094 7
482.75 198.6600036621094 8.359999656677246
481.6099853515625 201.1399993896484 6.960000038146973
481.2799987792969 201.8899993896484 9.890000343322754
481.5400085449219 201.0599975585938 9.609999656677246
481.7200012207031 200.0899963378906 10.60999965667725
481.6199951171875 200.9600067138672 7.989999771118164
482.1400146484375 198.7899932861328 7.96999979019165
481.6400146484375 200.6100006103516 8.720000267028809
481.760009765625 200.0800018310547 9.159999847412109
481.4500122070312 201.7299957275391 6.809999942779541
480.8699951171875 200.8699951171875 8.680000305175781
480.5499877929688 202.1900024414062 8.279999732971191
480.8299865722656 200.7400054931641 9.829999923706055
481.0299987792969 200.2200012207031 8.75
481.1600036621094 199.4400024414062 10.17000007629395
481.2799987792969 199.3600006103516 7.050000190734863
481.2200012207031 199.3800048828125 8.520000457763672
480.8299865722656 200.5800018310547 11
481.0199890136719 200.0399932861328 9.939999580383301
480.239990234375 200.8600006103516 9.319999694824219
480.2099914550781 201.1300048828125 8.470000267028809
483.9599914550781 200.8600006103516 8.800000190734863
483.9299926757812 200.5399932861328 7.230000019073486
483.7799987792969 201.4100036621094 8.460000038146973
484.0700073242188 200.4299926757812 9.529999732971191
483.3800048828125 200.5200042724609 8.310000419616699
483.3800048828125 200.2899932861328 7.179999828338623
483.2000122070312 201.1300048828125 8.159999847412109
483.0499877929688 202.1799926757812 10.55000019073486
483.2200012207031 200.8800048828125 6.929999828338623
483.489990234375 200.0399932861328 8.529999732971191
482.8299865722656 199.5800018310547 7.789999961853027
482.7900085449219 200.3000030517578 11.01000022888184
482.9500122070312 199.25 8.970000267028809
482.489990234375 201.2200012207031 9.760000228881836
482.5199890136719 200.6499938964844 7.159999847412109
482.6799926757812 200.1000061035156 7.190000057220459
482.489990234375 201.4400024414062 10.78999996185303
482.1900024414062 202.1399993896484 8.310000419616699
482.3500061035156 201.5500030517578 8.420000076293945
482.3399963378906 201.8399963378906 9.659999847412109
482.2000122070312 201.8200073242188 6.769999980926514
482.6799926757812 200.5099945068359 9.010000228881836
482.0499877929688 202.4900054931641 7.039999961853027
482.6400146484375 200.6499938964844 9.850000381469727
482.510009765625 200.9400024414062 8.630000114440918
482.3900146484375 198.8800048828125 8.430000305175781
482.2300109863281 199.8200073242188 10.10999965667725
482.1000061035156 199.7200012207031 6.940000057220459
482.0499877929688 200.4499969482422 10.39000034332275
481.9500122070312 200.7400054931641 9.100000381469727
482.0499877929688 200.2599945068359 9.489999771118164
481.7900085449219 201.0599975585938 7.909999847412109
481.760009765625 201.5099945068359 9.810000419616699
481.7699890136719 200.8000030517578 6.5
482.2200012207031 199.2200012207031 7.409999847412109
481.6099853515625 202.0099945068359 9.470000267028809
481.3299865722656 202.7100067138672 7.179999828338623
481.9700012207031 200.2100067138672 6.599999904632568
481.6400146484375 201.4100036621094 6.769999980926514
481.6199951171875 201.6600036621094 7.869999885559082
481.9299926757812 200.4400024414062 7.829999923706055
481.4800109863281 202.0399932861328 6.880000114440918
481.7999877929688 201.3099975585938 8.909999847412109
481.6900024414062 199.3699951171875 9.489999771118164
481.5400085449219 199.4199981689453 7
481.2099914550781 201.1399993896484 9.460000038146973
481.3800048828125 200.7899932861328 10.43000030517578
481.510009765625 200.0099945068359 9.659999847412109
481.3900146484375 200.4400024414062 8.789999961853027
481.239990234375 200.6399993896484 7.110000133514404
480.9400024414062 202.1900024414062 8.460000038146973
481.0799865722656 201.8399963378906 9.840000152587891
480.9100036621094 201.9900054931641 7.599999904632568
481.1000061035156 201.3999938964844 7.670000076293945
481.6700134277344 198.9199981689453 7.389999866485596
481.5 199.7100067138672 8.149999618530273
480.510009765625 201.2299957275391 8.079999923706055
480.3599853515625 201.9100036621094 8.600000381469727
481.0700073242188 199.3600006103516 10.4399995803833
480.7799987792969 200.6100006103516 10.97999954223633
480.9299926757812 199.8399963378906 9.869999885559082
480.6099853515625 200.9199981689453 9.479999542236328
480.7900085449219 200.25 9.289999961853027
481.0799865722656 199.1100006103516 9.079999923706055
484.0700073242188 201.1600036621094 8.979999542236328
483.5799865722656 200.8699951171875 8.239999771118164
483.4400024414062 201.4499969482422 8.359999656677246
483.7099914550781 200.3699951171875 7.510000228881836
483.8099975585938 199.6999969482422 9.050000190734863
482.3699951171875 202.7200012207031 9.159999847412109
482.3699951171875 202.7700042724609 8.180000305175781
482.8099975585938 201 9.010000228881836
482.6300048828125 201.5200042724609 9.779999732971191
483 200.6100006103516 6.880000114440918
482.3500061035156 202.6499938964844 9.869999885559082
482.4700012207031 202.1900024414062 9.060000419616699
482.9299926757812 200.4799957275391 8.229999542236328
483.3900146484375 198.7299957275391 8.220000267028809
483.239990234375 199.3399963378906 7.71999979019165
482.8999938964844 200.4600067138672 9.119999885559082
482.8099975585938 201.0599975585938 7.739999771118164
483.1099853515625 199.9400024414062 8.109999656677246
481.6499938964844 202.8800048828125 9.539999961853027
481.8099975585938 202.2400054931641 10.67000007629395
481.7999877929688 202.3399963378906 9.310000419616699
482.2799987792969 200.8200073242188 7.5
481.9500122070312 201.7400054931641 10.26000022888184
482.5499877929688 199.6499938964844 8.020000457763672
482.6700134277344 198.9600067138672 9.109999656677246
482.1499938964844 201.4100036621094 6.639999866485596
482.1900024414062 200.6300048828125 10.10999965667725
482.6000061035156 199.7799987792969 6.429999828338623
482.7099914550781 199.0500030517578 7.829999923706055
481.9400024414062 201.8399963378906 8.939999580383301
482.3399963378906 200.0599975585938 10.03999996185303
482.4200134277344 200.2400054931641 7.059999942779541
482.1199951171875 201.2599945068359 8.659999847412109
481.1099853515625 202.5099945068359 10.52000045776367
481.3599853515625 202.1699981689453 7.119999885559082
481.4800109863281 201.5399932861328 7.869999885559082
481.1600036621094 202.5500030517578 9.890000343322754
481.4500122070312 201.4600067138672 9.449999809265137
481.5 201.6000061035156 7.019999980926514
481.3800048828125 201.3399963378906 10.97000026702881
481.6199951171875 200.8899993896484 8.979999542236328
481.75 200.3600006103516 9.010000228881836
481.2999877929688 201.9799957275391 10.03999996185303
481.9299926757812 199.8800048828125 6.630000114440918
481.9299926757812 199.8399963378906 7.670000076293945
482.0799865722656 199.2700042724609 7.480000019073486
481.7699890136719 200.4600067138672 7.070000171661377
481.6600036621094 201.0099945068359 6.739999771118164
481.6700134277344 200.2299957275391 10.59000015258789
482.0700073242188 199.3099975585938 6.599999904632568
480.7699890136719 201.5099945068359 9.960000038146973
480.9100036621094 201.0200042724609 9.380000114440918
481.1600036621094 199.8399963378906 9.579999923706055
481.0299987792969 200.4400024414062 9.359999656677246
480.6600036621094 202.1600036621094 8.319999694824219
480.8800048828125 200.9400024414062 10.85000038146973
481.2200012207031 200.0099945068359 7.210000038146973
481.2799987792969 199.2700042724609 10.14999961853027
480.9500122070312 201.1399993896484 7.349999904632568
481.0799865722656 200.5899963378906 7.210000038146973
480.8099975585938 201.6399993896484 8.119999885559082
481.5400085449219 198.9199981689453 7.070000171661377
481.3500061035156 199.3699951171875 8.420000076293945
480.239990234375 200.6000061035156 9.779999732971191
484.1600036621094 200.5200042724609 9.439999580383301
484.0400085449219 200.7700042724609 8.649999618530273
484.0499877929688 200.6600036621094 7.199999809265137
483.5799865722656 200.3500061035156 8.619999885559082
483.6099853515625 200.2299957275391 7.409999847412109
483.7200012207031 199.6999969482422 8.800000190734863
483.3800048828125 201.1300048828125 8.260000228881836
483.1900024414062 199.2400054931641 7.559999942779541
483.010009765625 199.9499969482422 7.409999847412109
482.8999938964844 200.2200012207031 6.699999809265137
482.9100036621094 200.3999938964844 8.010000228881836
482.6400146484375 201.5500030517578 10.05000019073486
482.489990234375 201.9700012207031 7.159999847412109
482.7000122070312 201.1900024414062 7.53000020980835
482.8699951171875 200.6799926757812 9.039999961853027
482.6799926757812 201.3899993896484 8.789999961853027
482.7699890136719 200.7899932861328 6.980000019073486
482.3200073242188 202.8500061035156 8.159999847412109
482.4400024414062 202.3399963378906 9.539999961853027
483.0799865722656 199.6199951171875 8.359999656677246
482.0799865722656 200.5599975585938 6.320000171661377
482.1600036621094 200.2799987792969 8.810000419616699
482.0700073242188 200.6999969482422 7.730000019073486
482.4400024414062 199.1000061035156 8.529999732971191
481.9299926757812 201.0500030517578 6.619999885559082
482.1300048828125 200.4900054931641 9.930000305175781
482.2999877929688 199.6499938964844 6.960000038146973
481.760009765625 202.0299987792969 9.359999656677246
481.8599853515625 201.75 10.27999973297119
481.6700134277344 202.2200012207031 6.989999771118164
481.75 202.1699981689453 10.77999973297119
481.7999877929688 201.5800018310547 6.820000171661377
481.8900146484375 201.4299926757812 9.239999771118164
481.5599975585938 202.7100067138672 7.440000057220459
481.989990234375 201.0700073242188 8.310000419616699
482.2699890136719 199.8899993896484 9.909999847412109
481.6300048828125 199.6699981689453 7.980000019073486
481.7200012207031 199.2799987792969 7.130000114440918
481.3299865722656 201.2200012207031 10.72000026702881
481.2200012207031 201.5800018310547 9.680000305175781
481.8900146484375 198.6499938964844 7
481.3699951171875 200.6699981689453 6.96999979019165
481.2000122070312 201.6100006103516 7.889999866485596
481.5899963378906 199.9299926757812 9.109999656677246
480.9599914550781 202.5099945068359 8.779999732971191
481.1199951171875 202.0200042724609 10.17000007629395
481.489990234375 200.2799987792969 8.069999694824219
481.0199890136719 202.4900054931641 10.77000045776367
481.3599853515625 200.9299926757812 9.890000343322754
481.0599975585938 199.8899993896484 9.829999923706055
481.0700073242188 199.5700073242188 7.210000038146973
481.2300109863281 199.2700042724609 9.989999771118164
480.760009765625 201.1900024414062 9.939999580383301
481.25 199.0299987792969 8.689999580383301
480.6900024414062 201.2899932861328 7.78000020980835
480.4200134277344 202.3200073242188 8.590000152587891
480.5599975585938 201.7299957275391 8.340000152587891
480.8800048828125 200.6000061035156 9.699999809265137
481.2200012207031 198.9499969482422 7.199999809265137
480.8599853515625 200.8600006103516 10.93000030517578
