401.3399963378906 220.4600067138672 9.529999732971191
399.7200012207031 219.9900054931641 6.96999979019165
400 220.0899963378906 8.159999847412109
400.1900024414062 220.1399993896484 9.220000267028809
399.5 220.0399932861328 11.5
401.0799865722656 220.3899993896484 10.52000045776367
400.0299987792969 220.1300048828125 11.05000019073486
401.7999877929688 220.5299987792969 8.760000228881836
398.9800109863281 219.8999938964844 11.5600004196167
401.0799865722656 219.6499938964844 7.579999923706055
400.5799865722656 219.5299987792969 7.650000095367432
400.7699890136719 219.6000061035156 11.28999996185303
400.0599975585938 219.4199981689453 10.34000015258789
401.8200073242188 219.8200073242188 8.199999809265137
400.25 219.4299926757812 8.880000114440918
400.489990234375 219.5200042724609 10.05000019073486
400.260009765625 219.4700012207031 11.43000030517578
401.3999938964844 219.7599945068359 9.130000114440918
401.010009765625 219.6300048828125 9.619999885559082
399.989990234375 219.3600006103516 7.5
399.7099914550781 219.3300018310547 11.35999965667725
399.489990234375 219.2799987792969 10.34000015258789
401.5499877929688 219.1300048828125 9.210000038146973
401.5899963378906 219.1300048828125 6.71999979019165
400.1099853515625 218.7599945068359 7.679999828338623
399.6900024414062 218.6999969482422 10.86999988555908
400.8800048828125 219.0299987792969 11.48999977111816
400.3399963378906 218.8200073242188 8.720000267028809
401.260009765625 219.0800018310547 10.6899995803833
399.6099853515625 218.6600036621094 7.840000152587891
400.1199951171875 218.8300018310547 10.5
401.8500061035156 218.5299987792969 7.800000190734863
400.8699951171875 218.3000030517578 8.149999618530273
401.489990234375 218.4700012207031 11.30000019073486
400.3500061035156 218.1799926757812 8.340000152587891
400.8099975585938 218.2899932861328 10.59000015258789
399.0700073242188 217.8300018310547 7.619999885559082
399.6000061035156 218 7.849999904632568
399.9700012207031 218.1399993896484 11.94999980926514
400.489990234375 218.2599945068359 12.10999965667725
401.3699951171875 217.6300048828125 7.590000152587891
401.7699890136719 217.7299957275391 6.980000019073486
401.6099853515625 217.6499938964844 6.159999847412109
401.010009765625 217.5299987792969 8.420000076293945
400.4700012207031 217.3899993896484 8.520000457763672
400 217.3300018310547 8.979999542236328
400.9400024414062 217.5500030517578 10.77000045776367
401.3900146484375 216.9400024414062 7.28000020980835
400.9599914550781 216.8800048828125 10.57999992370605
400.5700073242188 216.7400054931641 8.800000190734863
400.9800109863281 216.8099975585938 7.820000171661377
401.6900024414062 217 8.890000343322754
401.7799987792969 216.3999938964844 8.829999923706055
406.1300048828125 227.1300048828125 9.510000228881836
406.0400085449219 227.1399993896484 8.920000076293945
405.239990234375 226.9299926757812 10.59000015258789
403.6400146484375 226.5700073242188 10.64000034332275
404.9700012207031 226.8800048828125 9.329999923706055
406.3999938964844 226.5099945068359 6.949999809265137
406.5199890136719 226.6000061035156 10.09000015258789
404.9100036621094 226.1799926757812 7.800000190734863
404.7200012207031 226.1699981689453 10.01000022888184
403.3699951171875 225.8300018310547 11
406.0299987792969 226.4199981689453 7.71999979019165
404.25 226.0500030517578 10.02999973297119
403.7200012207031 225.9400024414062 10.3100004196167
406.2300109863281 226.5399932861328 8.880000114440918
405.1099853515625 226.2299957275391 8.880000114440918
406.8500061035156 226.0099945068359 8.100000381469727
406.1400146484375 225.8999938964844 9.960000038146973
406.6799926757812 226.0399932861328 10.07999992370605
407.3200073242188 226.1100006103516 7.590000152587891
405.8200073242188 225.7700042724609 8.399999618530273
406.2200012207031 225.8500061035156 7.78000020980835
406.4599914550781 225.9400024414062 8.939999580383301
405.6700134277344 225.7599945068359 10.35000038146973
404.5899963378906 225.4600067138672 7.53000020980835
404.5400085449219 225.4900054931641 10.40999984741211
405.010009765625 225.5899963378906 9.729999542236328
404.1499938964844 225.4100036621094 11.21000003814697
403.4299926757812 225.25 10.39999961853027
404.5199890136719 224.8000030517578 9.479999542236328
404.1000061035156 224.7400054931641 10.21000003814697
404.2999877929688 224.7700042724609 11.26000022888184
403.7799987792969 224.6499938964844 8.659999847412109
404.9100036621094 224.9600067138672 11.53999996185303
403.9400024414062 225.3300018310547 10.21000003814697
405.489990234375 225.7200012207031 9.390000343322754
402.989990234375 225.1300048828125 10.72000026702881
402.9100036621094 224.4100036621094 6.989999771118164
404.1499938964844 224.6999969482422 7.710000038146973
403.3900146484375 224.4799957275391 6.769999980926514
402.75 224.3699951171875 9.140000343322754
407.6799926757812 225.5599975585938 8.890000343322754
406.5899963378906 225.3000030517578 9.25
407.4299926757812 225.4900054931641 7.679999828338623
406.3699951171875 225.2799987792969 10.8100004196167
405.8500061035156 225.1799926757812 10.78999996185303
405.7999877929688 225.1000061035156 8.010000228881836
405.0199890136719 224.9299926757812 9.279999732971191
406.8500061035156 225.3699951171875 7.519999980926514
405.3399963378906 225.0500030517578 10.8100004196167
406.1400146484375 225.2299957275391 9.739999771118164
405.489990234375 225.0500030517578 8.939999580383301
406.2799987792969 225.2100067138672 7.789999961853027
405.1499938964844 224.9299926757812 7.420000076293945
408.1499938964844 224.9700012207031 10.10000038146973
407.3200073242188 224.7599945068359 8.720000267028809
407.6199951171875 224.8099975585938 7.46999979019165
406.8699951171875 224.6600036621094 9.029999732971191
407.8800048828125 224.8699951171875 8.810000419616699
405.3800048828125 224.2400054931641 7.559999942779541
405.5 224.3200073242188 10.67000007629395
406.3399963378906 224.5299987792969 9.180000305175781
406.4800109863281 224.5099945068359 7.230000019073486
404.3299865722656 224 7.800000190734863
405.7999877929688 224.3300018310547 6.5
405.9800109863281 224.3899993896484 7.409999847412109
405.7799987792969 224.3899993896484 9.359999656677246
403.3900146484375 223.7799987792969 8.880000114440918
403.6799926757812 223.8899993896484 10.10000038146973
403.8900146484375 223.9400024414062 11.34000015258789
404.989990234375 224.2299957275391 10.9399995803833
402.4400024414062 223.5200042724609 6.71999979019165
402.989990234375 223.6600036621094 6.880000114440918
403.9400024414062 223.9100036621094 8.529999732971191
403.6199951171875 223.8099975585938 6.920000076293945
401.9500122070312 223.4400024414062 6.900000095367432
407.0599975585938 224.6799926757812 7.420000076293945
404.4400024414062 224.0599975585938 11
403.25 223.7899932861328 10.53999996185303
405.5299987792969 224.3300018310547 8.359999656677246
408.1600036621094 224.9100036621094 7.320000171661377
408.1700134277344 224.3000030517578 9.720000267028809
407.5400085449219 224.1399993896484 9.319999694824219
407.3399963378906 224.0700073242188 8.210000038146973
406.5799865722656 223.9100036621094 7.300000190734863
407.9400024414062 224.25 8.720000267028809
406.8200073242188 223.9700012207031 8.270000457763672
407.0799865722656 224.0200042724609 9.670000076293945
407.1600036621094 224.0200042724609 7.420000076293945
406.1900024414062 223.8200073242188 10.72000026702881
406.3099975585938 223.8600006103516 8.529999732971191
406.1300048828125 223.7899932861328 7.409999847412109
407.6499938964844 224.1399993896484 7.139999866485596
405.2999877929688 223.5899963378906 8.869999885559082
405.7799987792969 223.6699981689453 5.829999923706055
404.2200012207031 223.3000030517578 6.539999961853027
405.5599975585938 223.6600036621094 7.590000152587891
406.6799926757812 223.9700012207031 10.35999965667725
405.0599975585938 223.5599975585938 10.60000038146973
405.6600036621094 223.7299957275391 10.81999969482422
403.7799987792969 223.2299957275391 9.560000419616699
405.25 223.5399932861328 6.170000076293945
402.6499938964844 222.9199981689453 6.849999904632568
405.0799865722656 223.5399932861328 7.699999809265137
402.4299926757812 222.8899993896484 8.689999580383301
403.739990234375 223.2100067138672 6.650000095367432
404.7699890136719 223.4700012207031 9.170000076293945
403.6199951171875 223.1999969482422 8.720000267028809
402.9700012207031 223.0200042724609 8.319999694824219
403.260009765625 223.1499938964844 9.920000076293945
402.0799865722656 222.8300018310547 9.329999923706055
403.2000122070312 223.0800018310547 6.840000152587891
402.7900085449219 223.0099945068359 10.43000030517578
403.7000122070312 222.5399932861328 8.680000305175781
403.75 222.5399932861328 6.28000020980835
403.4400024414062 222.4600067138672 7.389999866485596
403.3699951171875 222.4700012207031 9.630000114440918
402.4700012207031 222.2700042724609 10.78999996185303
402.2200012207031 222.1499938964844 6.829999923706055
402.7300109863281 222.2700042724609 6.639999866485596
403.0700073242188 222.3999938964844 8.159999847412109
402.2699890136719 222.2400054931641 12.56999969482422
408.8699951171875 223.8200073242188 9.430000305175781
409.3599853515625 223.9199981689453 9.140000343322754
405.3800048828125 222.9299926757812 6.059999942779541
406.2300109863281 223.1699981689453 10.31999969482422
405.7799987792969 223.0899963378906 10.9399995803833
405.0599975585938 222.8500061035156 7.590000152587891
405.7300109863281 223.0500030517578 7.829999923706055
406.9800109863281 223.3600006103516 8.470000267028809
404.3099975585938 222.6600036621094 6.360000133514404
404.5599975585938 222.7299957275391 7.659999847412109
408.3299865722656 223.6799926757812 9.699999809265137
406.3099975585938 223.1600036621094 8.090000152587891
406.6199951171875 223.3000030517578 9.689999580383301
404.8399963378906 222.7799987792969 6.340000152587891
404.0700073242188 222.6300048828125 7.809999942779541
407.6600036621094 223.5099945068359 9.170000076293945
408.489990234375 222.9400024414062 7.340000152587891
407.9100036621094 222.8099975585938 7.159999847412109
408.2699890136719 222.9100036621094 8.970000267028809
406.6499938964844 222.5200042724609 9.159999847412109
406.2300109863281 222.4700012207031 9.840000152587891
407.6900024414062 222.7700042724609 8.770000457763672
405.2799987792969 222.1699981689453 5.139999866485596
407.3800048828125 222.6699981689453 7.360000133514404
408.010009765625 222.8800048828125 10.47000026702881
405.5700073242188 222.2400054931641 6.360000133514404
405.739990234375 222.3099975585938 9.880000114440918
406.2699890136719 222.3999938964844 7.349999904632568
404.7300109863281 222.0399932861328 7.829999923706055
404.489990234375 221.9799957275391 6.46999979019165
404.2300109863281 221.9400024414062 8.090000152587891
403.6300048828125 221.7700042724609 7.840000152587891
402.3099975585938 221.4499969482422 7.039999961853027
407.0700073242188 222.6499938964844 8.470000267028809
405.3399963378906 222.1199951171875 2.589999914169312
403.2200012207031 221.7400054931641 11.34000015258789
402.2799987792969 221.5099945068359 12.26000022888184
403.3900146484375 221.6900024414062 6.75
402.0299987792969 221.4299926757812 8.659999847412109
405.1600036621094 222.1600036621094 7.039999961853027
402.8999938964844 221.6000061035156 6.989999771118164
402.760009765625 221.6300048828125 12.15999984741211
405.7799987792969 222.2799987792969 7.46999979019165
408.6099853515625 222.1999969482422 9.590000152587891
407.1799926757812 221.8200073242188 8.350000381469727
407.010009765625 221.8099975585938 10.27000045776367
407.75 221.9799957275391 8.340000152587891
406.510009765625 221.6499938964844 7.809999942779541
406.4400024414062 221.6699981689453 10.01000022888184
404.9299926757812 221.2299957275391 5.300000190734863
405.2699890136719 221.3300018310547 4.21999979019165
404.4100036621094 221.1900024414062 8.239999771118164
404.489990234375 221.1399993896484 5.630000114440918
405.9599914550781 221.5099945068359 7.489999771118164
403.3900146484375 220.9400024414062 11.02999973297119
402.7799987792969 220.75 8.039999961853027
402.7200012207031 220.8099975585938 13.15999984741211
402.2000122070312 220.6900024414062 13.55000019073486
403.4299926757812 220.9600067138672 8.890000343322754
402.4200134277344 220.6999969482422 11.72000026702881
403.0499877929688 220.8300018310547 9.359999656677246
405.6900024414062 221.4499969482422 6.119999885559082
402.7099914550781 220.7700042724609 10.52999973297119
402.3099975585938 220.6600036621094 8.420000076293945
405.5400085449219 221.4199981689453 8.340000152587891
404 221.0500030517578 6.190000057220459
403.1099853515625 220.8200073242188 7.25
402.0400085449219 219.8800048828125 6.829999923706055
402.239990234375 219.9799957275391 10.34000015258789
402.6799926757812 220.0800018310547 12.3100004196167
402.510009765625 219.9900054931641 9.090000152587891
407.0899963378906 221.1199951171875 9.840000152587891
407.4599914550781 221.2100067138672 8.550000190734863
405.4200134277344 220.6699981689453 6.869999885559082
406.1099853515625 220.8699951171875 7.730000019073486
404.9100036621094 220.5500030517578 7.119999885559082
406.7699890136719 221.0200042724609 8.199999809265137
405.9400024414062 220.7799987792969 6.78000020980835
406.9200134277344 221.0599975585938 8.979999542236328
405.1400146484375 220.6499938964844 8.409999847412109
406.6199951171875 220.9900054931641 7.329999923706055
403.8500061035156 220.3300018310547 7.610000133514404
407.6000061035156 221.1900024414062 6.699999809265137
404.3599853515625 220.4900054931641 10.27000045776367
404.6900024414062 220.4799957275391 6.059999942779541
405.8299865722656 220.8099975585938 8.869999885559082
404.1000061035156 220.3899993896484 8.810000419616699
403.3800048828125 220.2200012207031 8.170000076293945
403.8399963378906 220.3300018310547 10.22999954223633
407.9599914550781 221.3099975585938 8.600000381469727
403.5400085449219 220.2899932861328 11.27999973297119
403.1700134277344 220.2100067138672 12.14999961853027
404.5499877929688 220.4799957275391 8.390000343322754
403.6099853515625 220.2200012207031 6.53000020980835
403.1700134277344 220.1199951171875 6.949999809265137
402.9800109863281 220.1000061035156 8.569999694824219
402.8200073242188 220.1300048828125 10.67000007629395
404.25 220.3699951171875 6.829999923706055
402.7300109863281 220.0299987792969 7.460000038146973
403.1600036621094 220.1900024414062 9.630000114440918
407.9500122070312 220.6799926757812 7.900000095367432
407.3599853515625 220.5299987792969 7.710000038146973
406.1400146484375 220.25 7.380000114440918
405.6600036621094 220.1399993896484 7.590000152587891
406.6600036621094 220.3600006103516 6.980000019073486
407.0799865722656 220.4799957275391 8.890000343322754
406.8099975585938 220.3800048828125 7.699999809265137
407.1400146484375 220.4400024414062 6.699999809265137
404.4100036621094 219.8099975585938 6.800000190734863
403.8299865722656 219.6699981689453 6.730000019073486
402.3500061035156 219.2899932861328 7.570000171661377
402.7300109863281 219.4100036621094 9.319999694824219
404.2699890136719 219.8099975585938 11.52999973297119
402.1799926757812 219.3000030517578 9.550000190734863
403.7000122070312 219.6799926757812 11.68000030517578
402.4800109863281 219.3999938964844 11.03999996185303
401.9100036621094 219.2400054931641 11.10999965667725
403.2799987792969 219.5500030517578 6.800000190734863
404.7099914550781 219.9199981689453 11
406.2799987792969 219.6000061035156 7.929999828338623
406.8800048828125 219.75 7.900000095367432
406.0499877929688 219.5200042724609 6.940000057220459
404.9599914550781 219.2799987792969 7.010000228881836
404.4599914550781 219.1799926757812 9.649999618530273
405.6400146484375 219.4199981689453 7.559999942779541
403.1099853515625 218.8600006103516 8.619999885559082
405.4400024414062 219.3899993896484 9.369999885559082
402.7000122070312 218.6999969482422 6.550000190734863
403.8299865722656 218.9799957275391 6.75
403.8099975585938 219.0299987792969 9.039999961853027
402.9700012207031 218.8099975585938 10.44999980926514
404.0599975585938 219.0700073242188 10.31999969482422
402.8399963378906 218.7700042724609 7.28000020980835
404.4700012207031 219.1499938964844 6.960000038146973
402.8099975585938 218.7700042724609 9.649999618530273
402.3999938964844 218.6399993896484 7.619999885559082
402.0700073242188 218.6100006103516 11.36999988555908
403.3299865722656 218.8699951171875 6.659999847412109
402.6900024414062 217.9400024414062 8.939999580383301
402.3099975585938 217.8300018310547 6.96999979019165
403.5400085449219 218.1399993896484 7.260000228881836
402.3500061035156 217.8699951171875 9.630000114440918
402.0599975585938 217.8099975585938 8.210000038146973
402.3299865722656 217.9100036621094 12.39000034332275
405.8299865722656 218.6900024414062 7.449999809265137
406.9200134277344 218.9499969482422 7.559999942779541
403.1300048828125 217.3300018310547 7.579999923706055
401.989990234375 217.1399993896484 10.39000034332275
403.010009765625 217.3300018310547 9.720000267028809
402.9500122070312 217.2700042724609 6.699999809265137
402.7699890136719 217.2599945068359 8.390000343322754
402.3900146484375 217.1999969482422 9.229999542236328
402.4299926757812 217.1900024414062 6.909999847412109
402.6099853515625 216.6199951171875 9.920000076293945
402.5299987792969 216.5399932861328 7.059999942779541
402.3999938964844 216.5299987792969 8.930000305175781
400.739990234375 222.6999969482422 9.630000114440918
398.6600036621094 222.1900024414062 9.569999694824219
401.4700012207031 222.2400054931641 7.349999904632568
401.4500122070312 222.2200012207031 6.059999942779541
399.8299865722656 221.7899932861328 9.340000152587891
399.260009765625 221.6699981689453 8.210000038146973
400.9400024414062 222.0500030517578 8.859999656677246
399.7900085449219 221.8099975585938 7.980000019073486
399.4100036621094 221.6600036621094 10.02999973297119
399.3900146484375 220.8600006103516 10.10999965667725
401.5400085449219 221.3500061035156 12.98999977111816
400.1400146484375 221.0700073242188 8.939999580383301
399.1499938964844 220.8000030517578 10.96000003814697
400.6799926757812 221.1799926757812 9.939999580383301
400.7300109863281 221.2599945068359 6.110000133514404
400.6499938964844 221.1999969482422 8.630000114440918
401.3599853515625 221.3699951171875 8.619999885559082
401.5400085449219 221.4600067138672 6.320000171661377
399.6199951171875 220.9799957275391 7.869999885559082
399.9500122070312 221 9.869999885559082
399.2999877929688 220.1100006103516 11.5600004196167
400.3399963378906 220.3699951171875 10.92000007629395
400.4800109863281 220.4400024414062 8.479999542236328
401.6900024414062 220.75 9.329999923706055
401.2000122070312 220.6499938964844 8.439999580383301
399.9599914550781 220.2799987792969 11.32999992370605
400 219.6499938964844 11.75
400.2300109863281 219.6900024414062 10.93000030517578
400.0899963378906 219.7299957275391 8.050000190734863
400.6199951171875 219.8200073242188 10.31999969482422
401.3399963378906 219.9900054931641 9.170000076293945
401.7699890136719 220.1300048828125 8.600000381469727
400.989990234375 219.8999938964844 9.739999771118164
400.510009765625 219.8200073242188 7.519999980926514
400.5799865722656 219.0899963378906 10.51000022888184
400.0599975585938 218.9799957275391 10.75
400.3900146484375 219.0899963378906 8.770000457763672
399.1199951171875 218.7599945068359 10.32999992370605
400.8999938964844 219.2400054931641 7
400.7000122070312 219.0899963378906 11.9399995803833
400.6199951171875 219.1300048828125 7.800000190734863
401.2099914550781 219.25 10.38000011444092
401.5 219.3500061035156 9.550000190734863
401 219.1699981689453 11.35000038146973
401.6099853515625 218.5500030517578 11.43000030517578
400.6400146484375 218.2599945068359 12.10000038146973
401.1099853515625 218.4499969482422 10.46000003814697
399.8200073242188 218.1199951171875 7.820000171661377
400.989990234375 218.3699951171875 11.52000045776367
400.6799926757812 218.3699951171875 8.279999732971191
401.2200012207031 218.5099945068359 6.690000057220459
401.4500122070312 218.5099945068359 8.420000076293945
399 217.9499969482422 7.619999885559082
401.1400146484375 217.6900024414062 10.73999977111816
400.4700012207031 217.5500030517578 10.61999988555908
400.7099914550781 217.6000061035156 8.479999542236328
401.239990234375 217.7700042724609 8.050000190734863
400 216.8099975585938 8.409999847412109
401.0499877929688 217.0599975585938 10.59000015258789
401.5599975585938 217.1699981689453 8.979999542236328
401.0599975585938 217.0599975585938 7.920000076293945
401.4500122070312 217.1900024414062 7.329999923706055
400.4599914550781 216.8999938964844 9.399999618530273
400.8900146484375 217 8.869999885559082
400.75 216.3000030517578 7.130000114440918
406.1300048828125 227.4499969482422 9.600000381469727
404.1900024414062 226.3200073242188 10.0600004196167
406.3099975585938 226.8600006103516 8.939999580383301
405.9500122070312 226.8000030517578 9.560000419616699
407.0299987792969 227.0599975585938 9.039999961853027
405.4800109863281 226.6499938964844 9.850000381469727
404.6600036621094 225.7899932861328 9.949999809265137
403.1300048828125 225.3800048828125 10.6899995803833
404.3299865722656 225.7299957275391 7.840000152587891
405.6499938964844 226.0299987792969 9.229999542236328
405.5 225.9900054931641 7.610000133514404
404.2099914550781 225.6399993896484 10.19999980926514
406.5400085449219 226.25 9.680000305175781
404.5400085449219 225.7400054931641 10.92000007629395
403.6900024414062 225.5 10.67000007629395
407.2099914550781 226.4100036621094 8.170000076293945
406.5299987792969 226.2799987792969 6.880000114440918
405.6700134277344 226.0299987792969 10.51000022888184
406.260009765625 226.1799926757812 7.760000228881836
406.0499877929688 226.1399993896484 8.640000343322754
404.5400085449219 224.9400024414062 11.14999961853027
402.9200134277344 224.5399932861328 9.220000267028809
403.0799865722656 224.6199951171875 6.820000171661377
404.0199890136719 224.8000030517578 10.22000026702881
404.9800109863281 225.0800018310547 9.319999694824219
404.7099914550781 225 10.03999996185303
404.9100036621094 225.0800018310547 7.679999828338623
406.1799926757812 225.3999938964844 7.710000038146973
405.9299926757812 225.3300018310547 8.579999923706055
404.1400146484375 224.8600006103516 8.979999542236328
407.4400024414062 225.6600036621094 8.960000038146973
406.7300109863281 225.5500030517578 7.599999904632568
403.2999877929688 223.9199981689453 10.40999984741211
402.760009765625 223.8800048828125 6.730000019073486
403.5400085449219 224.0599975585938 6.889999866485596
404.2900085449219 224.1699981689453 11.10000038146973
405.0799865722656 224.3699951171875 10.03999996185303
406.3699951171875 224.6999969482422 9.930000305175781
405.7999877929688 224.6000061035156 8.770000457763672
405.2200012207031 224.4299926757812 8.869999885559082
404.9400024414062 224.3300018310547 11.0600004196167
405.9100036621094 224.6000061035156 10.21000003814697
404.7799987792969 224.3099975585938 12.15999984741211
406.5599975585938 224.7599945068359 8.979999542236328
407.010009765625 224.8899993896484 7.070000171661377
405.239990234375 224.4499969482422 7.699999809265137
403.2300109863281 223.9299926757812 9.050000190734863
404.6300048828125 224.3200073242188 7.679999828338623
407.8699951171875 225.1000061035156 7.539999961853027
407.8099975585938 225.1000061035156 8.699999809265137
406.0400085449219 224.6799926757812 6.510000228881836
405.7699890136719 224.5800018310547 7.460000038146973
406.4100036621094 224.7400054931641 7.260000228881836
403.7099914550781 224.0700073242188 10.01000022888184
404.5299987792969 223.6600036621094 6.400000095367432
405.1300048828125 223.8000030517578 7.650000095367432
405.7900085449219 223.9700012207031 6.449999809265137
405.7000122070312 223.9400024414062 7.46999979019165
406.0400085449219 224.0099945068359 9.399999618530273
408.2000122070312 224.5200042724609 9.890000343322754
407.0199890136719 224.2200012207031 10.14000034332275
407.4800109863281 224.3800048828125 7.159999847412109
406.2000122070312 224.1000061035156 7.28000020980835
406.5799865722656 224.1100006103516 10.5600004196167
407.4100036621094 224.3699951171875 8.300000190734863
406.9299926757812 224.2599945068359 7.329999923706055
404.2799987792969 223.5299987792969 11.40999984741211
403.6900024414062 223.3899993896484 11.5600004196167
402.6099853515625 223.1900024414062 6.820000171661377
402.8399963378906 223.2400054931641 8.470000267028809
404.1900024414062 223.5200042724609 12.61999988555908
403.6199951171875 223.4100036621094 8.770000457763672
405.25 223.8300018310547 9.310000419616699
403.8699951171875 223.5200042724609 6.46999979019165
406 223.9900054931641 10.72000026702881
404.5 223.6000061035156 10.59000015258789
405.0899963378906 223.7400054931641 10.39000034332275
403.3299865722656 223.3600006103516 6.840000152587891
405.6400146484375 223.9100036621094 11.51000022888184
402.2200012207031 222.3200073242188 12.73999977111816
402.489990234375 222.4100036621094 10.64000034332275
402.0700073242188 222.3200073242188 9.75
403.0599975585938 222.6199951171875 7.940000057220459
404.510009765625 222.9700012207031 8.050000190734863
403.3500061035156 222.6300048828125 9.840000152587891
403.3800048828125 222.7100067138672 7.25
404.3299865722656 222.9499969482422 6.449999809265137
406.4800109863281 223.4400024414062 9.350000381469727
405.760009765625 223.2899932861328 7.909999847412109
407.75 223.6999969482422 10.67000007629395
404.9500122070312 223.0599975585938 7.690000057220459
402.4100036621094 222.4700012207031 6.570000171661377
403.6900024414062 222.7299957275391 9.109999656677246
401.9500122070312 222.3699951171875 7.090000152587891
405.7699890136719 223.2799987792969 6.690000057220459
403.8999938964844 222.8200073242188 8.270000457763672
407.75 223.7799987792969 7.920000076293945
403.8399963378906 222.8000030517578 6.800000190734863
406.0299987792969 223.3699951171875 5.75
401.75 222.2299957275391 10.47000026702881
406.1300048828125 223.3399963378906 9.949999809265137
407.5499877929688 223.6799926757812 8.869999885559082
406.5400085449219 223.4400024414062 8.260000228881836
408.3999938964844 223.8899993896484 9.140000343322754
405.8099975585938 223.2400054931641 10.71000003814697
402.0499877929688 221.4799957275391 12.71000003814697
403.3699951171875 221.8300018310547 11.34000015258789
402.5199890136719 221.6399993896484 9.670000076293945
402.0400085449219 221.5599975585938 7.369999885559082
401.9599914550781 221.5099945068359 8.590000152587891
402.4100036621094 221.5800018310547 12.10999965667725
402.6499938964844 221.7100067138672 7.199999809265137
404.3500061035156 222.1100006103516 7.929999828338623
404.5 222.1600036621094 6.800000190734863
405.1799926757812 222.3300018310547 6.869999885559082
403.5799865722656 221.9499969482422 7.760000228881836
406.1000061035156 222.5200042724609 9.949999809265137
408.2000122070312 223.0599975585938 8.960000038146973
403.0799865722656 221.8200073242188 6.75
406.7000122070312 222.6999969482422 7.289999961853027
407.6700134277344 222.9299926757812 10.47000026702881
405 222.3099975585938 7.78000020980835
407.9500122070312 223.0099945068359 7.25
406.5400085449219 222.6300048828125 9.569999694824219
407.4500122070312 222.9100036621094 8.789999961853027
408.1900024414062 223.0500030517578 10.15999984741211
407.0499877929688 222.7599945068359 9.189999580383301
407.4200134277344 222.8800048828125 7.349999904632568
408.7900085449219 223.1999969482422 8.899999618530273
405.7000122070312 222.5099945068359 5.28000020980835
404.7300109863281 221.5299987792969 7.679999828338623
406.7999877929688 221.9700012207031 10.4399995803833
404.5799865722656 221.4799957275391 6.019999980926514
406.1300048828125 221.8399963378906 7.769999980926514
405.6000061035156 221.7200012207031 6.690000057220459
406.9800109863281 222.0399932861328 9.390000343322754
405.3099975585938 221.6999969482422 4.809999942779541
406.6099853515625 222 7.5
408.0799865722656 222.3000030517578 8.979999542236328
405.3800048828125 221.7400054931641 3.539999961853027
408.7799987792969 222.4900054931641 8.989999771118164
405.6000061035156 221.7799987792969 2.710000038146973
404.8699951171875 221.5800018310547 5.25
401.9800109863281 220.7899932861328 12.71000003814697
401.9200134277344 220.8200073242188 8.630000114440918
403.1499938964844 221.1100006103516 9.770000457763672
402.9100036621094 221.0399932861328 10.53999996185303
403.1799926757812 221.1199951171875 7.239999771118164
403.9200134277344 221.3300018310547 8.739999771118164
404.3800048828125 221.4299926757812 8.199999809265137
402.7099914550781 220.9499969482422 11.42000007629395
402.9599914550781 221.0899963378906 8.170000076293945
402.5199890136719 220.8800048828125 13.75
403.6900024414062 221.25 6.920000076293945
402.5199890136719 220.8899993896484 12.42000007629395
402.239990234375 220.9100036621094 6.71999979019165
402.3800048828125 220.9100036621094 8.210000038146973
401.9400024414062 220.1499938964844 10.35000038146973
402.7799987792969 220.3500061035156 9.439999580383301
403 220.4199981689453 11.14000034332275
402.6300048828125 220.3399963378906 7.730000019073486
406.6900024414062 221.3200073242188 10.28999996185303
403.3900146484375 220.4799957275391 10.67000007629395
403.260009765625 220.5 7.630000114440918
405.7799987792969 221.0899963378906 8.529999732971191
403.7099914550781 220.6100006103516 7.199999809265137
402.9800109863281 220.3899993896484 12.35999965667725
407.0400085449219 221.3999938964844 9.720000267028809
406.1700134277344 221.25 6.630000114440918
407.7000122070312 221.6000061035156 8.439999580383301
405.1900024414062 220.9799957275391 6.019999980926514
407 221.4400024414062 8.350000381469727
408.7799987792969 221.8300018310547 9.239999771118164
405.2300109863281 221.0200042724609 4.78000020980835
402.1300048828125 220.2299957275391 8.180000305175781
404.2000122070312 220.6699981689453 10.85000038146973
404.5 220.8399963378906 5.929999828338623
403.989990234375 220.6900024414062 6.360000133514404
402.3299865722656 219.5 11.19999980926514
404.6600036621094 220.1199951171875 10.64000034332275
402.510009765625 219.6000061035156 7.579999923706055
402.2999877929688 219.5500030517578 9.710000038146973
401.8800048828125 219.4100036621094 11.61999988555908
403.1199951171875 219.7200012207031 8.829999923706055
405.8599853515625 220.3999938964844 9.050000190734863
403.1000061035156 219.6799926757812 12.75
403.3800048828125 219.8300018310547 6.730000019073486
403.8399963378906 219.8899993896484 11.47999954223633
407.0499877929688 220.7400054931641 7.389999866485596
405.2699890136719 220.2700042724609 7.880000114440918
407.0899963378906 220.7200012207031 8.75
402.8599853515625 219.6900024414062 7.070000171661377
407.5899963378906 220.8999938964844 7.210000038146973
405.739990234375 220.4299926757812 7.460000038146973
406.2699890136719 220.5399932861328 7.170000076293945
402.75 219.6300048828125 9.409999847412109
403.9599914550781 220 6.53000020980835
403.2900085449219 219.0200042724609 6.699999809265137
403.8999938964844 219.1699981689453 6.619999885559082
403.6000061035156 219.0299987792969 8.699999809265137
404.75 219.3800048828125 6.96999979019165
405.8599853515625 219.6000061035156 9.199999809265137
406.5899963378906 219.8200073242188 7.880000114440918
405.5 219.5200042724609 8.449999809265137
402.7300109863281 218.8500061035156 6.920000076293945
405.8399963378906 219.6399993896484 7.730000019073486
406.0899963378906 219.6799926757812 6.889999866485596
402.25 218.6999969482422 11.30000019073486
403.7799987792969 219.0899963378906 10.39000034332275
402.9299926757812 218.8800048828125 8.779999732971191
402.9400024414062 218.8899993896484 10.03999996185303
402.4299926757812 218.7899932861328 7.71999979019165
401.8299865722656 218.6399993896484 7.889999866485596
402.5400085449219 218.1000061035156 8.109999656677246
402.2300109863281 218.0599975585938 6.199999809265137
402.1000061035156 217.9600067138672 9.75
405.6900024414062 218.8899993896484 7.840000152587891
401.7999877929688 217.8800048828125 7.840000152587891
403.2799987792969 218.2599945068359 8.210000038146973
404.8299865722656 218.6499938964844 7.340000152587891
406.8599853515625 219.1799926757812 7.46999979019165
402.6099853515625 218.0899963378906 9.399999618530273
402.6199951171875 218.1399993896484 6.96999979019165
402.2099914550781 217.3000030517578 10.22999954223633
402.3699951171875 217.3699951171875 9.069999694824219
402.8099975585938 217.4900054931641 8.739999771118164
402.5599975585938 217.4299926757812 6.929999828338623
403.3800048828125 216.8999938964844 8.319999694824219
402.7300109863281 216.7799987792969 6.949999809265137
402.8399963378906 216.7599945068359 9.850000381469727
402.3299865722656 216.6799926757812 8.930000305175781
402.6600036621094 215.9400024414062 7.099999904632568
408.1300048828125 220.4199981689453 8.130000114440918
408.7200012207031 222.8200073242188 8.930000305175781
406.5899963378906 223.1900024414062 8.340000152587891
406.7999877929688 224.1499938964844 10.0600004196167
407.4400024414062 226.5099945068359 7.929999828338623
406.989990234375 224.7599945068359 7.369999885559082
406.739990234375 223.9299926757812 8.329999923706055
406.3200073242188 222.1499938964844 7.760000228881836
406.8500061035156 224.1199951171875 7.409999847412109
406.9200134277344 222.1799926757812 9.989999771118164
406.8200073242188 221.6799926757812 10.4399995803833
407.3200073242188 223.5 8.770000457763672
406.4500122070312 220.1499938964844 7.590000152587891
407.6700134277344 224.9199981689453 8.829999923706055
407.1000061035156 222.6199951171875 8.369999885559082
407.8599853515625 225.6000061035156 7.579999923706055
407.6600036621094 224.7700042724609 7.329999923706055
406.6099853515625 220.7599945068359 7.380000114440918
407.3900146484375 223.9100036621094 8.289999961853027
407.2799987792969 220.2400054931641 7.940000057220459
407.7999877929688 222.4900054931641 9.670000076293945
407.6199951171875 221.6999969482422 8.210000038146973
407.8800048828125 222.7599945068359 8.840000152587891
404.760009765625 222.2700042724609 7.820000171661377
407.3900146484375 220.7599945068359 7.710000038146973
404.5299987792969 221.1300048828125 5.739999771118164
407.5 221.0599975585938 6.989999771118164
405.1000061035156 223.5800018310547 7.699999809265137
407.5400085449219 221.3500061035156 8.779999732971191
404.3999938964844 220.6600036621094 6.099999904632568
405.4400024414062 225 8.939999580383301
405.7000122070312 226.1100006103516 9.819999694824219
405.6300048828125 225.6600036621094 7.619999885559082
404.8900146484375 222.7299957275391 7.409999847412109
405.4299926757812 225.0200042724609 10.39999961853027
408.0199890136719 223.4100036621094 11.35999965667725
405.3599853515625 224.6699981689453 10.98999977111816
404.9400024414062 222.8000030517578 6.340000152587891
405.2799987792969 224.1499938964844 7.389999866485596
405.6499938964844 225.8000030517578 10.44999980926514
405.1300048828125 223.7299957275391 9.300000190734863
406.0199890136719 227.3500061035156 9.479999542236328
405.1099853515625 220.4400024414062 8.279999732971191
404.7999877929688 219.2200012207031 7.300000190734863
405.6000061035156 222.3300018310547 6.610000133514404
405.7699890136719 222.9700012207031 7.840000152587891
406.2999877929688 225.1600036621094 9.409999847412109
406.0499877929688 224.0099945068359 7.340000152587891
405.760009765625 223.1699981689453 10.63000011444092
405.239990234375 220.9299926757812 6.46999979019165
406.4400024414062 225.7400054931641 7.909999847412109
406.2000122070312 224.9499969482422 10.22999954223633
405.5499877929688 221.7899932861328 3.160000085830688
406.0599975585938 224.2599945068359 8.989999771118164
406.7799987792969 227.0099945068359 8.920000076293945
406.3900146484375 225.5399932861328 8.810000419616699
405.8900146484375 223.4700012207031 7.550000190734863
405.6300048828125 219.3300018310547 7.599999904632568
406.0400085449219 221.0800018310547 8.220000267028809
405.9299926757812 220.5800018310547 7.28000020980835
405.7900085449219 220.1199951171875 7.690000057220459
403.7799987792969 224.0399932861328 9.869999885559082
403.6099853515625 223.4700012207031 8.779999732971191
406.5499877929688 223.2700042724609 9.760000228881836
404.0799865722656 225.3800048828125 11.15999984741211
403.6700134277344 223.5399932861328 6.360000133514404
403.760009765625 224.0299987792969 8.600000381469727
404.2099914550781 225.6999969482422 7.869999885559082
404.3599853515625 226.4600067138672 9.220000267028809
403.4599914550781 222.6199951171875 7.25
406.4400024414062 222.7599945068359 8.810000419616699
405.989990234375 220.8699951171875 9.149999618530273
406.25 221.9400024414062 9.789999961853027
403.9800109863281 224.9700012207031 10.38000011444092
402.5499877929688 216.3800048828125 7.050000190734863
402.8200073242188 217.6999969482422 9.479999542236328
402.6700134277344 216.9199981689453 6.860000133514404
402.6199951171875 216.9499969482422 9.449999809265137
403.0299987792969 218.4700012207031 8.460000038146973
403.5199890136719 220.5500030517578 11
403.2900085449219 219.5200042724609 9.119999885559082
405.6799926757812 219.6199951171875 9.319999694824219
403.4299926757812 220.1999969482422 10.34000015258789
403.1300048828125 218.8999938964844 10.5
403.2000122070312 219 6.78000020980835
403.4200134277344 220.2799987792969 11.75
403.3500061035156 219.5800018310547 6.699999809265137
403.5299987792969 220.5 9.539999961853027
404.2900085449219 223.5899963378906 11.47000026702881
403.5400085449219 220.5200042724609 8.350000381469727
403.2699890136719 219.4299926757812 10.21000003814697
403.6199951171875 220.7700042724609 7.449999809265137
404.0400085449219 222.4499969482422 7.900000095367432
403.4200134277344 219.8999938964844 8.380000114440918
404.739990234375 225.3399963378906 9.609999656677246
404.6900024414062 225.0099945068359 7.739999771118164
404.3800048828125 223.9199981689453 10.64999961853027
404.2300109863281 222.9700012207031 6.420000076293945
404.6199951171875 224.8999938964844 9.979999542236328
403.7300109863281 221.0099945068359 6.630000114440918
403.5400085449219 220.2299957275391 6.550000190734863
403.4800109863281 217.0800018310547 8.300000190734863
404.0599975585938 219.5200042724609 9.109999656677246
404.3999938964844 220.75 8.760000228881836
404.1700134277344 220 11.23999977111816
403.9200134277344 221.9700012207031 8.439999580383301
404.2300109863281 220.0700073242188 7.559999942779541
404.1600036621094 219.6300048828125 6.699999809265137
401.6000061035156 218.5299987792969 11.22000026702881
404.25 220.2700042724609 10.44999980926514
401.3299865722656 217.3099975585938 8.970000267028809
401.5299987792969 218.0399932861328 7.809999942779541
401.9700012207031 219.8000030517578 8.470000267028809
401.7099914550781 218.7100067138672 7.789999961853027
402.4700012207031 221.9700012207031 11.14000034332275
401.7200012207031 219.1399993896484 11.02000045776367
401.5799865722656 218.2599945068359 6.989999771118164
402.1000061035156 220.3099975585938 8.109999656677246
402.510009765625 222.0299987792969 10.05000019073486
402.9700012207031 223.7799987792969 6.829999923706055
403.1400146484375 224.4499969482422 6.829999923706055
404.6199951171875 221.6399993896484 7.909999847412109
402.8099975585938 223.1699981689453 6.940000057220459
402.1900024414062 220.9799957275391 12
402.3099975585938 221.4600067138672 12.86999988555908
402.5299987792969 221.9299926757812 7.210000038146973
402.260009765625 220.9100036621094 8.050000190734863
401.7300109863281 215.9799957275391 9
402.6099853515625 222.3000030517578 6.610000133514404
402.1600036621094 220.5500030517578 8.510000228881836
401.8699951171875 216.5899963378906 8.770000457763672
402.1900024414062 217.9400024414062 9.899999618530273
403.0899963378906 224.2599945068359 8.939999580383301
402.2000122070312 217.8000030517578 8.399999618530273
402.989990234375 221.1600036621094 12.10999965667725
402.7699890136719 220.4400024414062 13.22000026702881
402.6700134277344 220 12.40999984741211
402.1300048828125 217.4700012207031 9.060000419616699
402.7699890136719 220.1600036621094 9.039999961853027
402.9200134277344 220.7299957275391 8.840000152587891
402.739990234375 219.9299926757812 7.369999885559082
402.8599853515625 220.5700073242188 11.02000045776367
402.8999938964844 220.6600036621094 9.979999542236328
402.6799926757812 219.6799926757812 9.340000152587891
402.989990234375 220.7899932861328 7.630000114440918
402.6000061035156 219.3800048828125 7.599999904632568
402.6700134277344 219.6100006103516 6.78000020980835
400.1400146484375 221.3399963378906 6.070000171661377
403.6000061035156 223.5200042724609 11.46000003814697
403.239990234375 221.7299957275391 6.829999923706055
402.4800109863281 218.8000030517578 7.760000228881836
403.3800048828125 222.5599975585938 9.689999580383301
400.0499877929688 218.4299926757812 8.25
399.7200012207031 217.2599945068359 8.75
403.0899963378906 221.1399993896484 7.110000133514404
400.510009765625 220.3999938964844 10.64999961853027
400.260009765625 219.5200042724609 11.60000038146973
400.6099853515625 220.6699981689453 8.680000305175781
400.7799987792969 221.5599975585938 10.27000045776367
400.260009765625 219.5800018310547 10.36999988555908
400.4599914550781 219.9900054931641 7.340000152587891
400.8900146484375 221.8699951171875 8.329999923706055
401.1199951171875 222.7100067138672 8.590000152587891
400.8200073242188 221.4400024414062 6.190000057220459
400.3800048828125 219.9700012207031 11.10999965667725
400.5299987792969 220.6100006103516 9.829999923706055
400.760009765625 221.3600006103516 8.619999885559082
400.7300109863281 218.4299926757812 12.3100004196167
400.2699890136719 219.3800048828125 7.630000114440918
401.3900146484375 221.1000061035156 13.14000034332275
400.4700012207031 217.3600006103516 8.880000114440918
401.6900024414062 222.2400054931641 10.35000038146973
401.4700012207031 221.25 8.520000457763672
400.9599914550781 219.3399963378906 9.890000343322754
401.3699951171875 220.7400054931641 8.840000152587891
400.6000061035156 217.75 8.380000114440918
400.7900085449219 218.4299926757812 8.229999542236328
400.7999877929688 218.6499938964844 11.34000015258789
401.7200012207031 222.0200042724609 7.380000114440918
401.2699890136719 220.4600067138672 9.520000457763672
402.0899963378906 223.5399932861328 8.869999885559082
402.1499938964844 223.6499938964844 6.630000114440918
401.5799865722656 221.4499969482422 6.380000114440918
401.8399963378906 222.8200073242188 10.11999988555908
398.4100036621094 220.7100067138672 7.539999961853027
398.8099975585938 222.4100036621094 9.420000076293945
399.4400024414062 221.6399993896484 8.020000457763672
398.6799926757812 221.9400024414062 9.779999732971191
399.239990234375 220.8099975585938 7.869999885559082
398.9800109863281 219.9100036621094 11.25
399.6099853515625 219.4499969482422 11.47999954223633
399.75 220.0800018310547 11.32999992370605
399.4599914550781 218.8600006103516 10.4399995803833
399.489990234375 218.7899932861328 7.679999828338623
399.7300109863281 219.6399993896484 6.769999980926514
400.0899963378906 221.3200073242188 9.869999885559082
399.3200073242188 218.1499938964844 7.829999923706055
400.2000122070312 221.6300048828125 9.170000076293945
400.0299987792969 221.0399932861328 8.050000190734863
400.4100036621094 222.4799957275391 9.5
398.8800048828125 221.3800048828125 9.819999694824219
399.0199890136719 221.8600006103516 9.5
399.6300048828125 222.1199951171875 9.569999694824219
399.510009765625 221.6199951171875 9.970000267028809
399.2900085449219 220.7799987792969 11.23999977111816
399.3999938964844 221.0800018310547 9.979999542236328
399.0599975585938 219.7700042724609 11.59000015258789
399.3900146484375 221.1799926757812 8.100000381469727
398.8399963378906 218.9199981689453 10.30000019073486
399.5400085449219 221.6699981689453 7.599999904632568
399.3099975585938 220.7599945068359 8.640000343322754
400.2699890136719 221.9100036621094 7.579999923706055
400.0199890136719 220.8899993896484 8.100000381469727
400.1400146484375 221.5500030517578 6
400.0899963378906 221.2200012207031 9.430000305175781
400.2099914550781 221.6399993896484 8.949999809265137
400.3500061035156 222.3600006103516 9.430000305175781
400.1199951171875 221.3000030517578 7.46999979019165
399.8099975585938 220.0599975585938 7.079999923706055
399.6400146484375 219.4499969482422 11.28999996185303
399.8900146484375 220.3600006103516 8.409999847412109
399.8299865722656 220.0500030517578 11.43000030517578
399.9200134277344 220.5700073242188 9.270000457763672
399.8200073242188 220.1399993896484 9.600000381469727
399.9800109863281 220.7700042724609 10.13000011444092
399.5700073242188 219.2100067138672 10.27000045776367
399.2999877929688 218 7.789999961853027
399.6600036621094 219.4499969482422 6.71999979019165
399.4700012207031 218.6399993896484 10.5
399.4299926757812 218.6000061035156 7.829999923706055
401.1000061035156 222.2400054931641 8.130000114440918
400.989990234375 221.9600067138672 6.980000019073486
400.8099975585938 221.2299957275391 6.210000038146973
400.6900024414062 220.6000061035156 8.550000190734863
400.989990234375 221.8099975585938 6.320000171661377
400.4599914550781 219.8300018310547 7.630000114440918
400.7699890136719 220.9600067138672 10.10999965667725
400.3900146484375 219.3500061035156 10.14999961853027
400.7300109863281 220.6900024414062 11.22000026702881
400.8200073242188 221.2400054931641 8.630000114440918
400.9500122070312 221.7299957275391 8.380000114440918
400.1499938964844 218.3999938964844 8.479999542236328
400.4299926757812 219.6399993896484 11.27999973297119
400.3599853515625 219.25 7.690000057220459
400.260009765625 218.9499969482422 8.5
400.5400085449219 219.9499969482422 10.43000030517578
400.3900146484375 219.5500030517578 8.739999771118164
400.0599975585938 218.0800018310547 11.88000011444092
400.1700134277344 218.6100006103516 11.52999973297119
400.3599853515625 219.2100067138672 11.92000007629395
399.7000122070312 216.7700042724609 8.510000228881836
401.9599914550781 222.8200073242188 9.989999771118164
401.8599853515625 222.5399932861328 6.650000095367432
401.7200012207031 221.9499969482422 8.649999618530273
402.0400085449219 223.1900024414062 6.860000133514404
401.6700134277344 221.6900024414062 7.559999942779541
401.5700073242188 221.4299926757812 8.739999771118164
401.75 222 6.659999847412109
401.4500122070312 220.7799987792969 8.479999542236328
401.5599975585938 221.2400054931641 12.77000045776367
401.4500122070312 220.7200012207031 12.86999988555908
401.239990234375 219.9199981689453 9.420000076293945
401.1300048828125 219.4600067138672 9.710000038146973
401.0799865722656 219.2599945068359 11.39999961853027
401.1199951171875 219.4700012207031 7.570000171661377
401.5799865722656 221.4100036621094 6.380000114440918
400.9100036621094 218.7200012207031 11.5
401.8099975585938 222.2899932861328 10.11999988555908
400.9800109863281 218.8500061035156 9.699999809265137
400.8500061035156 218.2899932861328 11.98999977111816
400.5799865722656 217.4400024414062 8.489999771118164
401 219.0200042724609 10.56999969482422
401.3599853515625 220.4100036621094 9.380000114440918
400.6000061035156 217.3600006103516 10.55000019073486
400.4800109863281 217.0299987792969 9.119999885559082
401.2900085449219 220.1799926757812 10.63000011444092
400.8699951171875 218.5899963378906 8.630000114440918
400.7200012207031 217.9299926757812 8.350000381469727
400.75 217.9499969482422 10.5600004196167
402.1300048828125 223.6100006103516 8.810000419616699
402.1600036621094 223.6399993896484 6.590000152587891
401.0700073242188 216.8600006103516 7.559999942779541
401.1900024414062 217.4700012207031 7.599999904632568
401.1499938964844 217.2700042724609 11.43000030517578
401.1000061035156 217.0200042724609 10.55000019073486
401.1400146484375 217.1799926757812 9.029999732971191
401.260009765625 217.6600036621094 10.97999954223633
401.5499877929688 218.6900024414062 12.64000034332275
402.9599914550781 224.4799957275391 6.71999979019165
402.8099975585938 223.9700012207031 6.869999885559082
403.1700134277344 225.4100036621094 10.51000022888184
