481.2999877929688 193.0500030517578 9.340000152587891
482.8599853515625 192.6600036621094 6.760000228881836
481.1600036621094 193.6399993896484 8.859999656677246
482.5299987792969 193.2899932861328 6.690000057220459
481.4400024414062 193.5800018310547 8.010000228881836
480.5799865722656 193.7599945068359 8.460000038146973
481.7699890136719 193.4900054931641 8.880000114440918
480.2900085449219 194.4799957275391 8.470000267028809
480.8200073242188 194.3200073242188 8.840000152587891
481.239990234375 194.2400054931641 7.710000038146973
481.7000122070312 194.1300048828125 8.140000343322754
482.8299865722656 193.8600006103516 6.960000038146973
481.5 194.8800048828125 9.819999694824219
481.2900085449219 194.9400024414062 8.609999656677246
482.2300109863281 194.6600036621094 9.5
481.2300109863281 194.9499969482422 6.949999809265137
480.8399963378906 195.6600036621094 9.100000381469727
482.3699951171875 195.3200073242188 6.739999771118164
481.4200134277344 195.5500030517578 7.519999980926514
481.8099975585938 195.4499969482422 6.429999828338623
482.0799865722656 195.1900024414062 6.710000038146973
481.8800048828125 195.25 8.739999771118164
481.25 195.4199981689453 9.109999656677246
482.5400085449219 195.0899963378906 7.070000171661377
481.4500122070312 195.3500061035156 6.78000020980835
480.8200073242188 195.5099945068359 7.860000133514404
482.5799865722656 194.3699951171875 9.779999732971191
481.5499877929688 194.6000061035156 7.78000020980835
481.4700012207031 194.6199951171875 8.619999885559082
481.3900146484375 194.6399993896484 9.689999580383301
481.0700073242188 194.6799926757812 6.989999771118164
481.6199951171875 194.5800018310547 7
480.9599914550781 194.7200012207031 8.050000190734863
482.0599975585938 194.4600067138672 9.069999694824219
482.5400085449219 193.6900024414062 6.630000114440918
481.1499938964844 194.0700073242188 9.520000457763672
481.8099975585938 193.8800048828125 8.329999923706055
481.3099975585938 193.9799957275391 7.489999771118164
483.0799865722656 193.5299987792969 7
480.6300048828125 194.1799926757812 9.039999961853027
481.2000122070312 194.0099945068359 8.649999618530273
481.3900146484375 193.2599945068359 9.399999618530273
482 193.1000061035156 9.029999732971191
481.5 193.2299957275391 7.96999979019165
482.8299865722656 192.8699951171875 6.690000057220459
480.8699951171875 193.3699951171875 8.170000076293945
480.3299865722656 193.5500030517578 8.689999580383301
482.6499938964844 192.8699951171875 6.75
481.3699951171875 193.1999969482422 9.239999771118164
480.2900085449219 194.1499938964844 9.340000152587891
481.1900024414062 193.9499969482422 7.639999866485596
482.1600036621094 193.7400054931641 6.5
481.3800048828125 193.8999938964844 8.810000419616699
480.8500061035156 194 9.060000419616699
482.7999877929688 193.5700073242188 6.769999980926514
481.9800109863281 193.7400054931641 8.390000343322754
481.75 194.5399932861328 7.21999979019165
482.1900024414062 194.4700012207031 6.559999942779541
482.1400146484375 194.4199981689453 9.140000343322754
481.2999877929688 194.6600036621094 7.630000114440918
481.489990234375 194.6100006103516 8.779999732971191
482.3699951171875 195.0899963378906 6.559999942779541
481.1000061035156 194.6999969482422 9.850000381469727
480.8200073242188 195.4799957275391 7.78000020980835
481.1199951171875 195.3899993896484 9.079999923706055
480.25 195.6100006103516 7.829999923706055
481.6700134277344 195.2299957275391 8.880000114440918
481.3800048828125 195.3500061035156 7.190000057220459
481.8399963378906 195.2299957275391 6.900000095367432
482.4100036621094 195.6699981689453 6.849999904632568
481.6600036621094 193.2400054931641 8.260000228881836
480.8800048828125 193.4499969482422 8.090000152587891
481.3599853515625 193.3399963378906 9.100000381469727
480.4700012207031 193.5800018310547 8.609999656677246
481.1499938964844 193.4400024414062 10.07999992370605
482.25 193.8699951171875 8.25
482.9400024414062 193.6399993896484 6.789999961853027
481.5400085449219 194.0399932861328 8.439999580383301
481.8500061035156 194.6300048828125 6.53000020980835
481.7300109863281 194.6900024414062 7.639999866485596
481.3599853515625 194.8000030517578 8.560000419616699
481.3500061035156 194.7899932861328 9.859999656677246
481.739990234375 195.2299957275391 6.800000190734863
481.3099975585938 195.3999938964844 7.440000057220459
482.4100036621094 195.0899963378906 6.730000019073486
482.8200073242188 193.0099945068359 6.800000190734863
481.0700073242188 193.1699981689453 10.30000019073486
482.9100036621094 193.5800018310547 6.829999923706055
481.4800109863281 193.2899932861328 9.050000190734863
482.4500122070312 193.5 6.510000228881836
481.1799926757812 193.2100067138672 8.100000381469727
482.6000061035156 194.2899932861328 9.960000038146973
481.1600036621094 193.9100036621094 8.670000076293945
480.5799865722656 193.7899932861328 8.430000305175781
482.1700134277344 194.1699981689453 9.489999771118164
481.9200134277344 194.1300048828125 8.319999694824219
481.2300109863281 194.6100006103516 8.859999656677246
482.239990234375 194.8600006103516 9.600000381469727
481.3200073242188 194.6000061035156 6.960000038146973
481.5599975585938 194.6900024414062 8.029999732971191
480.9700012207031 194.5500030517578 7.949999809265137
480.8699951171875 194.5599975585938 9.829999923706055
482.2799987792969 195.4900054931641 6.809999942779541
481.4599914550781 195.3300018310547 8.989999771118164
481.5499877929688 195.3099975585938 6.900000095367432
480.1300048828125 195.6399993896484 7.789999961853027
480.739990234375 195.4700012207031 7.849999904632568
481.1400146484375 195.5200042724609 9.220000267028809
481.260009765625 195.6100006103516 7.480000019073486
481.1400146484375 194.9299926757812 7.099999904632568
480.8200073242188 194.7899932861328 10.73999977111816
481.6700134277344 195.0599975585938 7.059999942779541
481.5299987792969 194.9900054931641 8.710000038146973
481.0599975585938 194.8999938964844 8.300000190734863
481.3900146484375 194.9799957275391 10.15999984741211
480.9599914550781 194.8399963378906 9.449999809265137
480.4599914550781 194.7599945068359 8.159999847412109
482.3299865722656 195.2200012207031 6.630000114440918
481.9299926757812 194.3399963378906 8.789999961853027
482.4500122070312 194.4900054931641 9.239999771118164
482.1600036621094 194.4499969482422 6.590000152587891
481.4500122070312 194.2400054931641 7.619999885559082
480.75 194.0800018310547 8.909999847412109
480.5700073242188 193.3600006103516 8.649999618530273
481.1199951171875 193.5099945068359 9.130000114440918
482.2900085449219 193.7799987792969 8.640000343322754
481.6900024414062 193.6300048828125 8.869999885559082
481.2200012207031 193.5299987792969 7.929999828338623
482.489990234375 193.8699951171875 6.679999828338623
482.0700073242188 193.1699981689453 8.880000114440918
483.3299865722656 193.4700012207031 7.25
481.3699951171875 192.9700012207031 9.460000038146973
482.7799987792969 193.3800048828125 6.809999942779541
482.5899963378906 192.6900024414062 6.599999904632568
482.6700134277344 192.7700042724609 6.730000019073486
481.6300048828125 193.1699981689453 9.109999656677246
481.4700012207031 193.1100006103516 8.060000419616699
482.9299926757812 193.4600067138672 6.829999923706055
482.3699951171875 193.2899932861328 6.599999904632568
481.1900024414062 193.7299957275391 9.079999923706055
481.7099914550781 193.8500061035156 8.659999847412109
480.510009765625 193.5599975585938 8.630000114440918
481.4599914550781 193.8000030517578 7.389999866485596
482.8399963378906 194.9299926757812 7.269999980926514
481.1300048828125 194.5 7.590000152587891
480.989990234375 194.5 9.979999542236328
481.3999938964844 194.5700073242188 8.930000305175781
482.0799865722656 194.7400054931641 6.360000133514404
481.739990234375 194.6699981689453 7.690000057220459
482.3500061035156 195.4900054931641 6.769999980926514
481.7699890136719 195.3600006103516 6.840000152587891
480.4700012207031 195.0500030517578 9.569999694824219
481.5400085449219 195.3300018310547 8.899999618530273
481.2000122070312 195.2299957275391 7.170000076293945
480.9700012207031 195.1600036621094 8.859999656677246
480.5899963378906 195.7299957275391 9.220000267028809
480.3200073242188 195.6199951171875 7.980000019073486
481.2200012207031 195.8999938964844 9.550000190734863
482.6900024414062 193.1399993896484 6.71999979019165
482 193.6300048828125 8.390000343322754
481.5400085449219 193.5099945068359 8.989999771118164
481.1099853515625 193.4499969482422 8.079999923706055
481.2999877929688 193.4499969482422 9.840000152587891
482.5199890136719 193.7899932861328 6.659999847412109
482.1900024414062 194.2599945068359 8.800000190734863
480.989990234375 193.9799957275391 9.260000228881836
481.8299865722656 194.1799926757812 8.039999961853027
481.5599975585938 194.1499938964844 7.489999771118164
481.3399963378906 194.6699981689453 9.699999809265137
481.0400085449219 194.6000061035156 10.40999984741211
482.1300048828125 194.8800048828125 8.489999771118164
480.6000061035156 194.5 8.220000267028809
481.8200073242188 194.8300018310547 7.820000171661377
481.3999938964844 194.7200012207031 6.949999809265137
481.8599853515625 194.8699951171875 6.550000190734863
481.4500122070312 194.7299957275391 8.430000305175781
480.9700012207031 195.3600006103516 7.630000114440918
482.7000122070312 193.7200012207031 6.769999980926514
482.5599975585938 192.9900054931641 6.650000095367432
482.1499938964844 194.1499938964844 9.710000038146973
482.1499938964844 194.0599975585938 6.590000152587891
482.0599975585938 193.6399993896484 8.609999656677246
481.9100036621094 193.2400054931641 9.189999580383301
482.2799987792969 194.5399932861328 9.039999961853027
481.5499877929688 193.8699951171875 8.409999847412109
481.4800109863281 193.5200042724609 9.140000343322754
481.8299865722656 195.0200042724609 9.310000419616699
481.8099975585938 194.7200012207031 7.239999771118164
482.0599975585938 195.7700042724609 6.369999885559082
481.7300109863281 194.4600067138672 8.25
481.8500061035156 194.9799957275391 6.21999979019165
480.9800109863281 194.2700042724609 8.649999618530273
481.0899963378906 194.6300048828125 7.880000114440918
481.2099914550781 195.1199951171875 8.949999809265137
481.1499938964844 194.8200073242188 9.770000457763672
481.1700134277344 194.9100036621094 7.03000020980835
480.3500061035156 194.5599975585938 8.489999771118164
482.7300109863281 193.6100006103516 6.760000228881836
482.5599975585938 192.9600067138672 6.690000057220459
482.260009765625 194.5899963378906 9.399999618530273
482.3699951171875 195.2100067138672 6.630000114440918
482.0499877929688 193.8200073242188 8.329999923706055
481.9299926757812 193.3000030517578 8.75
482.1400146484375 194.0899963378906 9.659999847412109
481.5700073242188 194.5299987792969 9.819999694824219
481.6799926757812 195.1300048828125 6.929999828338623
481.2300109863281 193.3000030517578 9.779999732971191
481.5499877929688 194.6100006103516 7.309999942779541
481.239990234375 193.4900054931641 7.869999885559082
481.4299926757812 194.1499938964844 8.140000343322754
481.3299865722656 193.75 9.060000419616699
481.1700134277344 195.4700012207031 9.210000038146973
481.2200012207031 195.6699981689453 7.429999828338623
480.9400024414062 194.4700012207031 10.10000038146973
480.7000122070312 193.5200042724609 8.550000190734863
481.0499877929688 194.8500061035156 9.199999809265137
480.8500061035156 194.1499938964844 8.770000457763672
480.9299926757812 194.5599975585938 7.900000095367432
480.260009765625 194.5899963378906 8.420000076293945
482.6700134277344 193.1199951171875 6.690000057220459
482.8099975585938 193.6699981689453 6.789999961853027
482.0899963378906 193.4600067138672 6.420000076293945
482.1700134277344 193.9100036621094 8.510000228881836
482 193.3300018310547 8.859999656677246
482.2300109863281 194.0399932861328 6.590000152587891
482.5199890136719 195.1399993896484 7.110000133514404
482.3200073242188 194.4799957275391 9.25
481.5599975585938 193.6399993896484 8.829999923706055
481.3900146484375 193.0299987792969 9.329999923706055
481.7000122070312 194.1999969482422 8.109999656677246
481.8599853515625 194.7899932861328 8.430000305175781
481.8800048828125 194.8999938964844 6.570000171661377
481.739990234375 194.2799987792969 6.949999809265137
481.0700073242188 194.4100036621094 9.859999656677246
481.1600036621094 194.5500030517578 7.699999809265137
481.3099975585938 195.1300048828125 7.059999942779541
480.9700012207031 193.8999938964844 8.420000076293945
481.4599914550781 195.7299957275391 7.539999961853027
481.239990234375 195.0200042724609 8.789999961853027
481.3699951171875 195.6100006103516 9.170000076293945
480.4500122070312 194.8200073242188 8.140000343322754
480.6099853515625 195.4499969482422 7.739999771118164
480.1900024414062 193.6600036621094 8.729999542236328
483.239990234375 193.3899993896484 7.110000133514404
482.5499877929688 193.25 6.679999828338623
482.6600036621094 193.7799987792969 6.909999847412109
482.3800048828125 194.7799987792969 6.5
482.1900024414062 194.1399993896484 8.420000076293945
482.0400085449219 193.5200042724609 8.399999618530273
482.2099914550781 194.1300048828125 6.630000114440918
481.6400146484375 194.5899963378906 8.270000457763672
481.3099975585938 193.3500061035156 10.17000007629395
481.7900085449219 195.1000061035156 6.829999923706055
481.4299926757812 193.7700042724609 8.810000419616699
481.7000122070312 194.9799957275391 8.939999580383301
481.6099853515625 194.4299926757812 7.039999961853027
481.3200073242188 193.4700012207031 7.909999847412109
481.1900024414062 195.7400054931641 9.460000038146973
480.9400024414062 194.8800048828125 8.329999923706055
480.8999938964844 194.7799987792969 10.5
481.0599975585938 195.1799926757812 7.340000152587891
481.0799865722656 195.2899932861328 9.029999732971191
480.6300048828125 193.5099945068359 8.550000190734863
480.7200012207031 193.9600067138672 8.970000267028809
482.3599853515625 195.0200042724609 6.940000057220459
482.2300109863281 195.6399993896484 6.829999923706055
482.760009765625 193.4499969482422 6.760000228881836
482.4299926757812 194.2899932861328 9.850000381469727
481.8200073242188 194.9499969482422 6.130000114440918
481.8200073242188 194.6100006103516 8.369999885559082
482.1400146484375 193.6399993896484 6.420000076293945
481.9200134277344 194.4799957275391 6.769999980926514
481.8699951171875 194.3000030517578 9.300000190734863
481.7000122070312 195.3300018310547 6.860000133514404
482.0400085449219 193.8699951171875 8.340000152587891
481.3900146484375 194.5399932861328 7.510000228881836
481.1600036621094 195.1999969482422 8.890000343322754
481.2799987792969 194.9700012207031 7.059999942779541
481.5 193.7400054931641 8.890000343322754
481.4500122070312 194.1300048828125 8.229999542236328
481.6300048828125 193.1600036621094 9.189999580383301
481.260009765625 194.7400054931641 9.420000076293945
480.5499877929688 195.0500030517578 9.609999656677246
480.4800109863281 195.6300048828125 7.840000152587891
480.8800048828125 193.8600006103516 8.689999580383301
480.2699890136719 193.5599975585938 8.729999542236328
483.010009765625 193.5800018310547 6.840000152587891
482.6900024414062 194.8000030517578 7.210000038146973
482.4299926757812 195.8200073242188 6.71999979019165
482.1400146484375 194.8999938964844 9.130000114440918
482.3900146484375 193.6499938964844 8.600000381469727
482.1400146484375 194.3300018310547 6.690000057220459
482.6000061035156 192.6100006103516 6.789999961853027
482.25 194.3099975585938 9.180000305175781
481.9800109863281 194.8500061035156 6.300000190734863
482.2900085449219 193.7299957275391 6.5
481.2999877929688 194.7799987792969 6.980000019073486
481.6099853515625 194 8.560000419616699
481.1300048828125 195.9100036621094 9.369999885559082
481.4500122070312 194.6000061035156 8.680000305175781
481.7200012207031 193.4499969482422 8.939999580383301
481.4100036621094 194.9600067138672 10.23999977111816
481.1799926757812 195.4700012207031 7.320000171661377
481.3200073242188 195.2400054931641 9.010000228881836
481.0299987792969 193.7100067138672 8.960000038146973
481.1600036621094 193.3200073242188 9.909999847412109
480.7300109863281 194.6000061035156 7.820000171661377
481.0499877929688 193.5299987792969 8.020000457763672
480.739990234375 194.9700012207031 9.479999542236328
480.8599853515625 194.25 8.779999732971191
480.8900146484375 194.6100006103516 10.23999977111816
480.4299926757812 193.5299987792969 8.720000267028809
482.5 194.8999938964844 6.900000095367432
482.3599853515625 195.5099945068359 6.809999942779541
482.7999877929688 193.7599945068359 6.820000171661377
482.1900024414062 193.4499969482422 6.449999809265137
482 193.9100036621094 8.479999542236328
482.010009765625 194.0299987792969 6.590000152587891
481.8900146484375 194.5399932861328 6.519999980926514
481.6799926757812 195.0700073242188 8.329999923706055
481.8299865722656 194.3999938964844 8.810000419616699
481.760009765625 195.1699981689453 6.900000095367432
480.8900146484375 195.7899932861328 9.279999732971191
481.3399963378906 194.0700073242188 8.569999694824219
480.989990234375 195.2299957275391 8.979999542236328
481.4599914550781 193.5500030517578 7.96999979019165
481.4700012207031 193.4799957275391 9.079999923706055
481.1400146484375 194.5399932861328 9.739999771118164
480.9100036621094 195.8500061035156 7.769999980926514
481.2200012207031 194.7100067138672 7.699999809265137
481.0700073242188 195.3200073242188 7.329999923706055
480.3999938964844 195.5099945068359 7.829999923706055
480.6600036621094 194.3000030517578 9
480.8399963378906 193.8000030517578 8.390000343322754
479.8599853515625 195 8.489999771118164
483.1400146484375 193.4900054931641 7.010000228881836
482.6000061035156 193.3200073242188 6.699999809265137
482.4299926757812 193.9799957275391 6.670000076293945
482.4299926757812 194.3600006103516 9.449999809265137
482.1099853515625 195.3500061035156 6.550000190734863
482.2300109863281 194.9100036621094 7.829999923706055
482.3299865722656 194.5500030517578 8.930000305175781
482.75 192.6699981689453 6.710000038146973
481.7099914550781 194.5899963378906 8.010000228881836
481.5899963378906 194.9600067138672 8.810000419616699
481.5799865722656 194.9499969482422 6.840000152587891
481.7200012207031 194.3600006103516 6.78000020980835
481.8699951171875 193.7799987792969 8.479999542236328
480.8299865722656 195.1499938964844 9.380000114440918
481.010009765625 194.3600006103516 9.699999809265137
480.9400024414062 194.7200012207031 10.63000011444092
480.6799926757812 195.6000061035156 8.109999656677246
481.1499938964844 193.8600006103516 9.279999732971191
481.2900085449219 193.1799926757812 9.329999923706055
481.1799926757812 193.7100067138672 7.840000152587891
480.4299926757812 194.1300048828125 9.409999847412109
480.4599914550781 193.8300018310547 8.569999694824219
480.3299865722656 194.5399932861328 8.329999923706055
