92.66000366210938 228.2299957275391 10.13000011444092
90.45999908447266 227.6799926757812 9.060000419616699
91.05000305175781 227.8500061035156 9.270000457763672
93.05999755859375 228.2400054931641 14.48999977111816
93.37000274658203 228.3800048828125 9.960000038146973
92.09999847412109 227.5800018310547 8.090000152587891
92.19000244140625 227.5599975585938 11.36999988555908
90.44000244140625 227.1699981689453 10.97000026702881
91.66999816894531 227.3999938964844 14.75
90.01999664306641 227.0700073242188 8.449999809265137
93.16000366210938 227.7700042724609 14.25
92.63999938964844 227.6900024414062 10.0600004196167
90.20999908447266 226.6799926757812 8.220000267028809
90.37000274658203 226.6900024414062 13.27999973297119
90.29000091552734 226.6799926757812 11.72999954223633
93.16999816894531 227.3800048828125 10.93000030517578
92.31999969482422 227.0899963378906 16.73999977111816
89.5 226.4600067138672 12.02999973297119
93.41000366210938 227.4600067138672 10.30000019073486
91.08999633789062 226.8800048828125 11.27000045776367
93.87999725341797 227.5299987792969 12.42000007629395
91.73000335693359 227.0299987792969 9.539999961853027
91.59999847412109 227.0299987792969 7.960000038146973
94.98999786376953 227.7700042724609 12.9399995803833
90.95999908447266 226.3399963378906 8.140000343322754
90.83999633789062 226.2899932861328 12.05000019073486
91.19999694824219 226.3899993896484 11.21000003814697
90.23999786376953 226.1300048828125 11.97999954223633
92.81999969482422 226.7700042724609 10.22999954223633
92.54000091552734 226.6999969482422 12.77999973297119
92.34999847412109 226.6100006103516 15.19999980926514
91.08999633789062 226.2799987792969 15.05000019073486
93.12999725341797 226.8000030517578 14.82999992370605
90.66999816894531 226.2799987792969 10.77000045776367
92.5 226.6799926757812 11.10999965667725
91.94000244140625 226.5899963378906 7.309999942779541
93.62000274658203 226.9299926757812 15.1899995803833
94.06999969482422 227.0599975585938 12.22000026702881
91.52999877929688 226.4600067138672 11.93000030517578
93.06999969482422 226.7899932861328 13.14999961853027
92.98000335693359 226.8000030517578 11.4399995803833
93.30000305175781 226.8200073242188 16.15999984741211
91.54000091552734 226.4900054931641 8.380000114440918
94.52999877929688 227.1799926757812 12.64999961853027
92.34999847412109 226.0200042724609 8.430000305175781
93.30000305175781 226.2899932861328 5.78000020980835
92.47000122070312 226.0299987792969 9.989999771118164
93.43000030517578 226.3000030517578 7.309999942779541
91.36000061035156 225.7799987792969 9.289999961853027
93.04000091552734 226.2799987792969 4.670000076293945
91.38999938964844 225.7700042724609 12.9399995803833
93.55000305175781 226.2799987792969 14.02999973297119
92.51000213623047 226.0200042724609 11.72999954223633
90.80000305175781 225.6199951171875 12.68000030517578
91.40000152587891 225.7200012207031 14.78999996185303
93.44000244140625 226.2299957275391 12.67000007629395
92.90000152587891 226.1499938964844 8.850000381469727
93.02999877929688 226.1300048828125 13.73999977111816
93.91999816894531 226.3899993896484 11.35999965667725
92.54000091552734 226.0099945068359 15.22000026702881
94.43000030517578 226.4600067138672 13.34000015258789
94.12999725341797 226.4400024414062 12.4399995803833
91.86000061035156 225.8300018310547 13.53999996185303
92.30000305175781 226.0899963378906 4.849999904632568
95.18000030517578 226.6999969482422 11.23999977111816
91.87000274658203 225.3099975585938 11.5
92.47000122070312 225.5 9.710000038146973
93.48000335693359 225.7799987792969 5.239999771118164
90.80000305175781 225.0099945068359 12.78999996185303
91.59999847412109 225.2100067138672 14.14999961853027
92.63999938964844 225.5200042724609 11.14999961853027
94.02999877929688 225.8099975585938 12.69999980926514
94.18000030517578 225.8200073242188 14.19999980926514
92.45999908447266 225.4799957275391 8.119999885559082
94.41999816894531 225.9799957275391 8.010000228881836
94.30000305175781 225.9199981689453 10.17000007629395
93.26999664306641 225.6399993896484 11.17000007629395
94.51999664306641 225.9799957275391 11.30000019073486
92.61000061035156 225.4499969482422 13.05000019073486
94.52999877929688 225.8999938964844 14.86999988555908
94.16999816894531 225.8200073242188 15.93000030517578
95.41999816894531 226.1300048828125 14.35000038146973
92.01000213623047 224.8300018310547 11.36999988555908
93.04000091552734 225.0299987792969 15.67000007629395
95.23000335693359 225.6199951171875 13.02000045776367
94.16000366210938 225.3399963378906 12.56999969482422
92.95999908447266 225.1199951171875 8.729999542236328
92.08000183105469 224.8300018310547 12.9399995803833
92.77999877929688 225.0299987792969 13.02999973297119
91.38999938964844 224.1000061035156 13.13000011444092
92.31999969482422 224.3399963378906 12.22999954223633
92.23999786376953 224.2899932861328 14.35999965667725
92.70999908447266 224.4299926757812 13.05000019073486
93.25 224.5200042724609 15.10000038146973
93.86000061035156 224.7100067138672 15.14999961853027
93.09999847412109 224.5099945068359 13.64999961853027
94.63999938964844 224.8899993896484 13.0600004196167
92.75 223.7200012207031 13.46000003814697
92.29000091552734 223.6300048828125 14.81999969482422
91.73999786376953 223.4700012207031 14.38000011444092
93.19999694824219 223.8200073242188 14.10000038146973
93.69000244140625 223.3000030517578 14.44999980926514
94.63999938964844 223.7400054931641 14.65999984741211
94.90000152587891 224.5099945068359 13.14999961853027
93.62000274658203 224.1900024414062 14.10999965667725
91.48000335693359 223.6600036621094 13.21000003814697
91.98000335693359 223.8000030517578 14.22000026702881
92.61000061035156 223.9700012207031 13.25
93.76000213623047 224.2100067138672 12.48999977111816
95.76000213623047 225.3899993896484 13.14999961853027
92.91000366210938 224.6799926757812 13.02999973297119
92.37999725341797 224.5700073242188 12.15999984741211
93.81999969482422 224.9700012207031 15.13000011444092
92.26000213623047 224.5299987792969 14.19999980926514
94.66999816894531 225.1399993896484 12.6899995803833
93.33000183105469 224.8500061035156 14.68000030517578
92.80999755859375 224.6699981689453 14.31999969482422
91.69000244140625 224.4100036621094 13.13000011444092
92.34999847412109 224.5500030517578 12.94999980926514
93.48000335693359 224.8300018310547 13.05000019073486
95.29000091552734 225.9100036621094 15.27999973297119
94.31999969482422 225.6300048828125 12.40999984741211
94.65000152587891 225.6799926757812 8.470000267028809
95.34999847412109 225.9100036621094 14.1899995803833
92.97000122070312 225.3300018310547 15.14999961853027
93.26000213623047 225.3500061035156 11.57999992370605
92.90000152587891 225.2299957275391 8.649999618530273
92.65000152587891 225.25 11.73999977111816
92.08999633789062 225.0800018310547 12.34000015258789
91.48000335693359 224.9600067138672 12.77000045776367
90.87999725341797 224.7799987792969 12.9399995803833
91.91000366210938 225.0599975585938 14.52000045776367
91.37000274658203 224.9299926757812 14.67000007629395
95.26999664306641 226.5500030517578 11.47999954223633
95.73000335693359 226.6799926757812 12.86999988555908
94.01999664306641 226.2599945068359 12.77999973297119
95.12999725341797 226.5399932861328 12.64999961853027
93.75 226.1300048828125 8.390000343322754
93.47000122070312 225.9900054931641 5.199999809265137
92.91000366210938 225.8399963378906 4.760000228881836
92.30999755859375 225.6999969482422 4.78000020980835
91.15000152587891 225.5099945068359 12.93000030517578
91.58000183105469 225.6499938964844 14.42000007629395
91.73999786376953 225.6499938964844 12.31999969482422
91.40000152587891 225.5299987792969 9.609999656677246
92.91999816894531 225.9799957275391 12.22999954223633
92.70999908447266 225.9400024414062 15.17000007629395
94.12000274658203 226.2599945068359 11.39999961853027
93.37000274658203 226.1100006103516 13.82999992370605
96.11000061035156 226.6900024414062 7.849999904632568
92.41999816894531 225.8099975585938 11.19999980926514
94.98999786376953 226.4199981689453 7.610000133514404
90.55000305175781 225.3600006103516 12.94999980926514
91.23999786376953 225.5200042724609 11.35000038146973
95 227.2100067138672 10.81999969482422
93.51000213623047 226.9199981689453 14.98999977111816
93.04000091552734 226.7899932861328 13.35000038146973
93.40000152587891 226.8899993896484 16.14999961853027
94.26999664306641 227.0500030517578 12.25
93.44999694824219 226.8200073242188 8.010000228881836
94.02999877929688 227.0700073242188 15.27999973297119
93.69000244140625 226.9199981689453 12.60000038146973
92.93000030517578 226.7599945068359 14.97999954223633
92.38999938964844 226.6199951171875 15.18000030517578
94.41999816894531 227.0700073242188 10.5600004196167
92.19999694824219 226.5500030517578 9.890000343322754
91.84999847412109 226.4299926757812 7.409999847412109
93.18000030517578 226.7700042724609 11.97000026702881
92.27999877929688 226.5200042724609 8.869999885559082
90.94999694824219 226.2100067138672 11.77000045776367
92.41999816894531 226.5200042724609 7.059999942779541
91.61000061035156 226.3800048828125 11.03999996185303
92.91000366210938 226.6900024414062 8.149999618530273
91.01000213623047 226.2299957275391 10.65999984741211
94.08999633789062 226.9700012207031 6.920000076293945
90.33999633789062 226.0700073242188 12.46000003814697
90.55000305175781 226.1000061035156 9.930000305175781
92.16999816894531 226.5099945068359 10.68000030517578
91.13999938964844 226.2400054931641 9
92.77999877929688 226.6799926757812 10.31999969482422
96.27999877929688 227.5099945068359 9.010000228881836
93.70999908447266 227.5800018310547 10.02000045776367
93.05000305175781 227.4600067138672 11.75
92.76000213623047 227.4199981689453 15.10000038146973
93.25 227.4900054931641 8.539999961853027
93.94000244140625 227.6199951171875 7.460000038146973
93.16000366210938 227.4700012207031 9.779999732971191
91.70999908447266 227.1499938964844 13.65999984741211
90.73000335693359 226.8600006103516 11.47000026702881
92.84999847412109 227.4100036621094 13.94999980926514
92.31999969482422 227.2799987792969 13.39999961853027
91.48999786376953 227.0200042724609 9.409999847412109
90.36000061035156 226.7299957275391 8.369999885559082
93.40000152587891 227.5800018310547 13.94999980926514
92.55000305175781 227.2899932861328 10.38000011444092
91.33000183105469 227.0299987792969 11.14000034332275
93.12999725341797 227.4600067138672 10.64999961853027
89.45999908447266 226.5599975585938 12.15999984741211
91.59999847412109 227.0200042724609 7.989999771118164
92.76000213623047 227.3399963378906 8.020000457763672
92.47000122070312 227.3200073242188 11.27999973297119
90.11000061035156 226.6999969482422 11.8100004196167
91.11000061035156 227.6300048828125 10.89000034332275
91.88999938964844 227.7599945068359 8.220000267028809
90.48000335693359 227.4799957275391 11.72000026702881
89.59999847412109 227.2299957275391 8.729999542236328
91.26999664306641 227.6100006103516 8.930000305175781
90.15000152587891 227.3399963378906 8.539999961853027
93.12000274658203 228.1699981689453 14.5
94.16999816894531 228.3399963378906 7.730000019073486
92.87000274658203 228.0200042724609 10.22000026702881
92.26000213623047 227.9100036621094 11.31999969482422
92.52999877929688 227.9299926757812 7.75
92.95999908447266 228.0599975585938 8.609999656677246
91.69000244140625 227.75 10.96000003814697
93.41999816894531 228.2100067138672 10.01000022888184
92.55000305175781 228 14.17000007629395
92.30999755859375 227.8899993896484 10.3100004196167
93.76000213623047 229.0099945068359 10.11999988555908
92.48999786376953 228.7200012207031 11.81999969482422
93.26000213623047 228.8800048828125 9.770000457763672
93.15000152587891 228.8500061035156 10.82999992370605
91.58999633789062 228.4199981689453 8.210000038146973
93.34999847412109 228.8899993896484 8.130000114440918
92.62999725341797 228.7299957275391 10.03999996185303
90.33000183105469 228.1199951171875 9.109999656677246
92.22000122070312 228.6000061035156 7.849999904632568
90.79000091552734 228.2700042724609 11.21000003814697
92.33000183105469 229.4299926757812 9.979999542236328
90.05999755859375 228.8699951171875 9.619999885559082
92.19000244140625 229.4400024414062 12.15999984741211
90.76999664306641 229.0500030517578 8.460000038146973
92.11000061035156 229.4900054931641 9.989999771118164
90.58999633789062 229.1699981689453 8.600000381469727
92.11000061035156 228.8600006103516 11.60000038146973
93.59999847412109 229.2700042724609 10.07999992370605
92.40000152587891 228.9499969482422 9.970000267028809
91.87999725341797 228.1499938964844 11.21000003814697
90.29000091552734 227.7599945068359 9.329999923706055
93.23999786376953 228.4400024414062 14.89000034332275
92.29000091552734 228.2700042724609 10.27999973297119
92.52999877929688 228.2899932861328 14.27000045776367
93.45999908447266 228.5599975585938 9.939999580383301
92.52999877929688 228.3399963378906 11.53999996185303
90.59999847412109 227.1300048828125 11.4399995803833
89.98000335693359 227.0099945068359 8.569999694824219
92.04000091552734 227.4400024414062 12.90999984741211
93.12000274658203 227.7599945068359 9.729999542236328
91.75 227.3600006103516 14.52999973297119
91.59999847412109 227.3899993896484 10.88000011444092
95.59999847412109 228.3500061035156 13.43000030517578
92.81999969482422 227.6399993896484 13.97999954223633
93.87000274658203 227.9700012207031 7.650000095367432
93.45999908447266 227.8500061035156 8.270000457763672
90.48000335693359 227.1199951171875 8.25
92.77999877929688 227.6900024414062 8.050000190734863
92.97000122070312 227.7299957275391 11.85999965667725
90.77999877929688 226.5399932861328 11.55000019073486
92.34999847412109 226.8800048828125 16.19000053405762
93.48999786376953 227.1799926757812 16.13999938964844
91.43000030517578 226.7400054931641 8.649999618530273
92.16999816894531 226.8600006103516 12.30000019073486
89.87000274658203 226.2899932861328 12.53999996185303
92.47000122070312 226.9700012207031 11.0600004196167
93.06999969482422 227.1100006103516 14.06999969482422
93.23999786376953 227.1499938964844 11.77000045776367
92.52999877929688 227.0500030517578 8.329999923706055
91.62000274658203 226.7700042724609 9.590000152587891
91.81999969482422 226.8399963378906 7.849999904632568
91.87000274658203 226.8399963378906 10.85000038146973
93.29000091552734 227.1300048828125 14.93000030517578
94.73000335693359 227.5599975585938 10.34000015258789
91.36000061035156 226.6999969482422 11.34000015258789
93.93000030517578 227.3500061035156 12.27000045776367
90.29000091552734 226.3999938964844 11.88000011444092
94.08999633789062 227.4499969482422 7.150000095367432
93.68000030517578 227.3099975585938 7.739999771118164
93.12000274658203 226.5700073242188 10.10000038146973
92.51000213623047 226.4700012207031 6.940000057220459
93.33999633789062 226.6300048828125 11.18000030517578
93.02999877929688 226.6300048828125 6.710000038146973
94.16000366210938 226.8800048828125 9.390000343322754
93.65000152587891 226.6699981689453 12.63000011444092
94.69999694824219 226.9100036621094 14.92000007629395
96.5 227.4600067138672 9.069999694824219
94.44999694824219 226.9100036621094 10.69999980926514
94.20999908447266 226.9199981689453 6.889999866485596
91.15000152587891 226.0599975585938 14.53999996185303
91.31999969482422 226.0899963378906 12.68000030517578
90.98999786376953 226.0299987792969 11.05000019073486
92.87000274658203 226.4499969482422 14.6899995803833
92.44999694824219 226.3800048828125 12.59000015258789
92.44999694824219 226.3399963378906 15.35999965667725
93.01000213623047 226.5500030517578 12.47000026702881
91.54000091552734 226.1699981689453 11.01000022888184
92.05999755859375 226.3000030517578 10.73999977111816
95.91000366210938 226.7100067138672 7.579999923706055
91.40000152587891 225.4900054931641 14.43000030517578
90.68000030517578 225.3200073242188 13.67000007629395
91.13999938964844 225.4400024414062 13.14000034332275
92.51999664306641 225.8500061035156 11.1899995803833
92.80999755859375 225.8999938964844 9.560000419616699
92.84999847412109 225.8699951171875 12.61999988555908
92.08000183105469 225.6999969482422 11.77999973297119
92.44999694824219 225.8999938964844 4.639999866485596
91.65000152587891 225.6000061035156 12.75
92.76999664306641 225.8500061035156 15.05000019073486
93.36000061035156 226.0399932861328 12.31999969482422
95.22000122070312 226.5 12.6899995803833
91.84999847412109 225.7299957275391 4.800000190734863
93.81999969482422 226.1300048828125 11.57999992370605
94.15000152587891 226.25 9.869999885559082
94.25 226.2899932861328 7.849999904632568
94.04000091552734 226.1699981689453 12.57999992370605
93.08000183105469 226.0700073242188 4.619999885559082
95.11000061035156 226.5 9.010000228881836
94.76999664306641 226.4199981689453 7.53000020980835
93.09999847412109 226 8.010000228881836
93.68000030517578 226.1900024414062 4.989999771118164
91.40000152587891 225.5299987792969 11.31999969482422
95.33000183105469 226.5899963378906 7.320000171661377
93.81999969482422 226.0800018310547 14.56999969482422
93.48000335693359 226.1399993896484 6.78000020980835
94.98999786376953 226.4600067138672 11.57999992370605
95.37999725341797 225.8300018310547 8.680000305175781
96.08999633789062 226 8.949999809265137
95.20999908447266 225.7700042724609 10.67000007629395
91.88999938964844 224.8699951171875 14.51000022888184
95.08000183105469 225.7200012207031 12.90999984741211
92.91000366210938 225.1699981689453 14.07999992370605
92.98000335693359 225.2100067138672 11.32999992370605
92.11000061035156 224.9600067138672 12.77999973297119
91.62999725341797 224.8200073242188 13.35000038146973
93.66000366210938 225.3800048828125 11.96000003814697
92.33000183105469 224.3300018310547 14.61999988555908
91.40000152587891 224.1199951171875 13.21000003814697
92.44000244140625 224.3899993896484 12.19999980926514
93.45999908447266 224.6100006103516 14.52999973297119
92.55999755859375 224.4400024414062 12.97999954223633
93.15000152587891 224.5599975585938 12.97999954223633
93.86000061035156 224.7200012207031 13.52999973297119
96.22000122070312 225.3500061035156 13.4399995803833
94.34999847412109 224.8600006103516 12.84000015258789
93.11000061035156 224.0099945068359 13.93000030517578
92.13999938964844 223.75 14.60000038146973
93.76999664306641 224.1699981689453 14.25
92.41000366210938 223.8099975585938 13.22000026702881
93.45999908447266 224.1100006103516 12.69999980926514
95.37000274658203 224.5399932861328 13.31999969482422
93.58999633789062 223.4900054931641 14.23999977111816
94.16999816894531 223.6300048828125 14.17000007629395
93.95999908447266 224.3000030517578 13.51000022888184
93.66999816894531 224.2200012207031 14.14000034332275
93.15000152587891 224.1100006103516 14.78999996185303
92.51000213623047 223.8999938964844 13.4399995803833
93.20999908447266 224.8500061035156 14.44999980926514
92.02999877929688 224.5399932861328 13.4399995803833
94.43000030517578 225.1600036621094 12.73999977111816
93.12000274658203 224.7899932861328 12.82999992370605
94.83000183105469 225.8899993896484 10.23999977111816
92.20999908447266 225.2700042724609 12.13000011444092
92.87000274658203 225.4299926757812 13.39000034332275
92.76000213623047 225.3999938964844 11.89999961853027
91.88999938964844 225.1699981689453 12.93000030517578
94.30999755859375 225.7400054931641 10.51000022888184
91.93000030517578 225.2299957275391 14.56999969482422
92.95999908447266 226.0399932861328 9.039999961853027
94.05999755859375 226.3200073242188 11.30000019073486
93.16999816894531 226.1100006103516 12.26000022888184
92.79000091552734 226.0099945068359 10.05000019073486
92.58000183105469 225.9400024414062 11
91.47000122070312 225.6799926757812 13.09000015258789
91.81999969482422 225.8000030517578 12.38000011444092
92.19000244140625 225.8800048828125 11.6899995803833
94.06999969482422 226.3000030517578 9.909999847412109
91.48999786376953 225.7400054931641 14.57999992370605
94.66999816894531 226.5200042724609 12.60000038146973
90.65000152587891 225.4799957275391 12.92000007629395
95.09999847412109 226.5399932861328 7.360000133514404
94.56999969482422 226.4100036621094 7.78000020980835
95.11000061035156 226.5399932861328 9
93.02999877929688 225.9900054931641 4.590000152587891
92.31999969482422 225.7899932861328 4.739999771118164
93.45999908447266 226.1000061035156 5.559999942779541
94.20999908447266 226.9600067138672 6.849999904632568
93.37999725341797 226.7599945068359 8.079999923706055
94.06999969482422 226.9600067138672 9.439999580383301
92.79000091552734 226.6000061035156 6.860000133514404
92.48000335693359 226.6000061035156 10.55000019073486
93.27999877929688 226.8399963378906 13.71000003814697
93.33000183105469 226.8099975585938 12.27000045776367
92.54000091552734 226.6399993896484 12.18000030517578
92.98999786376953 226.6999969482422 8.630000114440918
91.26000213623047 226.2799987792969 11.02999973297119
90.91999816894531 226.2200012207031 13.35000038146973
91.36000061035156 226.2599945068359 8.260000228881836
94.61000061035156 227.1100006103516 10.60000038146973
92.30000305175781 226.5099945068359 7.190000057220459
92.56999969482422 226.6600036621094 15.15999984741211
91.18000030517578 226.3000030517578 12.32999992370605
90.45999908447266 226.0899963378906 12.40999984741211
93.62999725341797 226.8800048828125 10.0600004196167
91.86000061035156 226.4299926757812 10.80000019073486
91.87999725341797 227.25 13.35999965667725
91.45999908447266 227.0899963378906 9.560000419616699
92.90000152587891 227.4799957275391 14.01000022888184
93.19999694824219 227.5599975585938 11.8100004196167
92.16999816894531 227.2799987792969 12.47000026702881
89.83000183105469 226.7100067138672 12.11999988555908
93.90000152587891 227.6499938964844 7.300000190734863
93.30999755859375 227.5500030517578 10.55000019073486
93.61000061035156 227.5899963378906 8.319999694824219
92.95999908447266 227.4799957275391 9.829999923706055
89.80000305175781 227.2700042724609 8.680000305175781
92.51000213623047 227.9799957275391 11.42000007629395
90.37000274658203 227.4100036621094 8.489999771118164
93.20999908447266 228.1600036621094 9.909999847412109
93.34999847412109 228.2599945068359 14.57999992370605
90.51000213623047 227.4900054931641 11.65999984741211
91.09999847412109 227.6300048828125 8.529999732971191
91.79000091552734 228.3500061035156 8.279999732971191
91.93000030517578 228.4299926757812 11.4399995803833
92.62000274658203 228.5800018310547 10.03999996185303
90.33000183105469 227.9799957275391 8.060000419616699
92.62000274658203 229.1999969482422 9.880000114440918
90.25 228.5700073242188 9.430000305175781
93.58999633789062 230.1799926757812 10.39999961853027
96.33000183105469 227.3800048828125 8.979999542236328
96.19000244140625 226.8699951171875 7.869999885559082
95.26999664306641 225.6799926757812 8.449999809265137
95.18000030517578 225.75 12.92000007629395
94.54000091552734 225.9700012207031 11.71000003814697
94.66999816894531 226.3899993896484 11.32999992370605
94.58999633789062 225.8899993896484 10.19999980926514
93.95999908447266 226 8.529999732971191
94.05999755859375 226.4900054931641 9.649999618530273
94 226.4600067138672 11.05000019073486
94.08999633789062 226.4799957275391 8.119999885559082
94.13999938964844 226.9799957275391 10.59000015258789
94.26999664306641 227.2899932861328 6.869999885559082
93.44000244140625 224.5299987792969 15.6899995803833
93.52999877929688 224.8000030517578 14.73999977111816
93.33999633789062 224.0099945068359 14.64000034332275
93.48999786376953 224.4700012207031 12.60000038146973
93.47000122070312 224.3699951171875 13.82999992370605
93.55999755859375 224.8699951171875 13.36999988555908
94.06999969482422 226.7100067138672 12.97000026702881
93.94000244140625 226.2100067138672 11.94999980926514
94.06999969482422 228.9600067138672 10.21000003814697
92.79000091552734 224.0599975585938 13.34000015258789
93.44000244140625 226.4199981689453 12.44999980926514
93.51000213623047 226.6399993896484 10.02000045776367
93.69999694824219 227.4600067138672 10.13000011444092
93.48999786376953 226.5299987792969 8.170000076293945
92.97000122070312 224.75 13.28999996185303
93.08000183105469 225.1000061035156 12.63000011444092
93.52999877929688 226.5299987792969 6.679999828338623
93.73999786376953 227.7700042724609 12.3100004196167
93.66999816894531 227.0800018310547 7.860000133514404
93.47000122070312 226.4600067138672 11
93.04000091552734 224.9900054931641 15.28999996185303
92.98000335693359 227.2700042724609 9.670000076293945
92.83000183105469 226.6000061035156 6.800000190734863
93.55999755859375 229.5200042724609 10.06999969482422
93.34999847412109 228.7599945068359 9.899999618530273
93.19000244140625 228.0899963378906 8.439999580383301
92.83000183105469 226.2799987792969 4.699999809265137
92.37999725341797 225.0599975585938 12.3100004196167
92.65000152587891 226.1699981689453 13.1899995803833
93.11000061035156 228.1600036621094 14.51000022888184
92.48999786376953 225.4400024414062 11.60999965667725
92.72000122070312 226.2799987792969 10.60999965667725
92.62000274658203 225.8300018310547 8.159999847412109
92.56999969482422 225.7200012207031 10.85000038146973
92.30000305175781 224.6900024414062 13
93.06999969482422 227.6999969482422 10.57999992370605
92.19999694824219 224.5 14.10000038146973
92.98999786376953 227.5200042724609 11.72999954223633
92.72000122070312 226.2799987792969 11.97000026702881
91.80000305175781 225.7599945068359 12.30000019073486
92.15000152587891 226.9700012207031 11.94999980926514
92 226.3699951171875 10.73999977111816
92.22000122070312 227.1600036621094 9.439999580383301
92.23999786376953 227.4499969482422 11.44999980926514
92.62000274658203 228.8699951171875 9.869999885559082
92.11000061035156 226.6799926757812 9.859999656677246
92.19999694824219 226.8800048828125 7.230000019073486
92.31999969482422 227.6999969482422 10.48999977111816
91.91999816894531 225.7100067138672 4.840000152587891
92.44000244140625 228.1799926757812 11.57999992370605
92.48999786376953 228.3200073242188 10.32999992370605
91.56999969482422 224.8399963378906 14.77999973297119
91.58999633789062 224.8399963378906 13.39999961853027
91.69000244140625 225.2899932861328 14.27000045776367
91.44000244140625 226.6999969482422 11.06999969482422
91.13999938964844 225.5899963378906 13.0600004196167
91.59999847412109 227.3300018310547 10.97000026702881
91.25 226.1900024414062 12.77999973297119
91.34999847412109 226.1600036621094 8.449999809265137
91.23000335693359 226.2100067138672 14.35999965667725
91.63999938964844 227.3099975585938 7.920000076293945
91.83000183105469 228.0800018310547 8.140000343322754
91.76999664306641 228.0299987792969 11.01000022888184
92.20999908447266 229.7100067138672 10.05000019073486
90.54000091552734 225.4700012207031 12.94999980926514
91.22000122070312 227.9900054931641 9.420000076293945
90.77999877929688 226.3500061035156 11.93000030517578
91.16000366210938 227.5700073242188 8.510000228881836
90.47000122070312 227.7700042724609 11.73999977111816
90.52999877929688 227.8999938964844 9.090000152587891
90.30000305175781 226.8800048828125 8.460000038146973
90.15000152587891 226.4299926757812 11.6899995803833
90.44000244140625 227.4400024414062 8.140000343322754
88.77999877929688 227.0500030517578 9.539999961853027
90.33000183105469 227.5500030517578 9.430000305175781
90.31999969482422 227.3699951171875 11.72999954223633
90.26000213623047 227.1900024414062 10.80000019073486
90.13999938964844 226.7200012207031 8.359999656677246
90.04000091552734 226.2299957275391 12.18000030517578
90.48000335693359 228.0599975585938 9.050000190734863
90.59999847412109 226.3200073242188 11.89000034332275
90.69000244140625 226.5399932861328 13.10999965667725
90.76000213623047 226.8099975585938 11.52999973297119
90.23000335693359 224.7899932861328 13.27999973297119
90.37000274658203 225.3300018310547 12.85999965667725
90.98000335693359 227.8800048828125 10.98999977111816
90.51999664306641 225.8699951171875 12.72000026702881
90.87999725341797 227.4299926757812 8.630000114440918
91.79000091552734 228.5599975585938 8.210000038146973
91.36000061035156 226.7700042724609 11.19999980926514
91.43000030517578 227.1100006103516 9.710000038146973
91.18000030517578 226.1999969482422 8.260000228881836
92.08999633789062 229.5800018310547 10.01000022888184
91.19000244140625 226 13.06999969482422
91.63999938964844 227.5399932861328 15.34000015258789
91.13999938964844 225.7299957275391 14.53999996185303
91.20999908447266 226.1699981689453 11
91.65000152587891 228 8.109999656677246
91.08000183105469 225.4100036621094 13.01000022888184
91.45999908447266 227.0299987792969 12.67000007629395
91.51999664306641 227.3399963378906 10.97999954223633
92.47000122070312 228.1300048828125 11.48999977111816
92.5 228.3899993896484 10.1899995803833
92.19000244140625 227.0800018310547 9.520000457763672
92.27999877929688 227.5200042724609 8.289999961853027
92.08999633789062 226.8399963378906 8.229999542236328
92.06999969482422 226.6900024414062 7.519999980926514
92.08999633789062 226.5299987792969 12.55000019073486
91.98000335693359 226.1999969482422 10.76000022888184
91.87000274658203 225.8399963378906 11.88000011444092
92.12999725341797 226.8000030517578 10.78999996185303
91.70999908447266 225.0899963378906 11.28999996185303
91.77999877929688 225.4100036621094 12.97999954223633
91.5 224.3000030517578 13.22000026702881
91.69000244140625 224.9299926757812 13.34000015258789
92.30000305175781 227.4600067138672 11.39999961853027
92.26999664306641 227.3000030517578 13.56999969482422
92.63999938964844 228.9600067138672 9.899999618530273
92.25 227.1600036621094 12.65999984741211
91.38999938964844 223.6999969482422 13.39999961853027
92.58000183105469 225.8300018310547 15.18000030517578
92.08000183105469 223.8500061035156 14.32999992370605
92.26999664306641 224.7899932861328 12.82999992370605
92.19999694824219 224.4400024414062 13.94999980926514
93.08000183105469 228.0599975585938 8.470000267028809
92.75 226.7799987792969 8.25
93.19000244140625 228.5899963378906 8.220000267028809
92.80000305175781 226.7899932861328 11.1899995803833
92.54000091552734 226.1000061035156 4.739999771118164
92.70999908447266 226.5 9.710000038146973
93.11000061035156 227.9600067138672 14.48999977111816
93.01000213623047 227.8200073242188 10.46000003814697
92.59999847412109 225.9199981689453 12.63000011444092
93.31999969482422 228.9299926757812 9.989999771118164
92.58000183105469 226.0099945068359 10.09000015258789
92.69999694824219 226.3200073242188 14.90999984741211
93.44999694824219 229.5299987792969 10.05000019073486
92.83999633789062 227.0599975585938 12.60000038146973
92.61000061035156 226.0899963378906 13.52999973297119
92.51999664306641 225.6799926757812 11.39000034332275
92.66999816894531 226.2799987792969 11.47999954223633
92.63999938964844 226.5399932861328 6.889999866485596
92.94000244140625 227.3099975585938 14.06999969482422
93.62000274658203 227.8699951171875 10.23999977111816
93.48000335693359 227.4299926757812 8.180000305175781
93.55000305175781 227.8600006103516 7.21999979019165
93.12000274658203 226.1799926757812 4.639999866485596
93.25 226.5700073242188 6.53000020980835
93.16000366210938 226.1900024414062 7.630000114440918
93.18000030517578 225.9299926757812 15.61999988555908
92.97000122070312 225.0899963378906 14.3100004196167
93.23999786376953 226.1900024414062 13.8100004196167
92.91000366210938 225.1399993896484 11.40999984741211
92.62000274658203 223.7100067138672 13.42000007629395
92.75 224.25 13.25
93.30000305175781 226.8800048828125 8.170000076293945
92.87000274658203 224.7799987792969 12.72000026702881
93.59999847412109 228.0099945068359 8.069999694824219
93.12000274658203 225.9299926757812 12.47999954223633
93.05999755859375 225.3699951171875 15.64999961853027
94.04000091552734 227.0500030517578 9.340000152587891
93.88999938964844 226.5800018310547 6.869999885559082
93.87999725341797 226.4400024414062 8.829999923706055
93.90000152587891 226.5599975585938 9.630000114440918
94.08000183105469 227.0700073242188 12.3100004196167
93.80999755859375 226.2100067138672 10.6899995803833
94.01000213623047 227.1399993896484 6.789999961853027
93.66999816894531 225.7700042724609 5.480000019073486
94.25 227.8399963378906 13.21000003814697
93.83999633789062 226.0700073242188 12.75
93.5 224.6100006103516 14.56999969482422
93.79000091552734 225.8500061035156 15.09000015258789
93.33999633789062 224.2400054931641 12.71000003814697
93.95999908447266 226.6199951171875 12.96000003814697
93.31999969482422 223.9900054931641 14.39000034332275
93.83000183105469 226.2799987792969 8
93.62999725341797 225.2700042724609 11.9399995803833
93.44999694824219 224.3600006103516 16.20000076293945
93.51999664306641 224.9400024414062 13.02999973297119
94.86000061035156 227.7599945068359 6.590000152587891
94.61000061035156 226.6600036621094 9.659999847412109
94.97000122070312 227.9400024414062 10.25
94.61000061035156 226.7200012207031 7.079999923706055
94.59999847412109 226.3899993896484 11.57999992370605
94.01999664306641 223.9400024414062 14.22000026702881
94.37000274658203 225.4100036621094 12.57999992370605
94.73000335693359 227.0599975585938 8.840000152587891
94.5 226.3099975585938 7.849999904632568
94.5 225.8399963378906 14.78999996185303
95.51000213623047 227.4299926757812 10.97000026702881
95.05999755859375 225.5 13.01000022888184
95.26999664306641 226.6999969482422 7.289999961853027
95.26999664306641 226.3999938964844 11.44999980926514
95.08000183105469 225.8000030517578 8.369999885559082
94.79000091552734 224.4199981689453 13.4399995803833
95.18000030517578 225.9499969482422 15.32999992370605
95.90000152587891 226.9299926757812 7.800000190734863
96.02999877929688 227.2299957275391 9.319999694824219
95.66000366210938 225.5399932861328 13.09000015258789
96.48999786376953 226.4499969482422 8.329999923706055
96.30000305175781 227.3999938964844 9.130000114440918
95.43000030517578 226.6199951171875 11.44999980926514
95.37999725341797 226.3500061035156 8.369999885559082
95.62999725341797 227.3099975585938 9.529999732971191
95.68000030517578 227.5 7.670000076293945
95.58000183105469 226.9600067138672 7.510000228881836
94.94999694824219 224.7599945068359 13.03999996185303
95.5 226.7899932861328 9.369999885559082
94.51000213623047 225.7100067138672 8.399999618530273
94.05000305175781 224.0299987792969 14.15999984741211
94.66999816894531 226.3099975585938 7.940000057220459
94.5 225.7400054931641 14.07999992370605
94.69000244140625 226.5099945068359 11.53999996185303
94.55999755859375 225.8699951171875 12.78999996185303
94.75 226.8500061035156 14.6899995803833
94.52999877929688 226.0299987792969 16.65999984741211
94.41999816894531 225.3300018310547 12.72999954223633
94.77999877929688 226.6600036621094 9.569999694824219
94.23000335693359 224.6399993896484 13.72999954223633
93.43000030517578 224.1399993896484 12.81999969482422
93.51999664306641 224.6100006103516 14.47999954223633
93.88999938964844 225.7400054931641 8.470000267028809
93.79000091552734 225.7200012207031 15.13000011444092
94.06999969482422 226.6999969482422 10.43000030517578
93.38999938964844 224.0200042724609 14.18000030517578
93.87999725341797 225.9199981689453 13.3100004196167
94.18000030517578 227 7
94.19000244140625 227.0899963378906 12.22999954223633
93.47000122070312 224.5399932861328 15.60000038146973
94.55000305175781 228.6799926757812 13.11999988555908
94.41999816894531 228.1499938964844 12.68000030517578
94.30000305175781 227.3999938964844 8.970000267028809
94.30999755859375 227.5800018310547 12.57999992370605
94 226.2299957275391 9.659999847412109
93.56999969482422 224.7100067138672 13.39999961853027
94.04000091552734 226.5500030517578 11.68000030517578
92.80000305175781 224.0399932861328 13.39000034332275
92.91999816894531 224.6000061035156 13.25
93.02999877929688 225.0200042724609 15.22000026702881
93.44999694824219 226.4400024414062 5.409999847412109
93.01999664306641 225.0599975585938 14.48999977111816
93.44000244140625 226.5700073242188 10.30000019073486
93.36000061035156 225.9499969482422 4.739999771118164
92.87999725341797 224.4499969482422 14.9399995803833
93.51999664306641 227.1799926757812 16.6200008392334
93.37999725341797 226.3999938964844 12.15999984741211
93.81999969482422 227.9499969482422 7.679999828338623
93.76000213623047 227.7200012207031 10.13000011444092
93.61000061035156 227.1399993896484 10.11999988555908
93.51999664306641 226.7799987792969 7.960000038146973
93.26999664306641 225.9299926757812 11.17000007629395
93.69000244140625 227.3699951171875 7.679999828338623
93.40000152587891 226.3300018310547 6.869999885559082
93.98000335693359 228.5200042724609 7.739999771118164
93.83000183105469 228.1100006103516 12.23999977111816
92.08999633789062 223.9600067138672 14.25
92.43000030517578 225.2899932861328 11.84000015258789
92.19999694824219 224.4600067138672 14.21000003814697
92.58999633789062 225.8999938964844 11.36999988555908
92.83999633789062 226.8800048828125 13.01000022888184
92.62999725341797 226.0299987792969 9.899999618530273
92.68000030517578 225.9299926757812 4.630000114440918
92.98999786376953 227.5899963378906 11.96000003814697
92.48999786376953 225.4100036621094 10.61999988555908
92.94999694824219 227.1900024414062 9.649999618530273
93.22000122070312 228.4299926757812 14.73999977111816
92.54000091552734 225.6100006103516 8.189999580383301
92.94999694824219 227.3600006103516 14.10000038146973
93.51000213623047 229.3899993896484 10.03999996185303
93.37999725341797 228.8699951171875 9.989999771118164
92.90000152587891 227.2700042724609 15.06999969482422
92.79000091552734 226.5800018310547 10.89000034332275
93.08000183105469 227.8600006103516 14.42000007629395
93.09999847412109 227.8899993896484 8.649999618530273
92.59999847412109 226.1699981689453 15.43000030517578
91.51000213623047 224.5899963378906 13.32999992370605
91.65000152587891 225.2400054931641 12.68000030517578
91.80999755859375 225.8500061035156 12.14999961853027
91.98999786376953 226.5399932861328 10.75
91.95999908447266 226.4499969482422 11.8100004196167
91.33999633789062 224 13.40999984741211
92.05000305175781 226.5899963378906 9.920000076293945
92.11000061035156 226.8699951171875 7.050000190734863
92.06999969482422 226.6900024414062 8.770000457763672
91.80000305175781 225.7200012207031 13.77000045776367
91.62000274658203 225.0700073242188 14.43000030517578
92.62999725341797 228.8699951171875 9.970000267028809
92.09999847412109 226.9900054931641 12.22999954223633
92.29000091552734 227.5599975585938 11.4399995803833
92.48999786376953 228.3200073242188 10.14999961853027
92.29000091552734 227.6900024414062 10.42000007629395
92.40000152587891 227.8999938964844 7.760000228881836
92.41999816894531 228.1499938964844 11.55000019073486
92.66999816894531 228.9799957275391 8.760000228881836
91.88999938964844 228.5800018310547 8.289999961853027
91.76999664306641 228.0399932861328 8.149999618530273
92.12999725341797 229.5399932861328 9.810000419616699
91.25 226.0800018310547 10.69999980926514
91.33999633789062 226.5 12.47999954223633
90.98999786376953 225.3200073242188 13.10000038146973
90.88999938964844 224.7299957275391 12.96000003814697
91.26999664306641 226.3200073242188 14.88000011444092
91.47000122070312 227.0899963378906 12.72000026702881
91.51000213623047 227.2799987792969 11
91.37999725341797 226.6199951171875 11.15999984741211
91.65000152587891 227.8099975585938 11.02000045776367
91.30999755859375 226.3000030517578 8.229999542236328
91.13999938964844 225.7799987792969 14.35999965667725
91.56999969482422 227.3099975585938 10.25
91.61000061035156 227.4499969482422 9.159999847412109
90.69000244140625 226.0899963378906 9.770000457763672
90.73000335693359 226.3800048828125 13.09000015258789
90.76999664306641 226.4700012207031 11.73999977111816
91.08000183105469 227.6900024414062 10.97000026702881
90.88999938964844 227.1100006103516 11.53999996185303
91 227.2799987792969 9.489999771118164
90.61000061035156 225.9900054931641 11.13000011444092
90.31999969482422 227.3200073242188 8.449999809265137
90.16000366210938 226.7599945068359 8.369999885559082
90.05000305175781 226.3899993896484 12.26000022888184
90.37000274658203 227.6300048828125 11.72000026702881
90.44999694824219 227.8500061035156 9.180000305175781
89.56999969482422 227.2400054931641 8.630000114440918
90.13999938964844 228.5500030517578 9.380000114440918
89.76000213623047 226.9700012207031 8.390000343322754
90.59999847412109 227.3000030517578 11.72999954223633
90.58999633789062 227.3099975585938 8.170000076293945
90.41000366210938 226.5599975585938 8.399999618530273
91.33000183105469 227.5099945068359 13.57999992370605
91.06999969482422 226.3000030517578 15.10000038146973
90.79000091552734 225.1900024414062 12.93000030517578
91.26000213623047 227.1999969482422 11.10000038146973
91.02999877929688 226.1100006103516 12.11999988555908
90.98000335693359 225.9600067138672 10.82999992370605
91.26000213623047 227.0200042724609 8.090000152587891
90.62000274658203 224.5899963378906 12.8100004196167
91.12000274658203 226.4400024414062 11.27999973297119
90.98999786376953 225.9299926757812 9.130000114440918
90.98999786376953 225.9400024414062 14.47000026702881
92.38999938964844 229.2299957275391 10
91.30000305175781 224.8600006103516 14.75
91.5 225.6799926757812 14.21000003814697
91.79000091552734 226.8000030517578 12.88000011444092
91.48999786376953 225.4700012207031 12.97999954223633
91.72000122070312 226.3999938964844 8.560000419616699
91.30999755859375 224.8200073242188 12.84000015258789
91.48000335693359 225.4700012207031 9.310000419616699
91.91000366210938 227.1999969482422 13.57999992370605
91.81999969482422 226.8899993896484 10.89999961853027
91.63999938964844 226.25 10.98999977111816
91.36000061035156 225.0200042724609 14.1899995803833
92.25 228.5800018310547 11.82999992370605
91.80000305175781 226.6999969482422 7.739999771118164
92.26999664306641 225.9199981689453 14.3100004196167
92.48000335693359 226.6199951171875 15.72999954223633
92.48000335693359 226.6000061035156 10.60999965667725
92.06999969482422 224.8899993896484 13.53999996185303
92.22000122070312 225.6499938964844 8.060000419616699
92.05999755859375 224.9799957275391 14.98999977111816
92.38999938964844 226.3399963378906 14.77999973297119
92.58000183105469 227.0200042724609 11.28999996185303
91.87999725341797 224.2200012207031 13.5
92.22000122070312 225.6000061035156 11.59000015258789
92.52999877929688 226.7299957275391 6.75
92.37000274658203 226.1199951171875 10.18000030517578
93.27999877929688 226.8800048828125 15.76000022888184
93.19000244140625 226.4700012207031 11.64999961853027
93.33000183105469 227.0099945068359 8.270000457763672
92.91000366210938 225.3399963378906 12.80000019073486
92.91999816894531 225.2799987792969 11.1899995803833
92.54000091552734 223.8300018310547 13.27999973297119
93.48000335693359 227.5399932861328 10.4399995803833
92.80000305175781 224.9799957275391 13.88000011444092
93.05000305175781 225.75 4.639999866485596
93.22000122070312 226.6699981689453 12.78999996185303
93.09999847412109 225.9600067138672 7.550000190734863
92.90000152587891 225.2100067138672 15.05000019073486
92.76999664306641 224.7400054931641 12.63000011444092
93.30000305175781 226.8800048828125 14.11999988555908
94.05999755859375 227.0399932861328 12.27999973297119
93.98000335693359 226.6699981689453 11.61999988555908
93.87999725341797 226.3800048828125 10.61999988555908
93.61000061035156 225.3200073242188 11.78999996185303
94.16000366210938 227.3999938964844 13.02000045776367
93.38999938964844 224.3600006103516 14.31999969482422
93.55999755859375 224.9299926757812 12.81999969482422
93.29000091552734 223.8399963378906 13.97000026702881
93.51999664306641 224.7899932861328 14.88000011444092
93.81999969482422 226.1199951171875 9.619999885559082
93.79000091552734 225.8099975585938 5.260000228881836
93.84999847412109 226.1699981689453 12.96000003814697
93.37000274658203 224.2400054931641 12.81999969482422
94.56999969482422 226.6699981689453 14.30000019073486
94.70999908447266 227.2299957275391 12.77999973297119
94.54000091552734 226.4900054931641 9.460000038146973
93.98999786376953 224.2100067138672 13.75
94.41999816894531 225.9400024414062 16.19000053405762
94.27999877929688 225.3000030517578 12.6899995803833
94.38999938964844 225.9199981689453 14.46000003814697
94.48999786376953 226.3399963378906 11.64000034332275
94.33999633789062 225.5099945068359 8.340000152587891
94.34999847412109 225.6900024414062 13.32999992370605
94.59999847412109 226.6799926757812 7.059999942779541
95.11000061035156 225.9299926757812 15.27000045776367
95.36000061035156 226.7599945068359 9.560000419616699
95.01999664306641 225.4600067138672 12.9399995803833
95.12999725341797 225.7899932861328 10.44999980926514
95.45999908447266 227.2599945068359 8.100000381469727
95.51000213623047 227.0700073242188 9.369999885559082
95.5 226.6600036621094 11.47999954223633
95.08999633789062 228.1199951171875 13.0600004196167
95.48000335693359 226.5299987792969 12.69999980926514
95.62000274658203 226.8699951171875 7.570000171661377
95.05000305175781 226.4199981689453 8.659999847412109
94.83000183105469 227.1900024414062 8.729999542236328
94.83999633789062 226.1799926757812 14.18000030517578
94.70999908447266 227.4199981689453 10.72000026702881
95.08999633789062 226.5299987792969 7.28000020980835
94.86000061035156 226.8999938964844 9.659999847412109
93.63999938964844 229.6100006103516 10.19999980926514
94.54000091552734 226.3200073242188 7.78000020980835
94.29000091552734 226.5599975585938 12.64000034332275
94.54000091552734 226 9.920000076293945
94.34999847412109 226.6900024414062 10
94.34999847412109 225.9799957275391 14.39999961853027
94.19999694824219 227.0800018310547 10.78999996185303
94.72000122070312 224.6600036621094 13.1899995803833
94.29000091552734 225.9700012207031 15.82999992370605
93.83999633789062 226.4400024414062 8.760000228881836
93.80999755859375 226.2299957275391 11.27999973297119
93.34999847412109 227.1000061035156 16.27000045776367
93.76000213623047 226.0700073242188 12.52999973297119
93.80000305175781 226.4100036621094 10.1899995803833
94.11000061035156 224.4600067138672 13.75
93.94000244140625 225.4499969482422 12.73999977111816
93.58000183105469 227.8099975585938 7.190000057220459
93.77999877929688 226.9799957275391 6.860000133514404
93.63999938964844 227.5 7.960000038146973
93.27999877929688 228.4499969482422 10
92.87000274658203 227.2299957275391 9.729999542236328
93.23000335693359 226.4700012207031 6.670000076293945
92.73999786376953 227.1999969482422 12.64999961853027
92.98000335693359 226.6300048828125 11.35000038146973
92.65000152587891 228.0299987792969 9.960000038146973
92.98000335693359 227.1900024414062 8.159999847412109
93.16000366210938 226.4299926757812 8.029999732971191
93.22000122070312 226.5500030517578 5.389999866485596
92.51000213623047 228.7400054931641 10.02999973297119
92.98999786376953 226.6799926757812 9.979999542236328
93.27999877929688 225.1300048828125 12.73999977111816
93.34999847412109 224.3999938964844 15.57999992370605
93.36000061035156 226.2100067138672 4.75
93.51000213623047 223.8099975585938 14.34000015258789
93.33999633789062 224.6900024414062 13.28999996185303
92.75 226.0299987792969 4.699999809265137
92.29000091552734 226.9900054931641 9.699999809265137
92.02999877929688 227.3600006103516 13.55000019073486
92.05000305175781 227.7599945068359 11.36999988555908
92.45999908447266 226.2799987792969 9.829999923706055
92.22000122070312 227.6999969482422 8.189999580383301
92.30999755859375 226.7799987792969 10.93000030517578
92.40000152587891 226.0700073242188 12.44999980926514
92.62999725341797 225.3200073242188 12.27999973297119
92.77999877929688 224.4400024414062 13.48999977111816
92.69000244140625 224.8300018310547 12.9399995803833
92.62000274658203 225.4900054931641 11.1899995803833
92.55000305175781 225.8200073242188 10.25
92.91000366210938 223.8000030517578 13.67000007629395
92.29000091552734 226.1999969482422 14.14000034332275
92.06999969482422 228.2400054931641 8.050000190734863
91.91000366210938 225.6600036621094 12.02000045776367
92.25 224.2899932861328 12.26000022888184
92.06999969482422 225.0599975585938 12.44999980926514
91.83000183105469 225.6999969482422 13.76000022888184
