217.0099945068359 232.9499969482422 16.26000022888184
217.7200012207031 233.8200073242188 12.88000011444092
218.2799987792969 233.9400024414062 13.11999988555908
217.6600036621094 233.7400054931641 9.640000343322754
219.6399993896484 234.2299957275391 8.760000228881836
217.1600036621094 233.6699981689453 12.77000045776367
216.3200073242188 233.4600067138672 14.19999980926514
215.9199981689453 233.3500061035156 13.11999988555908
216.4100036621094 233.4299926757812 10.14000034332275
216.6000061035156 233.4600067138672 9.039999961853027
218.6199951171875 233.9400024414062 7.730000019073486
216.1100006103516 233.4100036621094 12.0600004196167
216.7799987792969 233.5599975585938 11.5600004196167
215.6199951171875 233.25 11.64000034332275
214.9900054931641 233.0899963378906 12
214.9799957275391 233.0599975585938 8.659999847412109
215.5599975585938 233.1999969482422 8.529999732971191
214.5200042724609 232.9199981689453 7.769999980926514
213.9700012207031 232.7799987792969 7.769999980926514
213.3300018310547 232.6600036621094 7.679999828338623
213.6499938964844 232.7400054931641 9.659999847412109
217.0899963378906 233.6100006103516 9.710000038146973
219.0899963378906 234.1100006103516 8.260000228881836
214.7599945068359 233.0800018310547 13.40999984741211
212.8399963378906 232.5500030517578 10.82999992370605
216.0299987792969 233.4400024414062 15.77999973297119
215.3699951171875 233.2100067138672 13.10000038146973
213 232.5800018310547 9.710000038146973
219.5200042724609 234.8399963378906 8
217.6999969482422 234.4799957275391 15.10999965667725
216.6300048828125 234.1699981689453 11.23999977111816
216.8600006103516 234.1799926757812 9.630000114440918
215.4799957275391 233.8999938964844 14.4399995803833
215.8300018310547 233.9600067138672 12.36999988555908
217.1300048828125 234.2100067138672 8.189999580383301
215.0200042724609 233.7700042724609 13.77999973297119
215.6900024414062 233.8899993896484 9.770000457763672
219.1799926757812 234.8200073242188 13.19999980926514
214.8200073242188 233.6799926757812 7.800000190734863
216.2200012207031 234.0500030517578 9.960000038146973
214.8300018310547 233.6900024414062 11.34000015258789
214.1999969482422 233.5200042724609 8.069999694824219
214 233.4799957275391 9.210000038146973
213.1499938964844 233.2700042724609 10.63000011444092
212.1000061035156 233 9.970000267028809
213.6199951171875 233.3500061035156 7.679999828338623
215.3600006103516 233.8300018310547 11.71000003814697
216.0099945068359 233.9900054931641 11.30000019073486
216.7599945068359 234.7700042724609 11.26000022888184
215.8099975585938 234.6000061035156 13.59000015258789
217.5700073242188 235.0200042724609 13.59000015258789
216.2100067138672 234.6199951171875 7.679999828338623
215.3300018310547 234.4299926757812 9.720000267028809
215.0299987792969 234.3600006103516 11.60000038146973
217.0500030517578 234.8200073242188 9.550000190734863
214.4799957275391 234.2200012207031 11.43000030517578
213.1100006103516 233.8800048828125 12.75
213.6699981689453 233.9900054931641 9.189999580383301
212.2100067138672 233.6499938964844 11.10000038146973
215.8600006103516 235.1799926757812 7.829999923706055
216.3800048828125 235.3500061035156 8.109999656677246
215.7700042724609 235.25 12.07999992370605
214.6799926757812 234.9400024414062 11.14999961853027
213.9100036621094 234.7899932861328 12.44999980926514
214.9600067138672 235.0099945068359 9.609999656677246
214.5399932861328 235.6699981689453 9.689999580383301
214.7599945068359 235.7100067138672 11.81999969482422
216.25 229.5099945068359 14.61999988555908
214.9199981689453 229.2100067138672 12.32999992370605
216.7799987792969 229.6699981689453 13.72999954223633
214.7599945068359 229.1799926757812 10.92000007629395
214.6999969482422 229.7899932861328 13.06999969482422
213.0899963378906 229.4600067138672 8.979999542236328
214.5700073242188 229.7599945068359 11.92000007629395
217 230.3500061035156 13.27999973297119
215.9199981689453 230.0700073242188 13.61999988555908
218.1499938964844 230.6600036621094 13.56999969482422
216.4700012207031 230.25 13.26000022888184
214.1999969482422 229.7400054931641 8.289999961853027
217.7200012207031 230.5399932861328 14.86999988555908
214.3999938964844 229.75 10.40999984741211
213.3500061035156 230.1999969482422 8.609999656677246
213.8699951171875 230.3500061035156 8.210000038146973
214.8300018310547 230.5399932861328 11.53999996185303
215.2599945068359 230.5800018310547 15.32999992370605
214.9400024414062 230.5299987792969 12.75
214.6799926757812 230.5200042724609 10.17000007629395
215.8099975585938 230.8000030517578 10.5600004196167
214.4600067138672 230.4900054931641 8.149999618530273
215.5800018310547 230.6799926757812 13.39999961853027
215.8099975585938 230.7299957275391 15.57999992370605
217.1199951171875 231.1000061035156 11.82999992370605
214.2100067138672 230.3699951171875 11.52000045776367
217.8699951171875 231.2400054931641 13.35999965667725
216.1999969482422 230.8899993896484 8.659999847412109
214.0700073242188 230.3399963378906 10.03999996185303
217.4499969482422 231.1199951171875 14.63000011444092
215.6600036621094 230.7799987792969 8.880000114440918
216.1100006103516 230.8300018310547 12.88000011444092
215.7299957275391 230.6900024414062 14.57999992370605
218.5700073242188 231.3999938964844 14.51000022888184
216.3800048828125 230.9400024414062 10.03999996185303
213.3800048828125 230.7700042724609 11.73999977111816
214.7799987792969 231.0899963378906 13.64999961853027
214.0500030517578 230.9700012207031 7.460000038146973
213.7200012207031 230.7799987792969 14.97000026702881
215.0700073242188 231.1699981689453 11.40999984741211
214.9100036621094 231.1499938964844 9.789999961853027
214.6699981689453 231.1300048828125 7.730000019073486
215.9100036621094 231.4499969482422 8.659999847412109
215.7700042724609 231.3300018310547 12.51000022888184
214.1999969482422 230.9199981689453 14.28999996185303
216.8000030517578 231.6199951171875 11.90999984741211
216.0800018310547 231.4299926757812 10.31999969482422
216.3800048828125 231.4799957275391 13.19999980926514
215.9900054931641 231.4299926757812 9.689999580383301
215.7299957275391 231.4299926757812 7.429999828338623
215.4900054931641 231.25 14.8100004196167
217.7599945068359 231.8099975585938 15.5
216.1600036621094 231.4700012207031 11.27000045776367
213.0299987792969 231.2400054931641 11.39000034332275
213.3899993896484 231.3300018310547 9.439999580383301
214.6399993896484 231.5500030517578 15.65999984741211
214.5200042724609 231.5399932861328 14.59000015258789
212.6699981689453 231.1100006103516 13.1899995803833
214.1799926757812 231.5099945068359 11.78999996185303
214.8399963378906 231.6699981689453 12.30000019073486
214.7700042724609 231.6799926757812 11.40999984741211
213.6799926757812 231.3800048828125 12.02000045776367
215.75 231.9100036621094 10.52999973297119
214.0299987792969 231.4900054931641 10.19999980926514
213.1600036621094 231.2599945068359 12.55000019073486
215.0200042724609 231.7100067138672 14
215.7200012207031 231.8699951171875 14.89999961853027
215.6100006103516 231.8899993896484 9.319999694824219
215.3999938964844 231.8699951171875 7.400000095367432
215.2700042724609 231.7899932861328 11.14000034332275
217.5 231.7400054931641 13.38000011444092
216.8999938964844 232.2299957275391 10.22000026702881
218.4900054931641 232.5299987792969 14.17000007629395
217.8800048828125 232.3999938964844 13.96000003814697
214.3800048828125 231.5200042724609 13.39999961853027
216.5200042724609 232.1000061035156 11.85999965667725
217.25 232.2700042724609 13.10999965667725
216.1499938964844 232.0599975585938 8.819999694824219
215.8899993896484 231.9499969482422 11.55000019073486
217.6799926757812 232.3699951171875 11.88000011444092
214.0800018310547 232.0700073242188 13.64999961853027
214.6399993896484 232.2100067138672 13.34000015258789
214.4900054931641 232.1799926757812 12
213.9100036621094 232.0599975585938 11.82999992370605
214.3300018310547 232.1900024414062 10.40999984741211
213.3800048828125 232 7.510000228881836
213.7299957275391 232.0299987792969 10.47000026702881
217.7799987792969 233.0500030517578 10.73999977111816
217.9700012207031 233.1100006103516 7.610000133514404
218.8999938964844 233.3000030517578 10.69999980926514
218.2899932861328 233.1900024414062 10.64999961853027
217.4199981689453 232.9900054931641 7.480000019073486
213.5599975585938 231.9499969482422 14.14999961853027
212.7700042724609 231.7700042724609 12.14999961853027
213.3000030517578 231.8899993896484 12.10000038146973
212.6199951171875 231.7599945068359 10.53999996185303
213.0700073242188 231.8899993896484 10.15999984741211
212.8699951171875 231.8300018310547 8.109999656677246
215.3200073242188 232.3699951171875 13.98999977111816
214.8999938964844 232.3399963378906 10.34000015258789
216.1399993896484 232.6999969482422 6.809999942779541
216.8300018310547 232.75 12.76000022888184
216.4199981689453 232.7100067138672 9.060000419616699
215.7599945068359 232.5200042724609 12.92000007629395
216.8800048828125 232.7899932861328 13.44999980926514
218.0599975585938 233.0800018310547 13.68000030517578
216.7100067138672 232.7299957275391 11.82999992370605
215.6999969482422 232.5599975585938 7.480000019073486
214.8500061035156 232.3300018310547 9.470000267028809
215.3500061035156 232.4600067138672 9.159999847412109
217.1799926757812 232.8699951171875 10.65999984741211
217.5299987792969 232.9100036621094 13.85000038146973
212.4600067138672 232.4600067138672 8.050000190734863
213.25 232.6199951171875 9.619999885559082
213.8899993896484 232.7599945068359 10.64000034332275
214.9600067138672 233 14.63000011444092
212.5800018310547 232.4900054931641 9.550000190734863
215.3500061035156 233.1100006103516 13.31999969482422
214.8099975585938 232.9499969482422 13.47000026702881
216.1999969482422 233.2899932861328 15.89999961853027
213.7599945068359 232.7400054931641 9.670000076293945
216.7299957275391 233.4299926757812 15.8100004196167
213.0200042724609 232.5899963378906 7.800000190734863
217.1900024414062 233.6000061035156 9.460000038146973
217.5599975585938 233.6799926757812 12.96000003814697
215.6900024414062 233.1999969482422 11.47999954223633
218.1900024414062 233.8300018310547 13.0600004196167
216.0800018310547 233.3099975585938 9.810000419616699
216.5800018310547 233.3999938964844 14.07999992370605
218.8699951171875 234.0500030517578 7.900000095367432
219.4499969482422 234.1600036621094 8.5
216.6799926757812 233.4600067138672 9.609999656677246
215.1799926757812 233.0700073242188 11.86999988555908
217.0200042724609 233.5399932861328 12.48999977111816
217.8200073242188 233.7599945068359 9.520000457763672
211.75 232.8800048828125 10.07999992370605
212.9499969482422 233.1300048828125 10.55000019073486
214.7899932861328 233.6199951171875 11.4399995803833
214 233.4400024414062 9.210000038146973
215.9900054931641 233.8699951171875 12.19999980926514
214.4100036621094 233.5700073242188 7.960000038146973
216.1000061035156 233.8899993896484 13.1899995803833
215.0700073242188 233.6199951171875 13.73999977111816
215.3899993896484 233.7599945068359 11.64000034332275
217.1699981689453 234.2599945068359 7.329999923706055
216.3300018310547 233.9799957275391 10.10999965667725
216.6600036621094 234.0899963378906 8.079999923706055
213.8200073242188 233.3999938964844 7.650000095367432
217.4199981689453 234.2100067138672 14.82999992370605
217.2299957275391 234.1699981689453 13.39999961853027
217.2799987792969 234.2799987792969 8.289999961853027
218.9499969482422 234.6199951171875 13.13000011444092
215.6000061035156 233.2100067138672 10.39000034332275
214.5299987792969 233.5899963378906 8.729999542236328
216.8000030517578 234.1199951171875 9.520000457763672
216.25 233.8999938964844 14.53999996185303
213.5099945068359 233.8800048828125 7.559999942779541
213.5099945068359 233.8200073242188 12.56999969482422
212.1600036621094 233.4799957275391 11.10999965667725
214.5 234.0599975585938 11.47999954223633
214.8999938964844 234.1399993896484 14.84000015258789
214.6399993896484 234.0899963378906 12.47000026702881
215.4600067138672 234.2799987792969 14.67000007629395
214.0899963378906 233.9600067138672 13.03999996185303
214.9400024414062 234.1999969482422 9.899999618530273
214.25 233.9900054931641 14.47999954223633
215.0800018310547 234.2299957275391 11.56999969482422
215.8800048828125 234.3899993896484 13.56999969482422
217.6399993896484 234.8300018310547 13.56999969482422
216.6000061035156 234.6000061035156 9.680000305175781
217.1699981689453 234.7700042724609 9.300000190734863
217.0200042724609 234.7200012207031 8.029999732971191
216.8000030517578 234.6399993896484 11.19999980926514
215.8300018310547 234.4400024414062 7.900000095367432
216.3899993896484 234.6100006103516 7.889999866485596
215.3999938964844 234.3000030517578 9.520000457763672
215.25 234.8699951171875 9.770000457763672
214.3800048828125 234.6399993896484 12.05000019073486
216.1100006103516 235.1399993896484 7.760000228881836
213.4600067138672 234.3699951171875 14.64999961853027
215.75 234.9700012207031 13.98999977111816
213.8200073242188 234.4799957275391 12.47000026702881
217.3500061035156 235.4299926757812 8.050000190734863
215.6799926757812 235.6699981689453 12.13000011444092
216.4499969482422 235.9199981689453 7.980000019073486
215.9499969482422 229.5399932861328 13.72999954223633
216.5800018310547 229.6499938964844 13.5600004196167
218.2100067138672 230.7400054931641 13.56999969482422
214.2200012207031 229.6600036621094 8.359999656677246
214.8600006103516 229.8899993896484 11.76000022888184
214.3899993896484 229.7299957275391 10.47000026702881
213.2299957275391 229.4199981689453 9.079999923706055
216.2200012207031 230.2400054931641 13.42000007629395
216.7899932861328 230.3699951171875 13.27999973297119
215.8399963378906 230.8099975585938 8.729999542236328
214.1399993896484 230.3800048828125 7.940000057220459
216.1300048828125 230.9499969482422 12.92000007629395
217.4600067138672 231.3200073242188 14.64000034332275
214.3300018310547 230.4499969482422 10.14999961853027
217.7100067138672 231.3600006103516 13.53999996185303
216.3300018310547 230.9400024414062 10
215.6499938964844 230.8600006103516 13.53999996185303
213.4199981689453 230.25 12.67000007629395
215.8200073242188 230.8300018310547 10.4399995803833
217.0500030517578 231.1699981689453 11.73999977111816
214.5899963378906 230.5599975585938 14.03999996185303
213.6999969482422 230.3600006103516 15.05000019073486
213.6699981689453 230.2700042724609 8.449999809265137
215.1499938964844 230.75 15.48999977111816
216.3899993896484 231.0099945068359 11.82999992370605
216.1100006103516 231.4900054931641 8.649999618530273
217.7299957275391 231.9900054931641 14.52000045776367
216.5800018310547 231.6900024414062 11.72999954223633
215.5800018310547 231.4600067138672 12.56999969482422
217.3399963378906 231.8899993896484 13.56999969482422
215.6300048828125 231.3500061035156 7.429999828338623
215.1100006103516 231.3099975585938 11.35999965667725
217.7400054931641 232 16.21999931335449
213.8300018310547 230.9299926757812 8.090000152587891
214.1699981689453 231.1199951171875 15.67000007629395
214.2899932861328 231.1199951171875 14.0600004196167
213.0200042724609 230.8200073242188 12.78999996185303
215.9199981689453 231.5500030517578 16.57999992370605
215.6699981689453 231.4900054931641 14.25
213.4400024414062 230.8899993896484 10.31999969482422
215.4299926757812 231.4499969482422 15.36999988555908
214.7799987792969 231.25 15.38000011444092
213.7299957275391 230.9900054931641 14.53999996185303
217.5700073242188 232.4299926757812 6.929999828338623
218.4100036621094 232.7599945068359 14.22999954223633
215.8899993896484 232.0700073242188 9.369999885559082
217.1900024414062 232.3899993896484 11.15999984741211
215.7400054931641 232.0500030517578 12.52000045776367
217.2299957275391 232.4199981689453 12.82999992370605
215.2400054931641 231.9299926757812 11.27999973297119
215.6399993896484 232.0399932861328 14.10000038146973
215.2200012207031 231.9299926757812 13.01000022888184
215.9799957275391 232.1399993896484 14.94999980926514
214.9199981689453 231.8699951171875 12.27999973297119
216.75 232.3200073242188 11.64999961853027
214.5 231.7599945068359 14.4399995803833
213.2100067138672 231.4299926757812 12.67000007629395
214.6199951171875 231.7799987792969 11.5
215.7200012207031 232.0399932861328 10.73999977111816
214.1000061035156 231.6799926757812 14.9399995803833
217.8699951171875 233.2200012207031 10.67000007629395
216.2700042724609 232.7700042724609 6.579999923706055
217.9499969482422 233.1999969482422 7.610000133514404
216.5099945068359 232.8800048828125 10.38000011444092
216.4199981689453 232.8399963378906 8.659999847412109
217.1799926757812 233.0700073242188 10.61999988555908
216.9700012207031 233.0399932861328 13.43000030517578
217.7700042724609 233.2200012207031 13.64999961853027
216.9900054931641 233.0599975585938 15.02999973297119
215.3399963378906 232.6100006103516 9.319999694824219
214.5 232.3999938964844 10.42000007629395
213.8699951171875 232.25 10.47999954223633
213.1499938964844 232.0700073242188 10.32999992370605
213.1499938964844 232.0899963378906 12.01000022888184
214.6600036621094 232.4900054931641 14.06999969482422
215.8699951171875 232.6799926757812 7.190000057220459
216.4700012207031 232.9400024414062 15.52999973297119
212.1699981689453 231.8300018310547 11.25
214.8099975585938 232.4499969482422 9.470000267028809
217.5 233.1999969482422 16.26000022888184
216.0599975585938 233.6399993896484 15.86999988555908
215.5 233.4799957275391 14.44999980926514
214.9400024414062 233.3200073242188 13.02999973297119
214.6999969482422 233.2299957275391 10.61999988555908
212.3500061035156 232.6000061035156 9.680000305175781
216.3800048828125 233.6399993896484 9.819999694824219
217.6399993896484 233.9400024414062 9.510000228881836
218.3399963378906 234.1300048828125 12.98999977111816
217.3099975585938 233.8200073242188 8.680000305175781
216.9600067138672 233.75 9.520000457763672
215.7700042724609 233.4799957275391 9.869999885559082
215.4900054931641 233.3999938964844 10.90999984741211
217.4700012207031 233.8399963378906 7.420000076293945
216.8300018310547 233.8099975585938 14.31999969482422
219.0500030517578 234.2599945068359 8
216.6300048828125 234.3600006103516 9.600000381469727
217.1199951171875 234.4700012207031 9.180000305175781
217.2899932861328 234.4799957275391 7.909999847412109
216.1699981689453 234.25 11.77999973297119
216.6399993896484 234.3500061035156 8.069999694824219
214.7700042724609 233.8899993896484 11.57999992370605
217.4900054931641 234.6000061035156 13.42000007629395
214.2899932861328 233.8200073242188 12.05000019073486
215.7700042724609 234.1799926757812 12.35000038146973
213.1199951171875 233.5200042724609 10.64999961853027
216.1300048828125 234.2599945068359 13.30000019073486
214.6399993896484 233.9100036621094 14.46000003814697
216.8600006103516 234.9900054931641 9.729999542236328
216.1600036621094 234.8000030517578 7.929999828338623
215.7899932861328 234.7599945068359 12.07999992370605
214.8999938964844 234.5200042724609 9.800000190734863
213.3300018310547 234.1100006103516 7.539999961853027
216.9400024414062 234.9799957275391 8.069999694824219
215.5 234.6699981689453 9.529999732971191
212.1600036621094 233.8500061035156 11.27000045776367
215.7700042724609 234.8200073242188 13.86999988555908
214.9700012207031 235.2299957275391 9.729999542236328
213.6199951171875 234.9100036621094 12.89000034332275
214.0299987792969 235.0200042724609 12.35999965667725
214.3800048828125 235.8300018310547 9.859999656677246
219.2299957275391 234.1999969482422 8.279999732971191
217.8200073242188 231.5299987792969 13.34000015258789
218.2299957275391 233.1600036621094 13.76000022888184
218.5 234.2299957275391 13.14999961853027
218.3399963378906 233.1600036621094 7.960000038146973
218.4900054931641 233.7599945068359 7.670000076293945
218.6699981689453 234.5099945068359 7.880000114440918
217.2700042724609 231.5399932861328 13.92000007629395
217.4600067138672 232.2100067138672 12.53999996185303
218.0299987792969 234.2700042724609 9.479999542236328
217.8300018310547 233.3500061035156 7.53000020980835
217.75 233.3999938964844 10.60000038146973
217.4299926757812 231.9400024414062 10.52999973297119
216.3099975585938 230.2599945068359 13.38000011444092
217.0299987792969 233.1900024414062 15.0600004196167
217.0500030517578 233.1900024414062 13.53999996185303
216.6900024414062 231.6399993896484 11.72999954223633
216.4499969482422 230.7799987792969 13.07999992370605
216.8500061035156 232.2599945068359 11.55000019073486
216.8800048828125 232.2899932861328 10.25
217.1000061035156 233.0099945068359 7.409999847412109
217.0599975585938 233.1000061035156 10.56999969482422
216.9299926757812 232.7799987792969 12.63000011444092
217.2899932861328 233.8899993896484 9.300000190734863
217.1399993896484 233.4600067138672 12.64999961853027
217.3800048828125 234.1499938964844 8.369999885559082
215.4100036621094 229.4900054931641 13.77000045776367
215.9400024414062 231.6699981689453 13.98999977111816
215.8899993896484 231.1900024414062 10.0600004196167
215.8399963378906 231.0399932861328 12.65999984741211
215.7599945068359 230.5700073242188 8.729999542236328
216.3699951171875 233.1699981689453 12.86999988555908
216.3500061035156 233.3600006103516 14.63000011444092
215.9600067138672 231.8000030517578 15.82999992370605
216.0800018310547 232.1399993896484 14.97999954223633
216.7100067138672 234.5899963378906 11.3100004196167
216.3899993896484 232.8399963378906 6.159999847412109
216.3699951171875 233.0399932861328 9.539999961853027
215.7799987792969 231.0700073242188 14.21000003814697
216.8999938964844 235.2400054931641 9.710000038146973
216.75 234.5500030517578 8.229999542236328
216.9299926757812 235.1799926757812 8.010000228881836
216.7100067138672 234.3999938964844 9.5
215.7400054931641 230.6900024414062 13.39000034332275
215.1199951171875 231.0200042724609 16.06999969482422
215.3300018310547 231.7400054931641 14.60000038146973
214.9700012207031 230.2799987792969 12.9399995803833
214.8800048828125 229.8000030517578 11.94999980926514
215.5200042724609 232.2899932861328 12.60999965667725
215.8000030517578 233.2799987792969 10.47000026702881
215.6699981689453 232.9499969482422 12.56999969482422
215.3000030517578 231.4299926757812 12.39999961853027
216.0800018310547 234.4400024414062 11.44999980926514
215.1199951171875 230.8000030517578 12.60000038146973
215.6499938964844 232.5399932861328 8.789999961853027
215.5399932861328 232.3399963378906 9.75
215.4600067138672 232.1100006103516 10.72999954223633
216.2100067138672 234.8399963378906 7.860000133514404
215.3699951171875 231.5299987792969 9.520000457763672
215.8200073242188 233.3300018310547 9.039999961853027
215.1600036621094 230.8500061035156 11.22000026702881
215.7700042724609 235.2799987792969 7.849999904632568
214.7400054931641 231.5800018310547 15
214.6300048828125 231.1100006103516 13.90999984741211
214.8200073242188 231.8099975585938 12.46000003814697
214.4499969482422 230.1199951171875 10.36999988555908
214.9700012207031 232.3000030517578 12.06999969482422
215.2100067138672 233.3000030517578 14.10999965667725
214.8999938964844 231.9700012207031 11.38000011444092
215.1300048828125 232.9299926757812 13.42000007629395
214.9799957275391 232.2100067138672 10.40999984741211
215.1999969482422 233.3500061035156 15.77000045776367
214.75 231.5700073242188 13.35999965667725
215.6399993896484 234.75 9.789999961853027
215.2899932861328 233.3099975585938 8.229999542236328
215.4600067138672 234.0099945068359 9.75
215.4400024414062 234.2299957275391 14.61999988555908
214.1699981689453 231.9199981689453 14.77999973297119
214.2799987792969 232.1300048828125 13.65999984741211
214.0500030517578 231.1999969482422 11.72000026702881
214.0299987792969 230.8699951171875 7.949999809265137
213.8699951171875 230.3000030517578 8.220000267028809
214.7700042724609 233.9100036621094 11.5
214.2599945068359 231.9700012207031 10.26000022888184
214.6399993896484 233.2700042724609 8.75
214.2700042724609 231.9600067138672 11.76000022888184
215.1000061035156 235.1399993896484 9.729999542236328
214.7299957275391 233.5700073242188 7.960000038146973
214.3600006103516 232.0500030517578 7.53000020980835
214.9199981689453 234.4600067138672 9.869999885559082
214.5099945068359 232.8300018310547 7.78000020980835
214.8399963378906 234.4199981689453 12.59000015258789
214.1499938964844 231.3300018310547 7.489999771118164
213.5099945068359 232.1499938964844 14.27000045776367
213.2700042724609 231.0700073242188 11.97999954223633
213.4799957275391 231.8500061035156 12.35000038146973
213.2400054931641 230.5299987792969 7.880000114440918
213.3899993896484 231.4499969482422 11.46000003814697
213.75 232.5399932861328 7.769999980926514
213.6499938964844 232.3999938964844 10.56999969482422
213.5500030517578 231.8399963378906 9.300000190734863
213.5899963378906 234.7700042724609 12.84000015258789
213.4900054931641 234.4199981689453 12.15999984741211
212.4299926757812 232.1399993896484 11.0600004196167
212.6300048828125 232.8099975585938 7.940000057220459
219.7899932861328 234.8600006103516 8.010000228881836
218.8899993896484 233.4299926757812 7.940000057220459
219.0800018310547 234.0599975585938 8.119999885559082
218.9299926757812 233.3399963378906 10.73999977111816
218.2899932861328 233.3300018310547 10.60000038146973
218.6100006103516 234.3800048828125 13.02000045776367
218.2299957275391 233.3500061035156 7.659999847412109
217.8399963378906 231.3200073242188 15.43000030517578
218.4400024414062 233.8500061035156 13.25
217.2899932861328 229.2299957275391 14.06999969482422
217.7299957275391 230.9600067138672 13.72000026702881
218.2799987792969 233.1900024414062 12.85999965667725
217.6699981689453 230.5500030517578 14.96000003814697
217.4299926757812 233.1999969482422 7.559999942779541
217.5899963378906 233.5700073242188 9.649999618530273
217.6699981689453 233.6300048828125 12.89000034332275
217.5599975585938 233.2100067138672 13.60999965667725
217.3399963378906 232.3300018310547 11.97999954223633
217.25 232.0800018310547 10.64999961853027
217.2799987792969 232.0299987792969 13.60000038146973
217.0099945068359 231.1199951171875 11.90999984741211
217.0500030517578 231.0500030517578 14.63000011444092
217.5399932861328 233.1999969482422 10.71000003814697
217.3699951171875 232.6900024414062 10.84000015258789
216.6699981689453 229.7299957275391 13.67000007629395
217.2799987792969 232.5599975585938 7.199999809265137
217.1900024414062 231.5500030517578 13.97000026702881
217.6100006103516 233.1799926757812 16.34000015258789
217.1300048828125 231.4100036621094 13.22999954223633
216.8300018310547 230.2200012207031 13.32999992370605
216.6499938964844 232.4100036621094 9.640000343322754
216.9799957275391 233.1399993896484 16.67000007629395
216.75 232.4900054931641 13.27999973297119
216.3600006103516 231.2299957275391 9.920000076293945
216.25 230.6300048828125 13.13000011444092
216.4900054931641 231.6100006103516 11.69999980926514
217.1900024414062 231.7299957275391 11.94999980926514
216.6100006103516 232.1499938964844 11.6899995803833
216.0500030517578 229.6900024414062 14.27999973297119
216.2200012207031 230.6699981689453 10.14000034332275
216.1999969482422 230.3099975585938 14.63000011444092
217.1999969482422 234.25 13.34000015258789
217.1000061035156 234.1600036621094 9.619999885559082
216.9499969482422 233.5800018310547 9.75
217 233.5399932861328 12.46000003814697
216.8999938964844 233.1000061035156 13.44999980926514
217.1399993896484 233.9499969482422 14.5
216.8800048828125 233.4199981689453 8.979999542236328
216.0700073242188 232.7799987792969 6.070000171661377
216.1699981689453 232.8500061035156 9.449999809265137
216.1900024414062 233.0399932861328 7.550000190734863
216.2299957275391 233.0500030517578 10.57999992370605
216.2899932861328 232.9499969482422 15.92000007629395
216.3399963378906 233.1300048828125 13.94999980926514
216.0299987792969 232.4600067138672 7.230000019073486
215.6900024414062 230.9799957275391 8.739999771118164
215.8000030517578 231.1300048828125 12.56999969482422
215.5800018310547 230.1799926757812 13.84000015258789
216.3500061035156 233.5 9.909999847412109
215.6900024414062 230.6499938964844 13.18000030517578
215.8500061035156 231.7299957275391 9.470000267028809
215.8699951171875 231.1499938964844 15.8100004196167
215.7799987792969 231.3099975585938 10.55000019073486
216.0099945068359 232.2299957275391 9.270000457763672
216.4900054931641 234.3300018310547 7.929999828338623
216.6300048828125 234.6300048828125 9.699999809265137
215.6999969482422 231.3200073242188 7.329999923706055
216.3200073242188 233.6300048828125 7.739999771118164
216.4600067138672 234.0299987792969 9.760000228881836
215.9100036621094 234.3099975585938 13.52000045776367
215.9799957275391 235 7.940000057220459
215.3200073242188 232.3000030517578 9.390000343322754
215.3999938964844 232.3500061035156 12.68000030517578
215.2700042724609 232.0500030517578 10.89999961853027
215.6399993896484 233.3099975585938 11.38000011444092
215.5399932861328 232.8500061035156 12.43000030517578
215.8399963378906 234.3899993896484 7.840000152587891
215.6499938964844 233.6399993896484 9.840000152587891
215.2299957275391 231.4799957275391 14.39000034332275
214.9600067138672 230.5500030517578 12.76000022888184
215.0599975585938 231.0700073242188 12.27999973297119
214.7799987792969 230.0500030517578 10.25
214.9700012207031 230.8099975585938 10.85000038146973
214.7299957275391 229.7899932861328 11.85000038146973
214.6199951171875 229.2700042724609 12.03999996185303
214.8500061035156 230.0899963378906 13.19999980926514
215.1399993896484 231.1600036621094 15.94999980926514
215.0599975585938 234.0700073242188 9.810000419616699
215.1799926757812 234.3899993896484 11.53999996185303
215.2700042724609 234.4900054931641 14.93000030517578
215 233.8000030517578 11.34000015258789
215.1600036621094 234.6199951171875 9.439999580383301
215.0700073242188 231.2200012207031 9.880000114440918
215.2599945068359 231.8099975585938 12.98999977111816
215.1699981689453 231.6100006103516 11.82999992370605
215.0500030517578 231.3999938964844 7.639999866485596
214.4499969482422 231.5299987792969 11.48999977111816
214.4299926757812 231.3999938964844 14.01000022888184
214.5099945068359 231.8600006103516 10.27000045776367
214.2100067138672 230.8699951171875 7.929999828338623
214.0099945068359 229.8000030517578 11.59000015258789
214.4700012207031 231.25 16.18000030517578
214.1300048828125 230.3500061035156 11.55000019073486
214.0200042724609 230.2200012207031 7.989999771118164
214.1499938964844 230.6100006103516 9.899999618530273
214.1499938964844 233.3300018310547 9.130000114440918
213.8899993896484 232.4400024414062 7.769999980926514
213.9700012207031 232.3699951171875 10.47000026702881
213.7899932861328 231.8600006103516 7.849999904632568
214.0299987792969 232.75 9.560000419616699
214.3300018310547 233.8300018310547 11.8100004196167
214 232.2899932861328 13.22000026702881
213.8899993896484 232.0099945068359 11.97000026702881
213.2200012207031 229.7100067138672 8.960000038146973
213.4799957275391 230.3699951171875 12.61999988555908
213.6499938964844 231.1300048828125 10.35000038146973
213.3399963378906 230.1999969482422 8.699999809265137
213.4900054931641 230.3000030517578 15.13000011444092
213.6000061035156 230.8600006103516 12.28999996185303
214.6499938964844 232.4900054931641 10.38000011444092
214.5899963378906 232.0899963378906 11.64000034332275
214.7200012207031 232.8399963378906 9.279999732971191
214.0800018310547 234.8500061035156 12.42000007629395
213.9100036621094 234.3300018310547 12.28999996185303
213.6100006103516 233.2100067138672 9.449999809265137
214.8800048828125 233.0800018310547 13.32999992370605
215.1100006103516 233.8699951171875 14.61999988555908
213.5399932861328 232.8800048828125 10.65999984741211
214.4900054931641 234.3500061035156 11.55000019073486
214.7899932861328 233.2700042724609 8.380000114440918
214.4900054931641 234.5700073242188 9.670000076293945
214.6100006103516 234.8500061035156 11.10000038146973
213.8600006103516 233.9700012207031 13.63000011444092
213.4799957275391 232.7100067138672 9.789999961853027
213.3399963378906 232.3000030517578 7.630000114440918
213.3000030517578 231.9700012207031 12.0600004196167
213.0200042724609 231.0700073242188 7.440000057220459
213.1199951171875 231.4499969482422 9.350000381469727
213.0500030517578 230.8000030517578 12.03999996185303
213.1900024414062 231.4499969482422 12.63000011444092
212.8699951171875 230.1499938964844 11.86999988555908
213.3099975585938 231.7599945068359 14.39999961853027
213.2599945068359 234.5899963378906 7.489999771118164
212.8000030517578 232.6199951171875 9.600000381469727
213.0299987792969 233.3699951171875 10.53999996185303
212.75 232.25 10.92000007629395
212.0800018310547 232.5200042724609 9.779999732971191
212.3500061035156 233.4100036621094 10.9399995803833
212.25 233.5399932861328 11.02999973297119
212.1399993896484 233.0399932861328 10
212.0399932861328 232.6499938964844 8.060000419616699
212.8200073242188 232.8200073242188 9.619999885559082
212.9299926757812 233.3399963378906 10.65999984741211
212.5899963378906 232.0800018310547 11
212.9100036621094 230.4400024414062 7.900000095367432
213.0599975585938 231.0200042724609 7.389999866485596
213.1399993896484 231.3600006103516 9.479999542236328
213.4199981689453 232.4600067138672 9.859999656677246
213.3500061035156 232.0599975585938 7.599999904632568
213.1900024414062 231.6300048828125 12.44999980926514
213.7100067138672 233.6699981689453 9.180000305175781
213.6300048828125 233.2100067138672 7.610000133514404
213.7400054931641 233.8800048828125 12.8100004196167
213.4799957275391 232.6699981689453 7.670000076293945
213.5299987792969 232.9199981689453 10.64999961853027
213.8999938964844 234.4900054931641 12.36999988555908
214.25 235.8800048828125 9.960000038146973
213.5299987792969 233.0500030517578 9.659999847412109
213.3999938964844 232.4100036621094 10.82999992370605
213.7599945068359 233.9400024414062 11.96000003814697
213.4299926757812 230.0200042724609 8.600000381469727
213.6100006103516 230.8999938964844 11.64000034332275
213.8300018310547 231.6300048828125 10.35000038146973
213.7599945068359 231.4900054931641 11.47999954223633
213.8300018310547 231.8300018310547 14.10000038146973
213.9499969482422 232.1399993896484 10.46000003814697
214.2899932861328 233.4499969482422 9.25
213.7200012207031 231.4600067138672 12.22999954223633
213.5800018310547 230.6499938964844 8.010000228881836
214.0700073242188 232.7200012207031 10.67000007629395
214.1300048828125 232.8300018310547 9.770000457763672
214.5 234.3699951171875 11.60999965667725
214.1900024414062 232.9700012207031 7.900000095367432
213.5700073242188 230.8399963378906 12.51000022888184
213.7599945068359 231.2700042724609 7.460000038146973
214.3099975585938 233.8200073242188 11.85999965667725
214.5800018310547 234.8500061035156 12.26000022888184
214.7100067138672 232.6499938964844 13.75
214.7599945068359 232.4900054931641 9.369999885559082
214.7799987792969 233.0299987792969 15.85999965667725
213.8800048828125 232 11.89000034332275
214.3899993896484 234.0899963378906 14.38000011444092
214.8000030517578 232.7899932861328 11.90999984741211
214.8800048828125 233.2299957275391 13.30000019073486
214.8600006103516 233.1399993896484 14.65999984741211
214.7700042724609 235.4700012207031 11.72999954223633
215.1000061035156 233.9600067138672 11.57999992370605
214.6999969482422 232.3600006103516 10.36999988555908
215 233.75 13.80000019073486
214.1100006103516 229.8000030517578 8.350000381469727
214.2100067138672 230.3600006103516 7.96999979019165
214.1399993896484 230.0599975585938 11.39999961853027
214.5299987792969 231.6699981689453 11.63000011444092
214.6199951171875 232.1000061035156 13.38000011444092
214.3999938964844 230.9600067138672 7.860000133514404
215.6699981689453 233.2700042724609 11.23999977111816
214.2299957275391 230.6000061035156 11.64000034332275
215.8600006103516 234.1699981689453 13.5600004196167
214.2899932861328 230.75 9.960000038146973
214.4900054931641 231.5500030517578 13.14000034332275
214.1100006103516 229.8500061035156 7.599999904632568
215.6699981689453 233.5 15.0600004196167
215.9900054931641 234.6999969482422 13.67000007629395
215.7899932861328 233.7899932861328 11.77999973297119
216.0599975585938 234.7200012207031 7.75
216.4600067138672 236.3300018310547 8.100000381469727
214.4299926757812 231.4499969482422 14.01000022888184
214.6300048828125 232.25 11.92000007629395
215.1100006103516 234.1699981689453 15.10000038146973
215.3000030517578 234.6699981689453 9.640000343322754
215.1300048828125 234.1499938964844 9.890000343322754
215.2400054931641 234.5099945068359 11.59000015258789
214.8399963378906 229.8899993896484 10.17000007629395
215.0500030517578 230.8399963378906 12.5
214.75 229.6999969482422 11.94999980926514
215.3300018310547 232.0299987792969 11.48999977111816
215.3000030517578 231.8800048828125 13.10999965667725
215.2100067138672 231.4499969482422 11.9399995803833
215.3699951171875 232.3800048828125 14.13000011444092
215.4600067138672 232.5200042724609 12.60000038146973
215.0599975585938 230.9799957275391 10.96000003814697
215.6000061035156 232.9799957275391 7.730000019073486
215.25 231.6199951171875 9.930000305175781
214.9299926757812 230.3000030517578 11.47999954223633
215.3600006103516 231.8800048828125 7.53000020980835
215.2100067138672 231.5099945068359 11.0600004196167
215.3899993896484 232.1699981689453 10.02000045776367
215.7599945068359 230.9199981689453 8.710000038146973
215.6900024414062 231.0099945068359 14.27999973297119
215.6999969482422 230.7700042724609 10.28999996185303
215.8699951171875 231.5700073242188 13.89000034332275
215.6000061035156 230.5099945068359 13.14999961853027
215.6600036621094 230.6199951171875 11.9399995803833
216.0200042724609 232.2599945068359 12.92000007629395
215.7799987792969 231.3699951171875 15.64000034332275
215.5299987792969 230.0800018310547 12.31999969482422
216.2200012207031 232.8000030517578 7.199999809265137
215.7599945068359 231.1300048828125 12.60000038146973
216.2200012207031 233.1399993896484 15.47999954223633
216.1399993896484 232.7100067138672 13.51000022888184
216.2200012207031 232.9900054931641 10.85000038146973
215.9799957275391 232.0500030517578 15
215.9100036621094 231.6600036621094 12.89999961853027
216.3899993896484 233.75 14.52999973297119
216.1999969482422 232.8300018310547 12.56999969482422
215.3000030517578 229.3999938964844 13.72999954223633
216.5399932861328 234.2299957275391 9.789999961853027
215.8300018310547 231.3699951171875 10.39999961853027
216.2700042724609 233.2700042724609 14.11999988555908
216.3099975585938 233.3600006103516 13.09000015258789
216.6399993896484 234.3699951171875 8.039999961853027
216.2599945068359 230.8899993896484 12.93000030517578
216.6900024414062 232.6300048828125 12.97999954223633
216.7400054931641 232.75 11.71000003814697
216.6100006103516 232.0899963378906 11.8100004196167
216.8800048828125 233.1399993896484 7.550000190734863
216.6399993896484 232.2299957275391 10.43000030517578
216.3999938964844 231.4700012207031 13.19999980926514
216.4900054931641 231.5899963378906 11.75
216.6900024414062 232.3099975585938 9.560000419616699
216.7700042724609 232.9400024414062 15.52000045776367
216.8399963378906 233.3800048828125 17.19000053405762
217.1300048828125 234.2599945068359 13.4399995803833
217.0899963378906 234.1600036621094 14.53999996185303
217.1499938964844 234.2599945068359 8.359999656677246
216.8200073242188 233.1199951171875 13.52999973297119
217.1499938964844 231.6199951171875 13.15999984741211
216.8999938964844 230.5099945068359 13.31999969482422
217.6499938964844 233.2799987792969 7.579999923706055
217.5200042724609 232.7400054931641 7.28000020980835
217.0500030517578 231.2100067138672 11.80000019073486
217.2899932861328 232.1699981689453 13.30000019073486
217.6499938964844 233.6699981689453 15.77999973297119
217.7100067138672 233.9299926757812 12.98999977111816
217.5 233.0800018310547 15.94999980926514
217.1900024414062 231.7700042724609 11.90999984741211
217.8099975585938 233.8999938964844 7.440000057220459
217.5200042724609 233 10.67000007629395
217.5899963378906 233.3099975585938 13.52999973297119
217.6300048828125 230.6799926757812 14.69999980926514
218.6300048828125 234.2100067138672 7.829999923706055
218.3600006103516 233.3399963378906 10.68000030517578
218.4600067138672 233.6600036621094 7.650000095367432
217.8500061035156 231.3300018310547 13.43000030517578
217.8500061035156 231.6000061035156 16.51000022888184
218.5500030517578 234.25 13.10999965667725
219.3699951171875 234.4199981689453 8.029999732971191
218.5899963378906 231.5599975585938 14.43000030517578
219.8999938964844 234.2400054931641 8.989999771118164
212.0500030517578 233.7599945068359 11.32999992370605
212.5200042724609 232.6799926757812 8
212.3399963378906 232.1600036621094 11.10000038146973
213.5 233.8300018310547 12.42000007629395
213.5299987792969 233.7899932861328 9.25
212.7799987792969 230.9799957275391 13.0600004196167
213.0700073242188 232.0500030517578 10.21000003814697
213.1799926757812 232.3899993896484 7.690000057220459
213.6900024414062 234.4900054931641 12.53999996185303
213.6100006103516 234.3500061035156 14.55000019073486
213.8200073242188 235.0299987792969 12.8100004196167
212.7899932861328 230.9499969482422 9.720000267028809
213.9400024414062 232.6300048828125 7.619999885559082
213.4799957275391 230.9100036621094 10.39999961853027
213.4700012207031 230.8999938964844 12.27000045776367
213.4900054931641 230.7899932861328 7.25
214.1100006103516 233.2599945068359 7.639999866485596
213.7599945068359 231.8999938964844 7.739999771118164
214.2100067138672 233.9199981689453 14.46000003814697
214.0800018310547 233.3399963378906 9.130000114440918
213.9499969482422 232.7200012207031 10.72000026702881
213.6199951171875 231.5200042724609 12.22999954223633
213.8899993896484 232.5200042724609 9.560000419616699
214.7799987792969 233.8099975585938 14.02000045776367
214.9799957275391 234.6499938964844 15.25
214.6999969482422 233.3399963378906 13.52999973297119
214.8899993896484 234.1199951171875 14.89000034332275
214.8600006103516 234.0800018310547 11.60000038146973
214.3600006103516 232.0599975585938 13.5600004196167
214.5899963378906 232.8600006103516 7.840000152587891
214.3399963378906 231.9900054931641 11.92000007629395
214.6300048828125 232.9499969482422 9.380000114440918
214.0599975585938 230.7700042724609 11.6899995803833
214.2700042724609 231.6600036621094 14.6899995803833
214.3300018310547 231.9499969482422 10.31999969482422
215.0899963378906 234.8000030517578 9.640000343322754
214.4799957275391 232.3300018310547 7.630000114440918
214.1300048828125 231.1600036621094 14.13000011444092
213.8800048828125 230.1399993896484 8.130000114440918
214.2200012207031 231.4799957275391 11.52999973297119
214.3200073242188 231.6999969482422 7.429999828338623
214.0599975585938 230.8600006103516 7.940000057220459
213.8600006103516 230.1199951171875 11.72999954223633
215.7700042724609 234.8300018310547 13.86999988555908
215.3600006103516 233.4299926757812 15.86999988555908
214.9100036621094 231.5099945068359 13.94999980926514
215.3000030517578 233.0299987792969 13.1899995803833
214.9400024414062 231.5899963378906 12.07999992370605
215.3699951171875 233.3600006103516 14.15999984741211
214.8300018310547 231.1100006103516 9.890000343322754
215.6100006103516 234.2200012207031 13.77999973297119
214.7899932861328 231.0200042724609 13.59000015258789
214.6999969482422 230.7299957275391 12.77000045776367
215.5899963378906 234.1000061035156 12.22000026702881
215.4700012207031 233.5800018310547 11.77999973297119
214.4299926757812 229.5899963378906 10.55000019073486
214.6699981689453 230.5299987792969 11.43000030517578
214.9199981689453 231.3500061035156 7.679999828338623
214.4799957275391 229.75 11.85999965667725
214.7100067138672 230.5200042724609 7.960000038146973
216.0500030517578 232.9299926757812 10.96000003814697
215.5700073242188 231.0399932861328 14.38000011444092
215.4900054931641 230.7400054931641 13.17000007629395
216.1600036621094 233.3699951171875 9.779999732971191
215.8600006103516 232.1799926757812 9.329999923706055
216.1199951171875 233.1999969482422 11.97000026702881
215.7700042724609 231.7899932861328 10.35999965667725
215.75 231.7599945068359 12.47000026702881
215.6399993896484 231.4499969482422 14.90999984741211
215.75 231.9299926757812 13.6899995803833
215.6300048828125 231.25 11.80000019073486
216.1600036621094 233.3999938964844 13.13000011444092
216.0500030517578 233.1799926757812 17.18000030517578
215.9199981689453 232.4700012207031 15.52999973297119
215.7200012207031 231.6999969482422 15.93000030517578
215.6100006103516 231.1100006103516 8.729999542236328
215.9499969482422 232.5 6.869999885559082
215.9900054931641 232.6199951171875 4.690000057220459
215.4700012207031 230.6000061035156 11.97999954223633
216.0099945068359 232.8000030517578 7.71999979019165
215.4700012207031 230.6600036621094 9.939999580383301
216.75 233 14.5
216.9400024414062 233.75 14.35999965667725
216.5700073242188 232.1900024414062 11.57999992370605
216.1199951171875 230.4799957275391 14.47000026702881
216.7400054931641 233.0099945068359 12.64999961853027
216.3999938964844 231.5200042724609 11.69999980926514
216.1999969482422 230.8399963378906 11.80000019073486
216.0399932861328 230.2599945068359 13.38000011444092
216.2100067138672 230.7799987792969 10.15999984741211
216.1000061035156 230.4199981689453 11.11999988555908
216.6300048828125 232.3899993896484 9.369999885559082
216.7899932861328 233.1999969482422 8.909999847412109
216.6600036621094 232.6499938964844 10.3100004196167
217.3500061035156 233.0399932861328 13.6899995803833
217.3300018310547 232.8999938964844 10.67000007629395
217.3000030517578 233.0700073242188 15.39000034332275
216.7100067138672 230.5899963378906 13.25
216.9799957275391 231.6600036621094 10.47999954223633
216.5099945068359 229.7899932861328 13.64999961853027
217.1699981689453 232.3899993896484 12
217.3300018310547 232.8300018310547 7.239999771118164
217.0899963378906 231.9700012207031 11.36999988555908
216.8500061035156 231.1199951171875 11.84000015258789
217.7200012207031 231.8500061035156 15.75
218.1399993896484 233.4900054931641 13.1899995803833
217.0899963378906 229.3800048828125 13.89000034332275
217.3099975585938 230.2100067138672 13.42000007629395
217.6399993896484 231.5099945068359 13.27999973297119
218.1600036621094 233.6000061035156 7.800000190734863
218.3300018310547 234.2400054931641 13.05000019073486
218.3800048828125 231.5200042724609 14.27000045776367
219.0299987792969 233.8999938964844 8.029999732971191
218.6699981689453 234.5599975585938 13.0600004196167
218.9299926757812 234.3500061035156 7.949999809265137
218.3699951171875 233.6600036621094 7.710000038146973
218.0700073242188 234.0800018310547 13
218.3099975585938 233.0899963378906 13.81999969482422
218.4100036621094 232.9199981689453 12
218.3999938964844 232.6499938964844 14.4399995803833
218.2799987792969 233.3000030517578 12.85999965667725
217.8099975585938 231.9700012207031 16.71999931335449
217.2599945068359 234.6100006103516 13.40999984741211
217.4700012207031 233.5500030517578 15.72000026702881
217.2400054931641 235.6799926757812 8.069999694824219
217.7200012207031 233.3600006103516 10.6899995803833
217.5299987792969 233.6799926757812 12.89000034332275
217.5800018310547 233.3099975585938 13.60000038146973
216.8099975585938 235.1100006103516 7.96999979019165
217 233.6799926757812 12.22000026702881
216.9400024414062 233.3699951171875 14.67000007629395
217.0700073242188 233 13.88000011444092
217.3600006103516 232.1999969482422 12.18000030517578
217.2400054931641 232.9799957275391 10.73999977111816
217.0299987792969 233.8200073242188 9.619999885559082
216.8000030517578 234.5800018310547 11.28999996185303
216.8500061035156 233.8800048828125 14.30000019073486
217.4400024414062 231.5299987792969 13.63000011444092
216.8800048828125 233.2100067138672 17.29000091552734
217.4100036621094 232.7100067138672 7.230000019073486
217.3399963378906 231.9600067138672 14.5600004196167
216.7899932861328 234.1999969482422 13.43000030517578
