98.06999969482422 435.6099853515625 11.23999977111816
98.86000061035156 435.4400024414062 9.689999580383301
98.61000061035156 435.489990234375 11.38000011444092
98.38999938964844 435.5700073242188 9.140000343322754
96.68000030517578 435.9800109863281 9.829999923706055
97.25 435.8399963378906 9.939999580383301
97.51000213623047 435.75 11.44999980926514
97.66999816894531 435.7300109863281 10.46000003814697
97.79000091552734 435.7099914550781 9.680000305175781
97.44000244140625 435.8099975585938 8.550000190734863
97.48999786376953 436.5199890136719 10.61999988555908
97.73000335693359 436.4800109863281 9.090000152587891
97.84999847412109 436.4299926757812 11.73999977111816
98.29000091552734 436.3399963378906 8.930000305175781
98.29000091552734 436.2699890136719 12.18000030517578
98.04000091552734 436.3800048828125 10.28999996185303
97.30000305175781 436.5499877929688 11.8100004196167
96.75 436.6600036621094 11.68000030517578
97.09999847412109 437.3500061035156 11.47999954223633
98.41999816894531 437.0700073242188 9.619999885559082
97.69999694824219 437.2099914550781 11.03999996185303
98.88999938964844 436.9400024414062 10.36999988555908
97.95999908447266 437.1499938964844 9.390000343322754
98.23000335693359 437.8399963378906 10.72000026702881
98.05999755859375 437.7000122070312 10.55000019073486
97.48999786376953 437.0700073242188 11.43000030517578
96.97000122070312 437.1799926757812 11.43000030517578
97.26999664306641 437.1099853515625 9.960000038146973
98.22000122070312 436.8099975585938 8.680000305175781
96.51999664306641 437.3099975585938 11.84000015258789
97.73000335693359 436.9599914550781 9.140000343322754
98.43000030517578 436.7900085449219 9.920000076293945
98.61000061035156 436.0199890136719 11.59000015258789
98.37999725341797 436.0599975585938 10.09000015258789
97.94999694824219 436.1799926757812 10.97000026702881
97.48999786376953 436.3200073242188 11.48999977111816
97.34999847412109 436.3299865722656 10.5
97.76999664306641 436.2099914550781 9.770000457763672
98.22000122070312 436.1199951171875 8.789999961853027
97.62999725341797 436.260009765625 8.560000419616699
98.01999664306641 435.5 11.52999973297119
97.29000091552734 435.6700134277344 10.05000019073486
97.47000122070312 435.6600036621094 11.28999996185303
98.58000183105469 435.3699951171875 11.38000011444092
98.08000183105469 437.6300048828125 10.42000007629395
97.20999908447266 437.1499938964844 10.96000003814697
97.62999725341797 437.0599975585938 10.38000011444092
97.73000335693359 437.0499877929688 9.279999732971191
96.91000366210938 437.2000122070312 11.60000038146973
98.05999755859375 436.9700012207031 8.680000305175781
98.61000061035156 436.7900085449219 9.880000114440918
97.56999969482422 436.3599853515625 7.159999847412109
97.83999633789062 436.2200012207031 10.65999984741211
98.27999877929688 436.1400146484375 8.729999542236328
97.69999694824219 436.2699890136719 8.949999809265137
97.55999755859375 436.3399963378906 8.640000343322754
97.70999908447266 435.5700073242188 11.47000026702881
97.15000152587891 435.739990234375 10.27999973297119
98.26000213623047 435.4299926757812 11.3100004196167
98.30000305175781 438.1199951171875 10.67000007629395
98.55000305175781 437.5199890136719 10.32999992370605
97.52999877929688 437.2799987792969 9.979999542236328
97.27999877929688 437.2099914550781 11.52000045776367
97.87000274658203 437.3699951171875 11.15999984741211
98.05000305175781 437.3900146484375 10.10000038146973
96.83000183105469 437.1000061035156 10.86999988555908
97.01999664306641 437.1499938964844 9.720000267028809
97.66000366210938 437.2999877929688 9.130000114440918
98.41000366210938 436.75 9.680000305175781
97.91999816894531 436.6199951171875 9.270000457763672
97.5 436.5 8.239999771118164
98.08999633789062 436.6799926757812 11.61999988555908
98.79000091552734 436.8599853515625 10.44999980926514
97.63999938964844 436.5599975585938 10.97999954223633
98.44999694824219 436.1099853515625 11.39999961853027
97.55000305175781 435.9100036621094 10.1899995803833
97.95999908447266 435.9700012207031 10.89000034332275
98.23999786376953 436.0499877929688 9.020000457763672
97.33999633789062 435.8599853515625 11.75
96.98000335693359 435.760009765625 10.05000019073486
97.80999755859375 435.9599914550781 11.92000007629395
98.68000030517578 435.5499877929688 11.46000003814697
98.15000152587891 435.4200134277344 11.56999969482422
97.69000244140625 435.3099975585938 10.89999961853027
97.97000122070312 437.9599914550781 10.77999973297119
96.98999786376953 436.9800109863281 9.880000114440918
97.37000274658203 437.0799865722656 8.840000152587891
97.20999908447266 437 11.23999977111816
98.08000183105469 437.239990234375 9.970000267028809
97.59999847412109 437.1199951171875 10.21000003814697
97.37000274658203 436.2200012207031 11.76000022888184
97.05999755859375 436.1499938964844 9.579999923706055
97.90000152587891 436.3200073242188 11.64000034332275
98.05000305175781 436.3999938964844 8.619999885559082
98.70999908447266 436.5400085449219 9.659999847412109
97.19999694824219 436.1900024414062 10.57999992370605
96.61000061035156 436.0299987792969 9.949999809265137
97.75 436.3299865722656 10.44999980926514
97.52999877929688 436.260009765625 9.149999618530273
97.26000213623047 435.4500122070312 10.02999973297119
97.95999908447266 435.6000061035156 11.27999973297119
97.56999969482422 435.5700073242188 8.760000228881836
98.5 435.760009765625 11.38000011444092
97.72000122070312 435.5700073242188 9.630000114440918
97.44999694824219 435.4800109863281 11.32999992370605
98.75 435.8200073242188 9.180000305175781
98.12999725341797 435.7000122070312 8.869999885559082
97.94000244140625 437.739990234375 10.68000030517578
96.55999755859375 437.4100036621094 12.01000022888184
97.05999755859375 437.5299987792969 11.65999984741211
97.87000274658203 437.010009765625 8.840000152587891
98.26999664306641 437.0899963378906 9.710000038146973
97.37000274658203 436.8800048828125 10.42000007629395
97.66999816894531 436.9599914550781 9.630000114440918
96.84999847412109 436.7699890136719 12.10000038146973
97.22000122070312 436.8900146484375 11.52000045776367
98.41999816894531 436.5299987792969 9.319999694824219
97.54000091552734 436.3399963378906 11.76000022888184
96.73000335693359 436.1199951171875 9.960000038146973
97.66999816894531 436.3299865722656 9.029999732971191
97.11000061035156 436.2799987792969 12.18000030517578
97.20999908447266 436.239990234375 9.510000228881836
97.73000335693359 436.3800048828125 10.6899995803833
98.41999816894531 435.9800109863281 8.939999580383301
98.15000152587891 435.9700012207031 12.39000034332275
97.5 435.7900085449219 9.710000038146973
97.29000091552734 435.7699890136719 12.10999965667725
97.75 435.7999877929688 8.739999771118164
98.08000183105469 435.9500122070312 11.01000022888184
97.62999725341797 435.8500061035156 11.35000038146973
98.43000030517578 435.3900146484375 11.22000026702881
98.36000061035156 435.7300109863281 11.10999965667725
98.37000274658203 435.6499938964844 9.329999923706055
98.66999816894531 436.8200073242188 9.079999923706055
98.26999664306641 435.4100036621094 11.71000003814697
97.79000091552734 436.0899963378906 11.31999969482422
97.87999725341797 436.3500061035156 10.48999977111816
98.12000274658203 437.3800048828125 10.22000026702881
97.91000366210938 436.3099975585938 8.840000152587891
98 436.7999877929688 8.579999923706055
97.44999694824219 436.7900085449219 10.19999980926514
97.16000366210938 435.6900024414062 10.53999996185303
97.44000244140625 436.5199890136719 7.900000095367432
97.25 436.0799865722656 9.960000038146973
97.51999664306641 437.260009765625 11.39999961853027
97.37000274658203 436.7200012207031 11.73999977111816
97.23000335693359 436.1799926757812 11.89999961853027
96.93000030517578 437.2900085449219 9.770000457763672
96.86000061035156 437.2799987792969 11.39000034332275
96.62000274658203 436.1400146484375 9.930000305175781
96.76999664306641 436.8299865722656 11.78999996185303
97.30999755859375 436.8099975585938 10.77000045776367
97.16000366210938 436.1400146484375 9.609999656677246
98.16999816894531 437.8099975585938 10.5600004196167
97.80000305175781 436.3399963378906 11.63000011444092
97.88999938964844 436.7300109863281 9.319999694824219
97.73000335693359 436.1700134277344 8.689999580383301
97.55999755859375 435.2799987792969 11.23999977111816
97.62000274658203 435.7000122070312 9.579999923706055
97.61000061035156 435.6099853515625 8.760000228881836
97.69000244140625 435.7999877929688 11.10999965667725
98.04000091552734 437.2999877929688 10.22999954223633
97.65000152587891 435.7300109863281 10.35999965667725
97.80000305175781 436.260009765625 10.23999977111816
98.59999847412109 436.7300109863281 10
98.43000030517578 436.1499938964844 9.079999923706055
98.31999969482422 435.6099853515625 9.090000152587891
98.20999908447266 435.239990234375 11.69999980926514
98.36000061035156 435.760009765625 11.59000015258789
98.66999816894531 435.8800048828125 9.170000076293945
98.48000335693359 435.3099975585938 11.5600004196167
98.61000061035156 435.9100036621094 11.43000030517578
98.06999969482422 436.2900085449219 8.75
97.91000366210938 435.6400146484375 11.42000007629395
98.01000213623047 436.0499877929688 12.07999992370605
97.98000335693359 435.9299926757812 10.14999961853027
98.08000183105469 436.3599853515625 10.72999954223633
98.26000213623047 436.8599853515625 8.739999771118164
98.12999725341797 436.6099853515625 12.0600004196167
98.44000244140625 437.6099853515625 10.26000022888184
98.19000244140625 436.6300048828125 9.539999961853027
97.19000244140625 435.7900085449219 10.02999973297119
97.22000122070312 435.9400024414062 11.81999969482422
97.48000335693359 436.75 10.43000030517578
97.69000244140625 437.5199890136719 9.640000343322754
97.55999755859375 437.1000061035156 11.63000011444092
97.41999816894531 436.5499877929688 9.069999694824219
97.55999755859375 437.1300048828125 8.880000114440918
97.38999938964844 436.3800048828125 7.320000171661377
97.31999969482422 436.2699890136719 10.36999988555908
96.94000244140625 437.3800048828125 9.720000267028809
96.62000274658203 436.2099914550781 9.890000343322754
96.94000244140625 437.4400024414062 11.96000003814697
96.80000305175781 437.0400085449219 11.21000003814697
98.36000061035156 437.6700134277344 10.63000011444092
98.23000335693359 437.2000122070312 10.09000015258789
97.90000152587891 435.9500122070312 8.649999618530273
98.02999877929688 436.3299865722656 11.72000026702881
97.79000091552734 435.5400085449219 11.97999954223633
98.12999725341797 436.8200073242188 9.600000381469727
98.69000244140625 436.7000122070312 10.06999969482422
98.36000061035156 435.2799987792969 11.39999961853027
98.48000335693359 435.8399963378906 9.159999847412109
98.54000091552734 435.9200134277344 11.5
98.59999847412109 436.3399963378906 9.439999580383301
97.27999877929688 436.1099853515625 12.03999996185303
97.43000030517578 436.6900024414062 9.789999961853027
97.47000122070312 436.8800048828125 10.60000038146973
97.5 436.8800048828125 11.92000007629395
98.91000366210938 436.8800048828125 10.5
98.08000183105469 437.239990234375 9.550000190734863
98.30000305175781 436.1799926757812 10.03999996185303
98.41999816894531 435.8299865722656 9.090000152587891
98.04000091552734 437.260009765625 11.22000026702881
98.47000122070312 435.5 11.42000007629395
98.31999969482422 435.9700012207031 11.1899995803833
98.31999969482422 435.9500122070312 12.64000034332275
98.23999786376953 436.6000061035156 9.550000190734863
98.52999877929688 435.1099853515625 12.02000045776367
98.19000244140625 436.3500061035156 12.26000022888184
97.93000030517578 437.6199951171875 10.46000003814697
98.16000366210938 436.9400024414062 8.720000267028809
97.41000366210938 436.8699951171875 11.35000038146973
97.59999847412109 436.3099975585938 9.850000381469727
97.68000030517578 435.9100036621094 10.35999965667725
97.69999694824219 435.7000122070312 11.32999992370605
97.56999969482422 436.3599853515625 11.44999980926514
97.61000061035156 435.9599914550781 11.97000026702881
97.55999755859375 436.5799865722656 8.729999542236328
97.63999938964844 436.5899963378906 7.230000019073486
97.12999725341797 435.5299987792969 10.6899995803833
97.12000274658203 435.8399963378906 9.909999847412109
96.98000335693359 436.2900085449219 9.569999694824219
96.68000030517578 437.3500061035156 11.67000007629395
96.83000183105469 436.739990234375 11.69999980926514
96.94000244140625 436.0799865722656 9.720000267028809
97.76999664306641 435.739990234375 11.15999984741211
97.68000030517578 436.2999877929688 11.55000019073486
97.5 436.760009765625 10.52000045776367
97.63999938964844 436.0899963378906 8.310000419616699
97.52999877929688 436.7999877929688 11.5600004196167
97.51999664306641 436.6499938964844 9.539999961853027
97.37000274658203 437.3699951171875 11.31999969482422
97.62999725341797 436.1700134277344 10.02000045776367
97.38999938964844 437.2699890136719 10.11999988555908
98.37000274658203 435.7000122070312 9.079999923706055
98.26999664306641 436.2200012207031 8.75
98.54000091552734 435.3200073242188 11.4399995803833
98.12999725341797 436.7900085449219 9.670000076293945
97.98000335693359 437.5 11.34000015258789
98.12999725341797 436.739990234375 8.5
97.94999694824219 437.3500061035156 9.159999847412109
98.27999877929688 436.4299926757812 12.06999969482422
98 437.3999938964844 10.26000022888184
98.43000030517578 435.8800048828125 11.36999988555908
98.62999725341797 437.489990234375 10.25
98.73000335693359 436.8900146484375 9.100000381469727
98.76999664306641 436.989990234375 10.09000015258789
98.69000244140625 436.3599853515625 9.560000419616699
98.58999633789062 436.7900085449219 9.970000267028809
98.44999694824219 437.3099975585938 10.10999965667725
98.31999969482422 437.8299865722656 10.5600004196167
97.72000122070312 437.8699951171875 10.64999961853027
97.98000335693359 436.989990234375 9.659999847412109
98.12000274658203 436.6300048828125 8.909999847412109
98.30999755859375 435.5199890136719 11.27999973297119
98.26999664306641 436.1000061035156 8.850000381469727
98.41000366210938 435.489990234375 9.189999580383301
98.15000152587891 435.9100036621094 12.13000011444092
98.13999938964844 436.1700134277344 10.9399995803833
98.01000213623047 436.510009765625 11.86999988555908
98.11000061035156 436.4800109863281 9.560000419616699
97.34999847412109 437.3299865722656 11.44999980926514
97.44999694824219 436.9700012207031 10.6899995803833
97.69000244140625 436.3699951171875 8.430000305175781
97.63999938964844 436.2000122070312 11.30000019073486
97.62000274658203 436.6099853515625 9.619999885559082
97.72000122070312 435.9700012207031 10.10999965667725
97.77999877929688 435.6000061035156 11.64000034332275
96.81999969482422 437.2799987792969 11.72999954223633
97.08000183105469 436.1300048828125 12.0600004196167
97.31999969482422 435.5 9.960000038146973
96.93000030517578 436.8500061035156 11.21000003814697
96.88999938964844 437.2099914550781 9.739999771118164
97.18000030517578 436.1600036621094 9.630000114440918
96.87999725341797 435.8699951171875 9.810000419616699
97.5 435.9700012207031 11.77000045776367
97.13999938964844 437.2900085449219 11.81999969482422
97.25 436.9100036621094 11.27999973297119
97.23999786376953 436.7300109863281 10.35999965667725
97.44000244140625 435.8200073242188 9.600000381469727
97.63999938964844 435.25 10.64999961853027
98.11000061035156 435.8999938964844 8.640000343322754
97.80000305175781 437.3399963378906 11.07999992370605
98.16000366210938 435.989990234375 10.9399995803833
97.91999816894531 436.5499877929688 8.680000305175781
98.12000274658203 436.25 11.81999969482422
98.76000213623047 436 11.57999992370605
98.72000122070312 435.9100036621094 9.260000228881836
98.37999725341797 437.4100036621094 10.21000003814697
98.5 436.8399963378906 10.02999973297119
98.30000305175781 437.8200073242188 10.63000011444092
