229.8699951171875 256.5700073242188 8.970000267028809
229.5200042724609 257.7200012207031 8.930000305175781
229.6300048828125 258.2699890136719 11.72000026702881
229.6799926757812 258.3699951171875 8.800000190734863
229.75 258.7900085449219 12.84000015258789
229.4100036621094 257.2699890136719 7.849999904632568
229.4700012207031 257.1400146484375 4.510000228881836
229.3099975585938 257.0499877929688 10.44999980926514
229.0399932861328 256.1700134277344 14.64000034332275
228.5800018310547 254.4900054931641 16.79999923706055
229.7299957275391 258.8999938964844 14.64999961853027
229.2200012207031 256.7300109863281 11.1899995803833
229.4799957275391 257.6700134277344 11.86999988555908
228.9299926757812 255.6900024414062 13.56999969482422
229.6199951171875 258.4100036621094 13.52000045776367
229.1300048828125 256.3900146484375 13.47000026702881
229.2599945068359 256.9599914550781 14.84000015258789
228.1699981689453 252.6699981689453 12.69999980926514
228.6799926757812 254.6199951171875 14.0600004196167
229.2299957275391 258.8599853515625 12.15999984741211
229.0299987792969 257.8200073242188 9.739999771118164
229.5200042724609 259.739990234375 9.420000076293945
228.3699951171875 255.8000030517578 18.97999954223633
228.2400054931641 255.2100067138672 17.70000076293945
228.0299987792969 254.1999969482422 15.44999980926514
228.4799957275391 256.2099914550781 18.54000091552734
228.3600006103516 255.6600036621094 17.28000068664551
228.7599945068359 257.1799926757812 15.97000026702881
228.2899932861328 255.1900024414062 14.61999988555908
228.4799957275391 255.6100006103516 9.289999961853027
227.9799957275391 254.0599975585938 13.72999954223633
228.4900054931641 256.0199890136719 14.98999977111816
228.75 257.0599975585938 12.52000045776367
227.8999938964844 253.7299957275391 15.89000034332275
228.8300018310547 257.1000061035156 9.609999656677246
228.6600036621094 256.3399963378906 9.470000267028809
228.3999938964844 255.4100036621094 10.52999973297119
228.6799926757812 256.8699951171875 16.79000091552734
229.2100067138672 258.8599853515625 14.97000026702881
228.75 257.0799865722656 14.28999996185303
228.7700042724609 257 10.85000038146973
227.75 255.7400054931641 16.25
228.0899963378906 257.1300048828125 16.45999908447266
227.4199981689453 254.4299926757812 14.88000011444092
228 256.6799926757812 13.9399995803833
228.1499938964844 257.25 15.15999984741211
227.8800048828125 256.1000061035156 14.14999961853027
228.2899932861328 257.4599914550781 9.619999885559082
228.0700073242188 256.760009765625 9.550000190734863
228.0500030517578 256.5400085449219 10.48999977111816
227.7400054931641 255.5899963378906 13.06999969482422
228.7700042724609 259.5400085449219 12.64000034332275
228.3000030517578 257.739990234375 11.76000022888184
228.1699981689453 257.1600036621094 11.92000007629395
228.9199981689453 260.1499938964844 12.40999984741211
228.5500030517578 258.5599975585938 10.53999996185303
228.3800048828125 257.8800048828125 10.55000019073486
228.3000030517578 257.8299865722656 13.46000003814697
227.3999938964844 257.2900085449219 17.32999992370605
227.6199951171875 258.1000061035156 16.06999969482422
227.3899993896484 257.0400085449219 12.13000011444092
227.1100006103516 255.9199981689453 14.22000026702881
227.3699951171875 256.9599914550781 13.55000019073486
227.4799957275391 257.1099853515625 9.329999923706055
227.3200073242188 256.8399963378906 14.85999965667725
227.2799987792969 256.5700073242188 11.05000019073486
227.2400054931641 256.8399963378906 17.85000038146973
227.7299957275391 258.3500061035156 12.02999973297119
227.5899963378906 258.2000122070312 17.88999938964844
227.6399993896484 257.8999938964844 9.449999809265137
228.1100006103516 259.8599853515625 10.86999988555908
227.6199951171875 257.8399963378906 12.23999977111816
227.7700042724609 258.7699890136719 17.46999931335449
227.8000030517578 258.489990234375 10.77999973297119
226.2200012207031 255.0899963378906 14.34000015258789
226.6699981689453 256.9599914550781 15.52999973297119
226.6900024414062 257 13.96000003814697
226.4700012207031 256.1499938964844 16.57999992370605
227.3600006103516 259.6900024414062 15.51000022888184
227.1100006103516 258.3200073242188 9.420000076293945
226.6600036621094 256.4700012207031 9.739999771118164
226.6100006103516 256.5899963378906 13.10000038146973
226.9100036621094 257.4100036621094 9.010000228881836
226.7200012207031 256.7999877929688 9.029999732971191
227.2200012207031 258.8399963378906 12.09000015258789
226.6100006103516 258.7300109863281 13.81999969482422
226.2299957275391 256.8999938964844 11.4399995803833
226.1799926757812 256.5799865722656 9.069999694824219
226.6199951171875 258.5700073242188 12.03999996185303
226.5 258.2000122070312 12.64000034332275
225.8500061035156 258.010009765625 11.48999977111816
225.8300018310547 257.8699951171875 12.63000011444092
225.4299926757812 256.4400024414062 14.14000034332275
234.1399993896484 257.4599914550781 9.729999542236328
233.6799926757812 255.5099945068359 11.47999954223633
233.6900024414062 257.989990234375 13.34000015258789
233.5099945068359 257.739990234375 8.649999618530273
233.4499969482422 257.3399963378906 9.520000457763672
233.1900024414062 256.2799987792969 10.23999977111816
233.3899993896484 256.8099975585938 13.30000019073486
232.8699951171875 255.0700073242188 9.949999809265137
233.1100006103516 255.7100067138672 13.67000007629395
232.5599975585938 254.1600036621094 7.960000038146973
233.25 256.260009765625 13.36999988555908
233.5099945068359 257.3800048828125 13.10000038146973
233.0200042724609 255.6799926757812 10.23999977111816
232.8699951171875 257.5199890136719 8.560000419616699
232.75 256.9700012207031 8.510000228881836
232.5099945068359 256 9.590000152587891
232.7100067138672 256.5799865722656 12.81999969482422
232.5500030517578 255.8600006103516 12.14000034332275
231.8800048828125 255.7200012207031 15.35000038146973
231.5 254.2700042724609 14.21000003814697
231.0899963378906 252.75 11.8100004196167
230.8500061035156 252.1300048828125 8.239999771118164
231.5700073242188 254.6399993896484 12.90999984741211
231.2400054931641 253.4499969482422 12.60000038146973
231.6499938964844 255.0500030517578 11.57999992370605
232.2100067138672 254.6399993896484 11.78999996185303
232.3000030517578 254.8399963378906 12.9399995803833
231.7799987792969 252.6999969482422 13.98999977111816
231.9100036621094 253.5200042724609 11.92000007629395
230.9900054931641 252.3399963378906 12.94999980926514
232.3500061035156 257.989990234375 8.199999809265137
232.3699951171875 257.6900024414062 13.02000045776367
232 256.4100036621094 12.57999992370605
232.4700012207031 258.5899963378906 8.189999580383301
231.6600036621094 255.5200042724609 7.380000114440918
232.1600036621094 257.1400146484375 9.640000343322754
231.9700012207031 255.9799957275391 16.82999992370605
231.8800048828125 255.9799957275391 10.19999980926514
232.1900024414062 257.4400024414062 8.449999809265137
231.8500061035156 255.8300018310547 12.5600004196167
231.7899932861328 255.5700073242188 11.02000045776367
231.9499969482422 259.010009765625 11.60000038146973
231.4700012207031 257.4400024414062 9.350000381469727
231.4799957275391 257.1199951171875 14.03999996185303
231.6000061035156 257.9200134277344 9.029999732971191
231.5200042724609 256.989990234375 16.85000038146973
231.2299957275391 256.5199890136719 7.409999847412109
231.3600006103516 256.7900085449219 12.07999992370605
230.9400024414062 255.0099945068359 12.0600004196167
230.9199981689453 254.7799987792969 14.13000011444092
230.3699951171875 253.1199951171875 7.900000095367432
231.2400054931641 256.0299987792969 14.72999954223633
231.2299957275391 256.2099914550781 12.22999954223633
231.4499969482422 257.2900085449219 8.420000076293945
230.6499938964844 253.8500061035156 12
230.6300048828125 253.6300048828125 13.98999977111816
230.5099945068359 253.3500061035156 12.51000022888184
231.1499938964844 255.5 18.18000030517578
230.7100067138672 253.8999938964844 15.65999984741211
231.3399963378906 256.7999877929688 8.930000305175781
230.3899993896484 252.8999938964844 13.26000022888184
230.1600036621094 252.0599975585938 11.97000026702881
230.3099975585938 252.4100036621094 13.78999996185303
231.2799987792969 259.1600036621094 10
231.4299926757812 259.5 12
230.7700042724609 257.2999877929688 9.029999732971191
230.5800018310547 256.3399963378906 10.72000026702881
230.8600006103516 257.0400085449219 14.60999965667725
230.7799987792969 256.6499938964844 15.72000026702881
231.2400054931641 258.9100036621094 11.85999965667725
230.6900024414062 256.4100036621094 14.31999969482422
230.8800048828125 257.3900146484375 13.19999980926514
230.8500061035156 256.8900146484375 17.34000015258789
230.5500030517578 256.0799865722656 12.57999992370605
231.0399932861328 257.7000122070312 15.01000022888184
230.75 256.9400024414062 10.69999980926514
230.7400054931641 256.3599853515625 17.43000030517578
230.75 256.7300109863281 13.05000019073486
231.0599975585938 258.1900024414062 11.17000007629395
230.5899963378906 256.0599975585938 15.73999977111816
230.25 255.0399932861328 9.819999694824219
230.6600036621094 255.9499969482422 18.68000030517578
230.1300048828125 254.3200073242188 12.6899995803833
230.2200012207031 254.6300048828125 14.56999969482422
229.7400054931641 252.8200073242188 13.96000003814697
229.6799926757812 252.4199981689453 14.77000045776367
230.1799926757812 254.2899932861328 15.84000015258789
229.8999938964844 253.5599975585938 11.89000034332275
230.0399932861328 253.7299957275391 15.98999977111816
229.8399963378906 253.2100067138672 12.76000022888184
230.3099975585938 254.9100036621094 16.10000038146973
231.0099945068359 259.8200073242188 14.97999954223633
230.6000061035156 258.6400146484375 11.56999969482422
230.75 259.1300048828125 10.88000011444092
231.1100006103516 260.4700012207031 11.51000022888184
230.6199951171875 258.4100036621094 13.5600004196167
230.4100036621094 257.6799926757812 12.46000003814697
230.8000030517578 259.0400085449219 13.93000030517578
230.0800018310547 256.6099853515625 9.390000343322754
230.4700012207031 257.4700012207031 17.8799991607666
230.2599945068359 256.7200012207031 16.95000076293945
229.6199951171875 254.9400024414062 9.859999656677246
230.1000061035156 256.5199890136719 12.47999954223633
229.5700073242188 254.5700073242188 11.27999973297119
230.3600006103516 257.4100036621094 14.28999996185303
229.7799987792969 255.0800018310547 14.11999988555908
229.6600036621094 254.5399932861328 14.68000030517578
230.4900054931641 257.7000122070312 15.89000034332275
229.5500030517578 254.0899963378906 15.21000003814697
229.6499938964844 254.3600006103516 16.68000030517578
229.7400054931641 254.8200073242188 16.19000053405762
229.4900054931641 253.9100036621094 13.97000026702881
229.2899932861328 253.1799926757812 13.28999996185303
229.75 255.2200012207031 11.72999954223633
229.6900024414062 254.5200042724609 17.6200008392334
229.4799957275391 254.0700073242188 11.71000003814697
229.5099945068359 254.1999969482422 12.64000034332275
230.2700042724609 257.3999938964844 10.84000015258789
229.6300048828125 254.7799987792969 12.34000015258789
229.3399963378906 253.5200042724609 11.84000015258789
229.3899993896484 253.4700012207031 15.02000045776367
229.1900024414062 252.9900054931641 12.27999973297119
230.0299987792969 256.75 7.010000228881836
229.4100036621094 253.6900024414062 12.92000007629395
229.1799926757812 255.8000030517578 8.340000152587891
229.1000061035156 255.5700073242188 6.989999771118164
229.2100067138672 255.5399932861328 14.0600004196167
228.9499969482422 254.7200012207031 12.53999996185303
229.0599975585938 255.1000061035156 11.3100004196167
229.1000061035156 255.4100036621094 9.619999885559082
229.2700042724609 255.75 15.13000011444092
229.1000061035156 255 14.32999992370605
229.0299987792969 254.6799926757812 15.86999988555908
229.0500030517578 254.5399932861328 18
229.1300048828125 255.2799987792969 12.47999954223633
228.8600006103516 254.0500030517578 15.42000007629395
228.5200042724609 252.75 14.11999988555908
228.7400054931641 253.5500030517578 15.77000045776367
228.9700012207031 254.4900054931641 14.75
229.1100006103516 254.8399963378906 16.67000007629395
228.8399963378906 254.2299957275391 13.14000034332275
229.25 255.4199981689453 16.54999923706055
229.1600036621094 255.2200012207031 15.60000038146973
230.3800048828125 260.1600036621094 13.5
230.0299987792969 258.8999938964844 12.8100004196167
229.8500061035156 258.4299926757812 10.01000022888184
230.0299987792969 258.7000122070312 14.96000003814697
230.1399993896484 259.3599853515625 12.11999988555908
229.5099945068359 256.9200134277344 11.55000019073486
229.3899993896484 256.5499877929688 9.25
229.7700042724609 258.1700134277344 8.729999542236328
229.4299926757812 256.7000122070312 10.27000045776367
229.6799926757812 257.3800048828125 14.23999977111816
229.8999938964844 258.1799926757812 15.40999984741211
229.8999938964844 258.2999877929688 12.57999992370605
229.5599975585938 256.8500061035156 14.68000030517578
230.3399963378906 260.0199890136719 12.43000030517578
230.1100006103516 258.7000122070312 18.64999961853027
229.5200042724609 259.9400024414062 9.340000152587891
229.2299957275391 258.6000061035156 12.0600004196167
228.8000030517578 257.1000061035156 9.609999656677246
229.4700012207031 259.5199890136719 13.86999988555908
228.9199981689453 257.6300048828125 9.640000343322754
229.2400054931641 258.510009765625 14.73999977111816
228.8699951171875 257.2699890136719 10.84000015258789
229.4100036621094 259.2799987792969 12.5600004196167
228.8200073242188 256.9700012207031 12.17000007629395
228.3800048828125 255.6999969482422 8.310000419616699
228.9600067138672 257.5199890136719 12.1899995803833
229.3399963378906 259.3299865722656 9.350000381469727
228.4700012207031 255.8800048828125 9.619999885559082
228.7400054931641 256.6000061035156 13.80000019073486
228.8699951171875 257.2000122070312 13.52999973297119
228.6799926757812 256.5899963378906 9.970000267028809
228.6000061035156 255.6900024414062 18.46999931335449
228.5099945068359 255.6399993896484 14.93000030517578
228.3999938964844 255.0500030517578 17.77000045776367
228.1600036621094 254.3000030517578 13.42000007629395
228.5200042724609 255.4700012207031 17.22999954223633
227.7899932861328 252.9100036621094 12.61999988555908
227.9299926757812 253.4700012207031 12.28999996185303
228.1900024414062 254.4900054931641 14.52999973297119
227.9900054931641 253.7299957275391 13.77999973297119
227.7799987792969 252.7100067138672 14.80000019073486
228.0899963378906 253.9600067138672 15.25
228.8399963378906 259.5 14.35999965667725
228.8200073242188 259.75 12.47999954223633
228.4700012207031 258.1499938964844 13.43000030517578
228.4400024414062 258.260009765625 10.35999965667725
228.1999969482422 257.239990234375 11.51000022888184
228.0700073242188 256.8999938964844 9.5
228.3800048828125 257.5299987792969 16.72999954223633
228.2599945068359 257.260009765625 15.14999961853027
227.9499969482422 256.510009765625 10.53999996185303
228.1000061035156 256.8099975585938 12.38000011444092
227.8300018310547 255.6799926757812 12.92000007629395
228.1999969482422 257.4800109863281 9.560000419616699
228.1799926757812 257.010009765625 13.6899995803833
228.0299987792969 256.4200134277344 13.51000022888184
227.3399963378906 254.1900024414062 7.920000076293945
228.3000030517578 257.6099853515625 13.72000026702881
227.5099945068359 254.2899932861328 14.84000015258789
227.8800048828125 255.8600006103516 14.05000019073486
227.6799926757812 255.0899963378906 13.03999996185303
227.2299957275391 253.6999969482422 8.319999694824219
227.4199981689453 254.4499969482422 9.409999847412109
227.7899932861328 255.4499969482422 15.13000011444092
227.1199951171875 253.25 8.840000152587891
227.2299957275391 253.3600006103516 12.77999973297119
228.3699951171875 258 12.38000011444092
227.5700073242188 255.1000061035156 9.430000305175781
227.8899993896484 255.6499938964844 16.20000076293945
228.8500061035156 256.6700134277344 17.29000091552734
228.7200012207031 256.3299865722656 15.30000019073486
228.5700073242188 256.0400085449219 13.64000034332275
228.3300018310547 255.2899932861328 9.270000457763672
228.6900024414062 256.1099853515625 17.61000061035156
228.2100067138672 255.0700073242188 7.989999771118164
228.5500030517578 255.8800048828125 12.71000003814697
228.9900054931641 260.3900146484375 12.72999954223633
228.4199981689453 260.239990234375 13.57999992370605
228.1000061035156 259.2099914550781 10.77000045776367
228.2599945068359 259.7999877929688 10.94999980926514
227.8600006103516 258.25 12.05000019073486
227.1900024414062 253.0800018310547 14.25
228.1799926757812 259.2200012207031 14.18000030517578
227.5599975585938 257.2799987792969 9.529999732971191
227.4100036621094 256.7300109863281 9.439999580383301
227.5099945068359 256.75 13.28999996185303
227.5200042724609 256.989990234375 11.13000011444092
227.2599945068359 255.7400054931641 14.19999980926514
227.2200012207031 255.5599975585938 13.1899995803833
226.7200012207031 253.8999938964844 10.17000007629395
227.2100067138672 255.4700012207031 15.76000022888184
227.8800048828125 257.8800048828125 16.15999984741211
227.6199951171875 256.989990234375 14.5600004196167
227.5899963378906 256.8500061035156 17.09000015258789
227.7100067138672 257.0599975585938 18.43000030517578
227.3699951171875 256.4299926757812 11.27999973297119
226.5899963378906 253.5700073242188 8.260000228881836
226.5700073242188 253.3300018310547 10.42000007629395
226.8399963378906 254.4299926757812 9.850000381469727
227.0200042724609 254.8999938964844 12.60000038146973
227.8099975585938 257.9400024414062 13.39999961853027
227.8000030517578 258.0400085449219 10.60000038146973
227.8800048828125 258.1199951171875 14.5600004196167
227.5399932861328 259.3200073242188 15.34000015258789
227.2700042724609 258.3999938964844 13.43000030517578
227.5200042724609 259.0499877929688 17.31999969482422
227.1999969482422 258.3200073242188 9.369999885559082
227.1699981689453 258.1700134277344 11.94999980926514
227.75 257.7200012207031 12.19999980926514
227.6999969482422 257.8200073242188 9.439999580383301
227.1199951171875 257.7300109863281 13.18000030517578
226.9799957275391 257.2799987792969 13.53999996185303
226.8899993896484 257.0499877929688 12.14999961853027
226.9199981689453 256.9500122070312 15.27000045776367
226.8800048828125 256.7200012207031 13.96000003814697
226.6900024414062 256.5299987792969 9.149999618530273
226.7700042724609 256.239990234375 14.57999992370605
226.8099975585938 256.4599914550781 15.85000038146973
226.7299957275391 256.3399963378906 11.84000015258789
226.7700042724609 256.5299987792969 12.81999969482422
227.1199951171875 257.5700073242188 15.40999984741211
227.1799926757812 257.8299865722656 16.72999954223633
227.0299987792969 257.6900024414062 9.229999542236328
227.1999969482422 257.989990234375 14.71000003814697
226.2400054931641 254.5700073242188 11.64000034332275
226.3000030517578 257.4400024414062 12.18000030517578
226.5899963378906 258.5599975585938 12.10000038146973
226.4700012207031 257.8299865722656 14.23999977111816
226.2400054931641 257.4500122070312 9.020000457763672
226.4700012207031 258.1300048828125 12.75
225.5399932861328 256.7300109863281 15.93000030517578
226.2299957275391 257.0799865722656 13.57999992370605
226.0899963378906 256.739990234375 11.48999977111816
226.1999969482422 256.9400024414062 12.76000022888184
226.0899963378906 256.4599914550781 13.26000022888184
225.4100036621094 256.4200134277344 14.0600004196167
226.25 256.9500122070312 16.04000091552734
226.1300048828125 256.4800109863281 16.79000091552734
225.9100036621094 255.6000061035156 14.82999992370605
225.6499938964844 254.7200012207031 13.07999992370605
224.9199981689453 256.6099853515625 12.38000011444092
224.8500061035156 256.8900146484375 12.28999996185303
225.6900024414062 257.7900085449219 12.39999961853027
226.0099945068359 256.510009765625 15.72000026702881
226.1900024414062 256.9800109863281 11.44999980926514
226.2299957275391 257.3099975585938 13.5600004196167
226.3200073242188 257.8200073242188 14.31999969482422
226.5500030517578 258.6499938964844 12.02999973297119
226.6699981689453 258.8699951171875 9.75
226.3000030517578 257.4800109863281 12.23999977111816
226.4199981689453 257.8200073242188 9.210000038146973
226.5899963378906 255.5599975585938 10.96000003814697
226.6600036621094 255.7700042724609 9.119999885559082
226.3999938964844 255.0099945068359 11.30000019073486
225.7700042724609 255.5 15.03999996185303
226.6300048828125 255.9700012207031 12.63000011444092
226.7799987792969 256.5 12.65999984741211
225.8800048828125 255.7899932861328 12.36999988555908
226.4700012207031 255.2400054931641 13.64999961853027
226.4700012207031 255.1900024414062 9.539999961853027
226.8300018310547 256.6499938964844 11.27999973297119
227.4199981689453 259.1300048828125 15.51000022888184
227.5200042724609 259.6900024414062 15.5
227.1799926757812 258.2900085449219 17.69000053405762
227.2100067138672 258.4700012207031 16.09000015258789
227.3899993896484 256.2099914550781 12.98999977111816
227.4799957275391 256.4299926757812 10.86999988555908
227.2599945068359 255.6399993896484 13.10000038146973
227.3999938964844 256.1000061035156 9.340000152587891
227.3699951171875 256.0700073242188 14.02000045776367
227.1600036621094 258.0599975585938 14.60999965667725
227.2200012207031 258.2099914550781 13.28999996185303
227.0700073242188 257.8200073242188 16.92000007629395
228.4199981689453 260.2200012207031 12.59000015258789
226.8899993896484 257 13.61999988555908
227.0500030517578 257.5599975585938 13.55000019073486
227.2400054931641 258.3800048828125 11.85999965667725
226.8099975585938 256.7200012207031 16.10000038146973
226.8099975585938 253.6300048828125 10.23999977111816
226.8899993896484 253.8399963378906 8.270000457763672
226.9499969482422 254.3000030517578 9.609999656677246
227.3000030517578 255.5200042724609 9.289999961853027
227.1199951171875 254.9600067138672 9.060000419616699
227.6300048828125 257.1799926757812 13.86999988555908
228.1100006103516 258.7999877929688 9.899999618530273
227.6300048828125 257.0700073242188 10.52000045776367
227.6000061035156 256.8900146484375 12.06999969482422
227.8899993896484 258.25 14.51000022888184
228.2899932861328 259.6700134277344 12.52000045776367
227.7899932861328 255.1600036621094 9.5
227.8200073242188 255.3500061035156 13.18000030517578
228.1799926757812 259.3200073242188 10.85000038146973
228 258.7000122070312 16.20000076293945
227.5299987792969 256.8399963378906 17.1299991607666
228.0399932861328 256.4500122070312 13.53999996185303
227.8099975585938 258.0499877929688 16.38999938964844
228.2100067138672 256.8900146484375 9.439999580383301
228.2100067138672 256.7799987792969 10.44999980926514
227.9299926757812 255.8800048828125 13.01000022888184
228.1399993896484 256.7699890136719 15.60000038146973
228.3000030517578 257.4700012207031 14.39999961853027
227.9900054931641 256.0499877929688 11.42000007629395
228.4799957275391 257.9100036621094 10.52000045776367
227.8800048828125 258.010009765625 12.02000045776367
228.9700012207031 260.010009765625 12.67000007629395
228.2700042724609 257.260009765625 11.47999954223633
228.75 259.25 14.3100004196167
228.1199951171875 256.5299987792969 12.67000007629395
228.4799957275391 258.1300048828125 13.77999973297119
228.1999969482422 257.010009765625 13.57999992370605
228.0899963378906 256.2799987792969 9.479999542236328
228.4199981689453 257.739990234375 12.36999988555908
228.1399993896484 256.9100036621094 14.75
229.2200012207031 261.0299987792969 13.22999954223633
229.0800018310547 260.510009765625 12.92000007629395
228.8399963378906 259.4700012207031 12.64000034332275
227.25 252.9499969482422 8.840000152587891
227.7200012207031 254.7200012207031 8.069999694824219
227.5700073242188 254.1799926757812 8.090000152587891
228.1699981689453 253.6900024414062 9.279999732971191
228.0800018310547 253.4900054931641 11.06999969482422
228.1999969482422 254.1999969482422 15.22999954223633
227.3899993896484 253.5700073242188 8.489999771118164
228.4700012207031 255.2100067138672 12.03999996185303
228.4299926757812 255.0299987792969 13.39999961853027
228.2799987792969 254.4199981689453 13.31999969482422
228.1399993896484 253.7899932861328 13.96000003814697
228.4600067138672 254.8600006103516 9.260000228881836
228.3899993896484 255.0800018310547 17.72999954223633
228.5899963378906 255.7599945068359 16.8700008392334
228.5299987792969 255.3600006103516 10.64000034332275
228.75 256.2099914550781 12.59000015258789
228.7400054931641 256.010009765625 9.449999809265137
228.6000061035156 255.5099945068359 9.029999732971191
228.5599975585938 255.5200042724609 14.17000007629395
228.7599945068359 256.3999938964844 15.68000030517578
228.9299926757812 257.1000061035156 14.64000034332275
229.3200073242188 258.5299987792969 12
229.4600067138672 258.8699951171875 9.289999961853027
228.6499938964844 256.1400146484375 17.92000007629395
227.5099945068359 254.0599975585938 9.369999885559082
229.5200042724609 259.4400024414062 14.10999965667725
227.6499938964844 254.6399993896484 9.180000305175781
229.2799987792969 258.2000122070312 9.920000076293945
229.2899932861328 258.6400146484375 16.1200008392334
229.1699981689453 257.989990234375 11.97999954223633
228.6499938964844 255.9799957275391 14.77999973297119
229.3000030517578 258.4400024414062 13.02000045776367
227.9299926757812 253.1300048828125 14.52999973297119
228.0500030517578 253.3500061035156 12.3100004196167
229.0700073242188 254.4100036621094 10.92000007629395
229.0299987792969 254.6000061035156 14.63000011444092
229.2400054931641 255.1999969482422 9.310000419616699
228.9799957275391 254.1799926757812 13.23999977111816
229 254.3200073242188 11.9399995803833
229.1699981689453 255.0399932861328 15.81999969482422
229.1600036621094 254.8899993896484 11.6899995803833
229.1900024414062 255.2100067138672 14.25
229.4100036621094 255.7200012207031 9.670000076293945
229.3699951171875 255.4199981689453 6.980000019073486
229.2299957275391 255.4400024414062 16.81999969482422
229.1399993896484 254.6300048828125 9.260000228881836
229.4400024414062 255.8699951171875 8.189999580383301
229.6300048828125 256.7000122070312 11.3100004196167
229.3500061035156 255.8300018310547 13.51000022888184
229.7599945068359 257.2300109863281 11.34000015258789
229.5200042724609 256.2000122070312 10.25
229.7200012207031 257.3900146484375 15.22999954223633
229.0899963378906 254.9499969482422 16.78000068664551
229.9299926757812 258.1600036621094 13.5600004196167
229.9400024414062 257.9700012207031 9.859999656677246
230.1900024414062 259.0299987792969 10.94999980926514
229.9199981689453 258.0400085449219 14.60000038146973
229.8000030517578 257.6900024414062 17.75
229.6300048828125 256.489990234375 7.420000076293945
230.0299987792969 258.5799865722656 14.97999954223633
229.8999938964844 258.2699890136719 17.88999938964844
229.2599945068359 255.4100036621094 12.52999973297119
229.8500061035156 257.6600036621094 12.68000030517578
230.0599975585938 258.760009765625 18.57999992370605
229.9700012207031 258.2799987792969 12.57999992370605
229.8999938964844 257.7999877929688 11.43000030517578
229.7700042724609 257.510009765625 14.02999973297119
229.1399993896484 254.7799987792969 12.9399995803833
229.6699981689453 256.8500061035156 9.600000381469727
228.5899963378906 252.5399932861328 12.5600004196167
228.6699981689453 252.9600067138672 14.06999969482422
228.8300018310547 253.4400024414062 9.369999885559082
228.7299957275391 253.1199951171875 12.26000022888184
229 254.0599975585938 9.310000419616699
230.3800048828125 257.0899963378906 10.60000038146973
228.8399963378906 253.5899963378906 13.43000030517578
230.1499938964844 256.2099914550781 13.38000011444092
230.4799957275391 257.3099975585938 8.880000114440918
230.1900024414062 256.260009765625 8.319999694824219
228.8500061035156 253.7400054931641 12.07999992370605
230.1900024414062 256.3099975585938 12.42000007629395
230.2599945068359 256.5700073242188 10.05000019073486
230.3800048828125 257.4200134277344 17.73999977111816
228.9400024414062 253.8899993896484 10.72000026702881
230.3699951171875 257.2200012207031 14.22000026702881
230.6699981689453 258.4599914550781 13.5600004196167
230.6100006103516 258.0299987792969 12.71000003814697
230.8099975585938 258.9800109863281 14.05000019073486
230.7599945068359 258.6099853515625 12
231.0599975585938 259.9599914550781 15.10999965667725
231.0399932861328 259.8599853515625 11.30000019073486
230.5200042724609 257.7799987792969 14.61999988555908
230.1999969482422 256.739990234375 18.40999984741211
230.4900054931641 257.6900024414062 15.57999992370605
230.9199981689453 259.4800109863281 14.47000026702881
229.1699981689453 252.25 13.22999954223633
229.2599945068359 252.7299957275391 13.72000026702881
229.5599975585938 253.9100036621094 13.38000011444092
229.3300018310547 252.8699951171875 12.5
229.6300048828125 254.0899963378906 11.73999977111816
229.6900024414062 254.4600067138672 13.93000030517578
229.6699981689453 254.3699951171875 14.86999988555908
229.8899993896484 255.0800018310547 8.640000343322754
229.9400024414062 255.2799987792969 11.82999992370605
229.4299926757812 253.1999969482422 9.470000267028809
229.8000030517578 254.5700073242188 7.420000076293945
230.1600036621094 256.0700073242188 9.800000190734863
231.0500030517578 257.4400024414062 10.60999965667725
231.1399993896484 257.6199951171875 9.180000305175781
230.0200042724609 255.8099975585938 12.39000034332275
230.0700073242188 255.6499938964844 8.420000076293945
229.7799987792969 254.7200012207031 11.59000015258789
231.2100067138672 257.989990234375 10.60000038146973
229.5200042724609 253.5700073242188 11.57999992370605
230.8899993896484 256.989990234375 14.52000045776367
230.8099975585938 256.7799987792969 16.46999931335449
231.1699981689453 258.0599975585938 15.14000034332275
231.2899932861328 258.5199890136719 11.3100004196167
231.0599975585938 257.6300048828125 13.68000030517578
231.2299957275391 258.3500061035156 12.84000015258789
230.1799926757812 253.7100067138672 7.650000095367432
230.2299957275391 254.1399993896484 9.380000114440918
230.0399932861328 253.1399993896484 8.260000228881836
230.1100006103516 253.6100006103516 8.699999809265137
230.1999969482422 253.9400024414062 11
229.8800048828125 252.8699951171875 15.5
230.3099975585938 254.3699951171875 7.360000133514404
230.2200012207031 254.2700042724609 13.02999973297119
230.2700042724609 254.4100036621094 11.85000038146973
229.9900054931641 253.4100036621094 15.84000015258789
230.5599975585938 255.5200042724609 12.02000045776367
230.6499938964844 255.7799987792969 9.739999771118164
230.5399932861328 255.2599945068359 9.859999656677246
230.5700073242188 255.7700042724609 15.02000045776367
230.3099975585938 254.2599945068359 8.109999656677246
230.7200012207031 256.1300048828125 11.51000022888184
230.3000030517578 254.6999969482422 14.85000038146973
230.6900024414062 256.239990234375 15.6899995803833
230.9199981689453 256.6499938964844 7.21999979019165
230.7400054931641 256.4400024414062 14.13000011444092
230.8000030517578 256.5499877929688 12.89999961853027
229.9499969482422 253.0599975585938 13.47999954223633
230.8899993896484 256.75 11.47000026702881
230.6499938964844 256.0700073242188 17.25
229.8099975585938 252.5599975585938 13.22999954223633
230.3899993896484 254.6300048828125 9.550000190734863
230.1000061035156 253.6699981689453 13.65999984741211
230.3899993896484 255.1199951171875 15.97000026702881
230.75 256.6400146484375 17.86000061035156
231.3500061035156 258.7999877929688 13.6899995803833
231.5599975585938 259.5799865722656 12.3100004196167
231.4100036621094 259.010009765625 12.03999996185303
230.5500030517578 252.7700042724609 13.5
230.5500030517578 252.6499938964844 9.260000228881836
231.1799926757812 255.1799926757812 12.72000026702881
230.7400054931641 253.6399993896484 15.89000034332275
231.1300048828125 254.9100036621094 9.630000114440918
230.7400054931641 253.4600067138672 12.02999973297119
230.6499938964844 252.7899932861328 7.760000228881836
231.5399932861328 256.3699951171875 7.139999866485596
231.0599975585938 254.6799926757812 12.02000045776367
231.1600036621094 255.4199981689453 15.77000045776367
231.3500061035156 256.1099853515625 14.5
231.5700073242188 256.8999938964844 12.22000026702881
231.4700012207031 256.2300109863281 8.220000267028809
231.3899993896484 255.7799987792969 7.309999942779541
231.25 255.5899963378906 13.88000011444092
231.5399932861328 256.6900024414062 13.82999992370605
231.7299957275391 257.3299865722656 8.340000152587891
231.4400024414062 256.3800048828125 12.18000030517578
231.5399932861328 256.9400024414062 16.77000045776367
231.6600036621094 257.1900024414062 14.47000026702881
231.3099975585938 255.8999938964844 16.3799991607666
231.2400054931641 255.7100067138672 18.09000015258789
231.6999969482422 257.4200134277344 12.64000034332275
232.1699981689453 259.2200012207031 11.78999996185303
231.8800048828125 258.1799926757812 15.98999977111816
231.7400054931641 257.6700134277344 15.3100004196167
231.5800018310547 253.8300018310547 11.6899995803833
231.3099975585938 252.6499938964844 11.96000003814697
232 255.2799987792969 9.210000038146973
231.3999938964844 253.1399993896484 12.77000045776367
232.0099945068359 255.4100036621094 7.980000019073486
231.8899993896484 254.9799957275391 11.61999988555908
231.9700012207031 255.6399993896484 15.80000019073486
232.1399993896484 256.0199890136719 12.40999984741211
232.2799987792969 256.5799865722656 12.63000011444092
232.3200073242188 256.8699951171875 15.15999984741211
232.3600006103516 256.9400024414062 9.680000305175781
232.4199981689453 257.3900146484375 15.71000003814697
232.1999969482422 256.0700073242188 7.010000228881836
232.5099945068359 257.5400085449219 9.489999771118164
231.7400054931641 254.2400054931641 7.909999847412109
232.0700073242188 255.8200073242188 14.15999984741211
232.4299926757812 257.239990234375 11.93000030517578
231.9100036621094 254.8600006103516 7.550000190734863
232.5399932861328 257.6799926757812 13.11999988555908
232.5399932861328 254.5899963378906 8.119999885559082
232.5 254.8000030517578 11.89000034332275
232.8899993896484 256.2300109863281 9.380000114440918
233.0500030517578 256.7200012207031 9.840000152587891
232.8699951171875 256.3599853515625 13.18000030517578
233.1900024414062 257.3099975585938 9.600000381469727
233.0299987792969 256.8999938964844 12.92000007629395
232.7599945068359 255.5800018310547 9.859999656677246
233.2299957275391 257.3999938964844 8.630000114440918
233.0599975585938 256.8599853515625 8.609999656677246
233.8500061035156 257.6900024414062 9.220000267028809
233.3399963378906 255.8000030517578 10.6899995803833
225.6999969482422 257.8500061035156 14.18000030517578
225.4499969482422 256.8200073242188 11.8100004196167
225.5899963378906 257.3299865722656 13.8100004196167
226.4199981689453 258.4100036621094 16.88999938964844
226.25 257.5199890136719 9.029999732971191
226.2599945068359 257.5899963378906 13.76000022888184
225.5599975585938 254.75 12.89000034332275
226.1199951171875 254.3899993896484 11.10000038146973
226.3899993896484 255.3200073242188 12.10999965667725
226.6600036621094 256.4200134277344 9.260000228881836
226.3200073242188 255.2599945068359 14.02999973297119
227.4900054931641 259.7900085449219 15.78999996185303
226.8500061035156 257.1900024414062 9.039999961853027
227.2200012207031 258.6199951171875 12.13000011444092
226.8600006103516 257.239990234375 13.92000007629395
227.1000061035156 258.3299865722656 16.13999938964844
226.6100006103516 256.3200073242188 12.98999977111816
227.0599975585938 258.1499938964844 13.32999992370605
226.6999969482422 256.5799865722656 13.90999984741211
227.1699981689453 258.3599853515625 9.489999771118164
227 257.760009765625 12.60000038146973
226.9799957275391 257.739990234375 14.3100004196167
228.3600006103516 260.3299865722656 13.48999977111816
227.9499969482422 258.6700134277344 15.93000030517578
227.4499969482422 256.8200073242188 17.21999931335449
227.9600067138672 258.8299865722656 17.25
227.2799987792969 256.0899963378906 10.9399995803833
227.8200073242188 258.1799926757812 12.11999988555908
227.9100036621094 258.510009765625 14.76000022888184
227.5899963378906 257.1900024414062 9.619999885559082
227.6799926757812 257.510009765625 12.03999996185303
227.7700042724609 257.9599914550781 16.20999908447266
227.3899993896484 256.4599914550781 11.46000003814697
227.5 256.9400024414062 13.4399995803833
227.1300048828125 255.3800048828125 9.300000190734863
227.4400024414062 256.6799926757812 9.439999580383301
228.0700073242188 256.4400024414062 13.98999977111816
228.2799987792969 257.3399963378906 11.64999961853027
228.4199981689453 257.9100036621094 10.28999996185303
228.0099945068359 256.2200012207031 9.430000305175781
227.9100036621094 255.8200073242188 13.90999984741211
228.0099945068359 256.2799987792969 12.73999977111816
228.0700073242188 256.4800109863281 10.5
227.8600006103516 255.5599975585938 9.460000038146973
227.8300018310547 255.5 13.02000045776367
228.1900024414062 256.8699951171875 11.27999973297119
227.75 255.2100067138672 10.39000034332275
228.8300018310547 259.5 14.46000003814697
229.1000061035156 260.7099914550781 13.13000011444092
228.4700012207031 258.0700073242188 14.78999996185303
229.0200042724609 260.2099914550781 12.68000030517578
228.3899993896484 257.6900024414062 12.43000030517578
228.8800048828125 259.6499938964844 12.59000015258789
228.2700042724609 257.3699951171875 14.9399995803833
228.1499938964844 256.8599853515625 14.5
228.2599945068359 257.3500061035156 16.59000015258789
228.7899932861328 259.2000122070312 8.590000152587891
227.5099945068359 254.1300048828125 8
228.4600067138672 258.010009765625 13.38000011444092
228.1499938964844 256.9800109863281 16.04000091552734
227.6699981689453 254.9299926757812 9.390000343322754
227.5500030517578 254.2899932861328 9.300000190734863
227.1900024414062 253.0500030517578 14.14999961853027
228.3999938964844 255.5099945068359 18.75
228.7599945068359 256.989990234375 15.03999996185303
228.3699951171875 255.4299926757812 14.14000034332275
228.2799987792969 255.0099945068359 13.47000026702881
227.9299926757812 253.6999969482422 15.31999969482422
228.8000030517578 256.9200134277344 10.35999965667725
228.7799987792969 256.8900146484375 13.57999992370605
228.2700042724609 254.9799957275391 12.0600004196167
228.5399932861328 255.8399963378906 7.980000019073486
228.4100036621094 255.3600006103516 9.210000038146973
227.9299926757812 253.5 12.39999961853027
228.5700073242188 255.9600067138672 9.600000381469727
228.3699951171875 255.1600036621094 8.199999809265137
227.7200012207031 252.6799926757812 12.69999980926514
227.8800048828125 253.3500061035156 11
228.5299987792969 256.0199890136719 12.60999965667725
228.6799926757812 256.489990234375 9.689999580383301
229.3500061035156 259.2200012207031 12.8100004196167
229.4900054931641 259.8999938964844 14.47999954223633
229.0099945068359 255.0500030517578 12.59000015258789
229.2200012207031 255.9400024414062 10.3100004196167
228.8500061035156 254.3899993896484 10.89000034332275
229.4799957275391 256.8500061035156 7.989999771118164
228.8500061035156 254.3500061035156 9.279999732971191
228.7299957275391 254.0200042724609 11.84000015258789
229.1300048828125 255.5599975585938 9.619999885559082
229.0899963378906 255.25 7
228.8399963378906 254.3699951171875 12.77999973297119
229.0099945068359 254.9900054931641 9.359999656677246
229.2599945068359 255.9299926757812 7
228.9600067138672 254.9100036621094 11.27000045776367
229.5 256.8599853515625 4.570000171661377
229.9299926757812 258.8299865722656 14.6899995803833
229.7299957275391 258.1400146484375 18.10000038146973
229.7599945068359 258.1600036621094 14.69999980926514
230.1399993896484 259.6099853515625 11.02999973297119
229.8300018310547 258.3800048828125 12.53999996185303
229.8300018310547 258.5799865722656 18.61000061035156
229.7299957275391 258.010009765625 16.8700008392334
229.7100067138672 257.9100036621094 15.34000015258789
229.7700042724609 258 8.529999732971191
229.7700042724609 258.0599975585938 11.68000030517578
229.4400024414062 256.9100036621094 11.36999988555908
230.1799926757812 259.7699890136719 12.3100004196167
228.7299957275391 254.0200042724609 15.22999954223633
229.3999938964844 256.5400085449219 10.52999973297119
229.7299957275391 258.010009765625 13.47000026702881
229.0099945068359 255.0700073242188 14.38000011444092
230.4600067138672 257.9299926757812 12.64000034332275
230.5599975585938 258.3099975585938 11.68000030517578
230.5800018310547 258.260009765625 13.52999973297119
230.4799957275391 257.8099975585938 11.10000038146973
230.6999969482422 258.739990234375 12.21000003814697
229.4299926757812 256.9200134277344 14.60999965667725
229.6300048828125 254.5899963378906 14.52000045776367
229.9900054931641 255.9199981689453 9.430000305175781
229.6199951171875 254.5200042724609 16.25
230.0899963378906 256.2900085449219 8.479999542236328
230.0399932861328 256.1099853515625 12.1899995803833
230.3099975585938 257.3399963378906 14.13000011444092
230.1199951171875 256.510009765625 9.720000267028809
229.4700012207031 253.9900054931641 12.72999954223633
229.3399963378906 253.3899993896484 15.93000030517578
230.8200073242188 259.260009765625 14.19999980926514
230.6999969482422 258.8900146484375 13.69999980926514
230.3600006103516 257.4400024414062 15.48999977111816
229.1799926757812 252.7899932861328 12.42000007629395
229.6000061035156 254.4100036621094 11.60000038146973
229.7700042724609 254.8999938964844 7.050000190734863
229.8999938964844 255.6100006103516 8.579999923706055
229.4400024414062 253.7200012207031 11.69999980926514
229.3399963378906 253.3399963378906 9.279999732971191
230.0399932861328 253.5 11.07999992370605
230.1300048828125 253.75 8.609999656677246
229.8800048828125 252.8699951171875 10.92000007629395
229.9100036621094 252.8399963378906 7.679999828338623
230.1999969482422 254.1399993896484 12.85000038146973
230.9700012207031 257.0799865722656 8.729999542236328
230.3500061035156 254.7299957275391 9.659999847412109
230.8200073242188 256.3900146484375 7.119999885559082
230.3500061035156 254.6100006103516 11.6899995803833
230.4700012207031 255.1499938964844 11.89999961853027
230.6999969482422 256.010009765625 8.069999694824219
231.1499938964844 257.8500061035156 15.14999961853027
230.6499938964844 256.0199890136719 18.10000038146973
230.7200012207031 256.2900085449219 15.73999977111816
230.6999969482422 256.0799865722656 14.60000038146973
230.8200073242188 256.5899963378906 16.78000068664551
230.8000030517578 256.3800048828125 10.63000011444092
230.6799926757812 256.0400085449219 13.09000015258789
230.8200073242188 256.6300048828125 11.64999961853027
231.2299957275391 258.1600036621094 10.94999980926514
230.3800048828125 254.9700012207031 15.93000030517578
230.8699951171875 256.6700134277344 13.14000034332275
231.4799957275391 256.8999938964844 16.71999931335449
231.6199951171875 257.5 15.17000007629395
231.4199981689453 256.7099914550781 15.38000011444092
231.5099945068359 257.0499877929688 14.51000022888184
231.5800018310547 257.2099914550781 12.53999996185303
231.4199981689453 256.6700134277344 13.81999969482422
231.3099975585938 256.2900085449219 14.78999996185303
231.2299957275391 255.9100036621094 15.76000022888184
232.2200012207031 259.8999938964844 12.5
231.6900024414062 257.5700073242188 8.289999961853027
230.9900054931641 254.8999938964844 13.43000030517578
231.0700073242188 255.2599945068359 12.5
231.1900024414062 255.6499938964844 11.61999988555908
231.3000030517578 256.010009765625 7.25
230.5800018310547 253.2899932861328 10.84000015258789
230.6100006103516 253.4400024414062 12.25
230.5 252.9700012207031 13.5600004196167
231.3800048828125 256.3599853515625 8.159999847412109
230.4199981689453 252.5700073242188 11.10999965667725
230.9900054931641 254.8500061035156 12.05000019073486
232.2299957275391 257.1600036621094 15.43000030517578
232.4100036621094 257.9100036621094 10.10000038146973
232.3200073242188 257.4599914550781 12.89000034332275
231.8699951171875 255.6799926757812 14.13000011444092
231.5399932861328 254.3800048828125 14.10999965667725
232.0599975585938 256.3900146484375 10.60999965667725
231.8600006103516 255.6600036621094 9.060000419616699
231.8699951171875 255.8099975585938 12.15999984741211
231.4700012207031 254.0399932861328 11.59000015258789
232.5 258.0499877929688 8.140000343322754
232.3000030517578 257.2900085449219 8.359999656677246
231.9299926757812 256.0199890136719 9.869999885559082
232.0099945068359 256.2900085449219 12.56999969482422
231.4600067138672 254.0599975585938 9.689999580383301
231.8200073242188 255.5200042724609 11.07999992370605
232.9400024414062 257.0299987792969 12.96000003814697
232.6600036621094 255.8300018310547 9.560000419616699
233.1000061035156 257.489990234375 8.529999732971191
232.9700012207031 257.0700073242188 9.689999580383301
232.9600067138672 256.8800048828125 8.5
232.3800048828125 254.5599975585938 7.71999979019165
233.5399932861328 256.5 10.1899995803833
233.5599975585938 256.5700073242188 13.39000034332275
233.8300018310547 257.5299987792969 9.390000343322754
233.3600006103516 255.6999969482422 10.52000045776367
233.9700012207031 257.6000061035156 8.970000267028809
233.8800048828125 257.1400146484375 13.84000015258789
233.3300018310547 257.8299865722656 8.640000343322754
233.3200073242188 257.5499877929688 9.579999923706055
233.7100067138672 255.7100067138672 11.68000030517578
232.0599975585938 259.4599914550781 11.90999984741211
232.8600006103516 256.9100036621094 7.889999866485596
232.8500061035156 256.2000122070312 13.78999996185303
232.7599945068359 256.510009765625 12.90999984741211
231.6399993896484 259.0700073242188 10.10000038146973
232.0899963378906 257.3699951171875 9.409999847412109
232.4299926757812 256.0299987792969 9.529999732971191
232.1799926757812 256.6700134277344 12.52000045776367
232.3300018310547 256.25 11.59000015258789
232.5500030517578 255.4799957275391 9.890000343322754
231.9600067138672 257.4700012207031 12.78999996185303
231.9799957275391 257.1000061035156 14.88000011444092
231.5500030517578 258.6600036621094 15.36999988555908
231.5 259.1300048828125 13.27999973297119
232.2200012207031 256.8099975585938 9.760000228881836
231.1900024414062 258.8500061035156 9.010000228881836
231.3099975585938 258.1900024414062 10.77999973297119
231.3699951171875 258.1400146484375 9.029999732971191
231.7700042724609 256.6099853515625 8.760000228881836
231.8200073242188 256.2799987792969 9.479999542236328
231.4499969482422 257.010009765625 14.06999969482422
231.1100006103516 258.5499877929688 13.02999973297119
231.5200042724609 257.5 9.300000190734863
231.7200012207031 256.25 12.42000007629395
232.0599975585938 255.6300048828125 8.090000152587891
231.6399993896484 256.2799987792969 14
231.1600036621094 258.6900024414062 11.86999988555908
231.8200073242188 255.7599945068359 12.82999992370605
231.8300018310547 255.1799926757812 16.1299991607666
231.6000061035156 256.0499877929688 16.63999938964844
232.0399932861328 255.1100006103516 11.46000003814697
231.7400054931641 255.6199951171875 15.6899995803833
230.7400054931641 258 11.09000015258789
230.5200042724609 258.4599914550781 13.60999965667725
230.9799957275391 256.8699951171875 11.63000011444092
230.6799926757812 257.5700073242188 14.86999988555908
231.1300048828125 256.3500061035156 12.11999988555908
230.75 257.5299987792969 13.19999980926514
230.6699981689453 257.9700012207031 12.52000045776367
230.8300018310547 256.8099975585938 16.34000015258789
231.75 254.4100036621094 7.860000133514404
230.5299987792969 258.7099914550781 11.17000007629395
231.0599975585938 256.1400146484375 14.85999965667725
231.3800048828125 255.3800048828125 11.46000003814697
230.7400054931641 256.8299865722656 17.82999992370605
230.5800018310547 258.3999938964844 12.02999973297119
231.0500030517578 255.5700073242188 18.1299991607666
231 255.9499969482422 17.55999946594238
230.5800018310547 257.5 17.81999969482422
231.0200042724609 256.3800048828125 13.63000011444092
