494.3200073242188 197.1300048828125 10.40999984741211
493.739990234375 197.2700042724609 10.25
493.3800048828125 197.9400024414062 10.39000034332275
493.7200012207031 197.8600006103516 7.679999828338623
494.5299987792969 197.6399993896484 10.81999969482422
493.7099914550781 197.8500061035156 11.26000022888184
494.2000122070312 197.7200012207031 9.939999580383301
494.0499877929688 198.3999938964844 9.659999847412109
494.6300048828125 198.2700042724609 11.4399995803833
493 198.6999969482422 7.260000228881836
493.2799987792969 199.3600006103516 10.82999992370605
493.6400146484375 198.5299987792969 7.329999923706055
493.8200073242188 199.1900024414062 11.23999977111816
494.4100036621094 198.3200073242188 10.39999961853027
494.489990234375 199.0299987792969 11.19999980926514
495 198.8999938964844 11.61999988555908
494.8599853515625 198.9400024414062 10.28999996185303
494.9700012207031 198.2100067138672 8.840000152587891
494.989990234375 198.9600067138672 8.079999923706055
494.6300048828125 198.2799987792969 8.029999732971191
495.3900146484375 198.8099975585938 10.55000019073486
494.3900146484375 199.1199951171875 7.929999828338623
493.010009765625 199.4299926757812 9.890000343322754
493.4100036621094 200.0399932861328 8.630000114440918
492.739990234375 200.1799926757812 8.439999580383301
494.7699890136719 199.6600036621094 8.220000267028809
494.3599853515625 199.7400054931641 10.90999984741211
494.260009765625 199.8000030517578 9.619999885559082
493.0199890136719 200.6799926757812 8.560000419616699
493.5499877929688 200.5500030517578 8.850000381469727
495.1099853515625 200.1699981689453 8.189999580383301
493.3299865722656 200.6999969482422 8.710000038146973
493.8800048828125 200.5899963378906 8.739999771118164
495.0799865722656 200.2400054931641 8.210000038146973
494.0299987792969 199.8899993896484 10.89000034332275
494.5799865722656 199.7799987792969 10.93000030517578
493.1000061035156 200.1000061035156 8.470000267028809
493.7300109863281 199.9400024414062 8.289999961853027
494.8200073242188 199.6499938964844 8.149999618530273
493.9800109863281 199.3200073242188 7.78000020980835
493.7799987792969 199.3399963378906 9.510000228881836
494.25 199.2400054931641 10.56999969482422
493.6700134277344 199.3999938964844 10.85000038146973
495.4400024414062 198.9499969482422 10.56999969482422
492.760009765625 199.5899963378906 8.619999885559082
494.739990234375 199.1499938964844 11.27999973297119
493.239990234375 199.4900054931641 9.539999961853027
495.0899963378906 198.3699951171875 11.75
493.510009765625 198.8000030517578 10.6899995803833
494.6300048828125 198.4799957275391 10.39000034332275
494.8299865722656 198.3999938964844 8.079999923706055
493.7799987792969 198.6499938964844 7.610000133514404
493.2300109863281 198.8300018310547 7.260000228881836
494.3299865722656 198.5200042724609 7.840000152587891
493.489990234375 198.0599975585938 11.31999969482422
494.6499938964844 197.7599945068359 11.01000022888184
493.5899963378906 198.0099945068359 10.40999984741211
493.0799865722656 198.1100006103516 9.579999923706055
494.3900146484375 197.1100006103516 10.26000022888184
493.8099975585938 197.2799987792969 10.26000022888184
493.2799987792969 197.3800048828125 10.21000003814697
493.9599914550781 197.25 9.220000267028809
494.2000122070312 197.0899963378906 10.46000003814697
493.9700012207031 197.1300048828125 9.119999885559082
493.6400146484375 197.1999969482422 10.36999988555908
494.7099914550781 196.9400024414062 10.01000022888184
494.2099914550781 197.8000030517578 9.770000457763672
493.8099975585938 197.9199981689453 10.73999977111816
493.3200073242188 198 11.11999988555908
495.0299987792969 197.5800018310547 10.88000011444092
493.8399963378906 197.9499969482422 7.619999885559082
493.510009765625 198.5700073242188 11.17000007629395
494.1900024414062 198.3999938964844 11.68000030517578
493.7999877929688 198.5599975585938 9.350000381469727
494.4700012207031 198.3899993896484 10.02000045776367
495.25 198.1900024414062 11.11999988555908
494.6700134277344 198.3099975585938 11.34000015258789
492.8900146484375 199.4799957275391 10.44999980926514
493.3299865722656 199.3800048828125 9.840000152587891
494.6600036621094 198.3600006103516 7.920000076293945
493.25 198.6900024414062 9.829999923706055
495.2200012207031 198.8899993896484 10.4399995803833
494.0299987792969 198.4900054931641 7.75
493.6099853515625 199.3300018310547 8.239999771118164
494.1300048828125 199.2200012207031 7.929999828338623
495.3200073242188 198.9100036621094 8.069999694824219
494.1700134277344 199.1699981689453 11.17000007629395
494.8099975585938 198.9900054931641 11.40999984741211
493.7099914550781 200 10.8100004196167
494.260009765625 199.8600006103516 10.82999992370605
492.6799926757812 200.3200073242188 8.489999771118164
493.7799987792969 200.0500030517578 8.289999961853027
493.3299865722656 200.1300048828125 8.640000343322754
494.8699951171875 199.7700042724609 8.140000343322754
493.989990234375 200.6699981689453 8.720000267028809
493.3900146484375 200.8300018310547 8.760000228881836
493.9700012207031 196.8500061035156 10.13000011444092
494.0400085449219 197.9900054931641 7.28000020980835
494.8900146484375 197.8200073242188 10.52000045776367
492.9800109863281 198.2899932861328 9.550000190734863
494.0700073242188 197.9400024414062 5.860000133514404
493.6700134277344 198.1300048828125 10.89999961853027
493.8699951171875 197.4299926757812 10.26000022888184
494.5299987792969 197.2400054931641 10.14999961853027
494.1400146484375 197.3699951171875 9.270000457763672
493.6199951171875 197.5 11.07999992370605
494.2900085449219 198.6100006103516 7.989999771118164
494.6600036621094 198.5700073242188 10.22000026702881
494.489990234375 198.5899963378906 11.25
493.9100036621094 198.7599945068359 9.939999580383301
493.0400085449219 198.9799957275391 11.06999969482422
493.5799865722656 198.8200073242188 10.82999992370605
493.8099975585938 199.4199981689453 11.39000034332275
494.2200012207031 199.3200073242188 10.72000026702881
495.5700073242188 198.9499969482422 10.63000011444092
494.0499877929688 200.5 8.720000267028809
495.0199890136719 199.6100006103516 8.170000076293945
493.2999877929688 200.6600036621094 8.729999542236328
493.2099914550781 200.0800018310547 8.670000076293945
494.3900146484375 199.7799987792969 9.710000038146973
493.760009765625 199.9400024414062 8.380000114440918
494.260009765625 199.8699951171875 10.93000030517578
495.239990234375 200.1799926757812 8.220000267028809
494.7200012207031 197.3000030517578 10.73999977111816
494.1799926757812 197.1399993896484 10.32999992370605
493.5 196.9900054931641 10.40999984741211
493.8800048828125 197.0800018310547 9.300000190734863
493.489990234375 197.6399993896484 10.98999977111816
494.0499877929688 197.75 9.510000228881836
494.6799926757812 197.9499969482422 11.27000045776367
494.3599853515625 197.8899993896484 10.27999973297119
495.3500061035156 198.7200012207031 8.279999732971191
494.0899963378906 198.4100036621094 9.970000267028809
495.1600036621094 198.6900024414062 10.4399995803833
492.9700012207031 198.1499938964844 9.529999732971191
494.5299987792969 198.5200042724609 10.48999977111816
493.1499938964844 198.2200012207031 10.55000019073486
493.7799987792969 198.3300018310547 7.239999771118164
494.0499877929688 198.3699951171875 8.199999809265137
493.6099853515625 198.3300018310547 11.3100004196167
494.3999938964844 199.1999969482422 11.25
493.7900085449219 199.0299987792969 11.11999988555908
493.239990234375 198.8300018310547 7.300000190734863
493.3500061035156 198.9299926757812 10.53999996185303
494.8900146484375 199.2799987792969 8.159999847412109
493.739990234375 198.9900054931641 7.829999923706055
493.5799865722656 199.7400054931641 10.60999965667725
494.1300048828125 199.8699951171875 10.88000011444092
493.8200073242188 199.7400054931641 8.119999885559082
493.25 199.6399993896484 9.680000305175781
494.489990234375 199.9100036621094 8.050000190734863
495.1499938964844 200.0700073242188 8.109999656677246
493.239990234375 200.2400054931641 8.640000343322754
493.8099975585938 200.4199981689453 8.850000381469727
492.6700134277344 200.1000061035156 8.430000305175781
492.8500061035156 200.8000030517578 8.560000419616699
493.3999938964844 200.9299926757812 8.75
493.3599853515625 201.1499938964844 8.789999961853027
493.7900085449219 200.6000061035156 8.810000419616699
492.6799926757812 200.3500061035156 8.5
493.2699890136719 200.5099945068359 8.720000267028809
493.1700134277344 199.7299957275391 8.560000419616699
494.0499877929688 199.9299926757812 10.82999992370605
495.5499877929688 200.3300018310547 8.229999542236328
493.5700073242188 199.8000030517578 10.60000038146973
493 199.6799926757812 9.970000267028809
493.75 199.8899993896484 8.310000419616699
492.7699890136719 198.9900054931641 10.0600004196167
493.75 199.2100067138672 11.22000026702881
494.4500122070312 199.3899993896484 10.51000022888184
493.3699951171875 199.1100006103516 9.649999618530273
494.6400146484375 199.4299926757812 8.189999580383301
494.0799865722656 199.3399963378906 7.820000171661377
495.2099914550781 199.6000061035156 8.229999542236328
493.2799987792969 199.0899963378906 10.72000026702881
494.739990234375 198.8600006103516 11.35000038146973
495.3999938964844 199.0399932861328 10.57999992370605
493.739990234375 198.6000061035156 9.569999694824219
493.1799926757812 198.4700012207031 9.569999694824219
495.6600036621094 199.1199951171875 8.340000152587891
493.9200134277344 198.6799926757812 7.679999828338623
494.4800109863281 198.8099975585938 7.739999771118164
493.3500061035156 198.5700073242188 7.400000095367432
493.4500122070312 197.9199981689453 10.63000011444092
493.9599914550781 198.0500030517578 10.5
494.510009765625 198.1499938964844 11.21000003814697
495.0400085449219 198.2799987792969 11.38000011444092
494.2300109863281 198.1199951171875 7.960000038146973
494.6300048828125 198.1999969482422 10.15999984741211
494.8399963378906 198.2899932861328 8.130000114440918
494.4299926757812 197.3899993896484 10.03999996185303
493.8699951171875 197.2599945068359 10.13000011444092
494.9500122070312 197.5200042724609 10.88000011444092
494.1499938964844 196.6699981689453 10.31999969482422
494.7900085449219 196.8500061035156 10.11999988555908
494.3599853515625 197 10.10000038146973
493.8500061035156 196.8999938964844 10.47000026702881
494.739990234375 197.8999938964844 11.3100004196167
493.5700073242188 197.6399993896484 11.25
493.8299865722656 197.6499938964844 9.800000190734863
493.3699951171875 197.5700073242188 10.15999984741211
495.3999938964844 198.7799987792969 10.47000026702881
494.260009765625 198.4499969482422 7.5
494.9700012207031 198.6000061035156 8.100000381469727
494.3299865722656 198.5299987792969 11.09000015258789
494.1000061035156 198.4400024414062 9.829999923706055
493.6400146484375 198.3500061035156 10.46000003814697
494.5 198.5299987792969 11.89000034332275
494.8099975585938 198.6100006103516 10.43000030517578
493.1700134277344 198.2299957275391 10.84000015258789
492.9800109863281 198.1499938964844 9.630000114440918
495.1300048828125 199.2799987792969 8.289999961853027
493.1199951171875 198.7700042724609 7.239999771118164
494.4299926757812 199.1499938964844 11.27000045776367
493.2200012207031 198.8699951171875 10.89000034332275
494.1499938964844 199.1000061035156 9.810000419616699
493.6799926757812 198.9600067138672 10.40999984741211
493.7900085449219 198.9499969482422 7.760000228881836
495.2000122070312 199.9900054931641 8.210000038146973
494.5 199.8800048828125 10.92000007629395
494.6099853515625 199.8600006103516 8.130000114440918
494.2900085449219 199.7899932861328 9.649999618530273
493.9700012207031 199.7100067138672 8.090000152587891
493.1300048828125 199.5200042724609 9.680000305175781
493.3099975585938 199.5599975585938 10.6899995803833
493.4599914550781 199.5599975585938 8.529999732971191
492.9299926757812 200.2100067138672 8.609999656677246
493.5499877929688 200.3999938964844 8.649999618530273
493.2300109863281 200.9499969482422 8.789999961853027
494.5899963378906 196.7400054931641 10.22999954223633
494.0199890136719 197.1399993896484 10.1899995803833
494.3200073242188 197.2599945068359 9.340000152587891
494.9500122070312 197.3899993896484 10.64999961853027
493.5199890136719 197.0200042724609 10.57999992370605
494.6799926757812 197.9499969482422 11.53999996185303
494.2799987792969 197.8699951171875 9.119999885559082
494.8500061035156 197.9799957275391 10.32999992370605
494.260009765625 197.9299926757812 6.050000190734863
493.8699951171875 198.5399932861328 9.800000190734863
494.1000061035156 198.6000061035156 8.659999847412109
494.8099975585938 198.7599945068359 10.28999996185303
494.3500061035156 198.6900024414062 7.690000057220459
494.510009765625 198.6399993896484 11.17000007629395
493.1000061035156 198.3399963378906 9.539999961853027
495.2099914550781 198.8899993896484 8.029999732971191
495.6799926757812 198.9799957275391 10.57999992370605
494.2900085449219 199.2899932861328 10.72000026702881
493.0700073242188 199 11.07999992370605
494.5 199.3800048828125 8.189999580383301
495.1199951171875 199.5399932861328 8.140000343322754
493.7000122070312 199.1900024414062 8.069999694824219
493.4500122070312 199.7700042724609 8.710000038146973
495.3599853515625 200.2299957275391 8.239999771118164
493.6600036621094 199.7799987792969 10.6899995803833
493.9700012207031 199.9100036621094 8.159999847412109
494.1700134277344 200.6600036621094 8.680000305175781
492.7300109863281 200.2899932861328 8.5
493.4299926757812 200.4900054931641 8.659999847412109
495.6000061035156 198.8899993896484 10.72999954223633
494.760009765625 198.1399993896484 10.21000003814697
494.4200134277344 196.8699951171875 10.44999980926514
495.2799987792969 200.0099945068359 8.210000038146973
494.7300109863281 198.0800018310547 11.5
494.8500061035156 198.4299926757812 7.829999923706055
495.0899963378906 199.3500061035156 8.25
494.1300048828125 198.3699951171875 9.770000457763672
494.0599975585938 198.2200012207031 10.80000019073486
494.4100036621094 199.5399932861328 10.69999980926514
494.1300048828125 198.2899932861328 6.769999980926514
494.1400146484375 198.4199981689453 8.409999847412109
493.9299926757812 197.6300048828125 9.609999656677246
493.8099975585938 197.2700042724609 10.32999992370605
493.9100036621094 200.1300048828125 8.260000228881836
493.75 199.2899932861328 7.929999828338623
493.4500122070312 198.3800048828125 10.51000022888184
493.3699951171875 197.9299926757812 11.06999969482422
492.9200134277344 198.2899932861328 9.619999885559082
493.260009765625 199.6499938964844 9.630000114440918
493.5299987792969 200.6600036621094 8.689999580383301
493.0499877929688 199.0099945068359 11.03999996185303
492.739990234375 200.1000061035156 8.590000152587891
492.9200134277344 200.8300018310547 8.569999694824219
495.3200073242188 199.3300018310547 8.270000457763672
495.0199890136719 198.1999969482422 8.350000381469727
495.4400024414062 199.9600067138672 8.300000190734863
495.1700134277344 198.7200012207031 8.050000190734863
494.9200134277344 197.5700073242188 10.85000038146973
495.0899963378906 198.2700042724609 11.46000003814697
494.989990234375 197.7799987792969 11.64000034332275
494.6900024414062 196.8399963378906 10.21000003814697
494.989990234375 198.0299987792969 10.22000026702881
495.1900024414062 198.6499938964844 10.42000007629395
495.3299865722656 199.2200012207031 10.5
495.8699951171875 198.9400024414062 8.220000267028809
493.9599914550781 199.5700073242188 8.039999961853027
493.8599853515625 199.0500030517578 11.18000030517578
493.6900024414062 198.3300018310547 10.22999954223633
493.5700073242188 197.9100036621094 11.14000034332275
493.3999938964844 197.1900024414062 10.47000026702881
493.7799987792969 198.9400024414062 7.900000095367432
493.7699890136719 198.8399963378906 9.979999542236328
494.6700134277344 199.8300018310547 8.100000381469727
494.489990234375 198.7200012207031 11.15999984741211
494.4200134277344 198.5099945068359 10.14999961853027
494.3500061035156 198.1399993896484 11.35999965667725
494.5299987792969 199.25 8.069999694824219
494.0400085449219 197.0800018310547 9.149999618530273
494.2200012207031 197.7700042724609 9.619999885559082
494.0899963378906 197.3699951171875 10.39000034332275
493.9800109863281 196.7599945068359 10.47999954223633
494.3599853515625 198.5500030517578 7.590000152587891
492.8800048828125 200.6499938964844 8.630000114440918
492.7099914550781 199.9799957275391 8.520000457763672
493.260009765625 199.2799987792969 9.779999732971191
493.3500061035156 199.4900054931641 10.75
493.6600036621094 200.8399963378906 8.819999694824219
493.0799865722656 198.7400054931641 7.239999771118164
493.489990234375 200.1900024414062 8.600000381469727
492.9700012207031 198.0399932861328 9.720000267028809
493.2000122070312 198.8899993896484 10.84000015258789
494.7200012207031 197.2700042724609 10.64999961853027
495.1000061035156 198.8699951171875 11.63000011444092
494.8699951171875 197.8099975585938 10.9399995803833
495.3500061035156 199.7299957275391 8.279999732971191
495.1400146484375 198.9499969482422 10.47999954223633
494.5799865722656 196.7700042724609 10.27999973297119
495.4800109863281 200.2700042724609 8.310000419616699
495.2300109863281 199.1000061035156 8.310000419616699
494.9599914550781 198.3800048828125 11.48999977111816
494.0299987792969 197.1199951171875 9.090000152587891
494.1700134277344 197.6999969482422 9.609999656677246
494.2799987792969 198.1799926757812 10.31999969482422
494.2300109863281 198.0899963378906 11.77000045776367
493.9599914550781 197.0599975585938 10.30000019073486
494.4100036621094 198.7599945068359 11
494.5 199.3000030517578 11.35999965667725
494.489990234375 198.9499969482422 7.860000133514404
494.6600036621094 199.9299926757812 11.1899995803833
494.3699951171875 198.3699951171875 7.510000228881836
494.6499938964844 199.5299987792969 8.140000343322754
493.5799865722656 198.0200042724609 10.97000026702881
493.8299865722656 198.8300018310547 7.639999866485596
493.739990234375 198.6600036621094 9.649999618530273
494.0899963378906 199.9100036621094 8.180000305175781
494.1499938964844 200.2899932861328 10.98999977111816
493.8500061035156 199.1399993896484 11.11999988555908
494.0299987792969 199.7799987792969 10.31999969482422
493.4500122070312 197.5 10.18000030517578
493.9200134277344 199.3600006103516 7.789999961853027
493.0599975585938 198.2899932861328 10.84000015258789
493.1000061035156 198.3699951171875 9.560000419616699
493.2300109863281 198.8800048828125 10.93000030517578
493.5599975585938 200.2400054931641 8.600000381469727
493.4500122070312 199.6300048828125 8.850000381469727
493.3900146484375 199.5399932861328 9.760000228881836
493.6900024414062 200.7799987792969 8.840000152587891
493.3699951171875 199.4700012207031 10.85999965667725
493.2300109863281 198.9199981689453 9.970000267028809
492.8500061035156 199.9499969482422 8.529999732971191
492.9800109863281 200.5099945068359 8.659999847412109
495.3399963378906 199.1100006103516 8.239999771118164
495.1799926757812 198.4600067138672 11.88000011444092
495.0499877929688 197.9799957275391 11.40999984741211
494.9700012207031 197.6000061035156 10.6899995803833
495.2000122070312 198.5 8
495.2900085449219 198.8999938964844 10.48999977111816
494.6300048828125 198.9499969482422 11.27999973297119
494.9299926757812 200.0399932861328 8.180000305175781
494.7699890136719 199.3999938964844 8.180000305175781
494.6400146484375 198.8099975585938 8.020000457763672
494.4700012207031 198.2400054931641 7.829999923706055
494.1900024414062 197.0700073242188 9.220000267028809
494.4800109863281 198.3699951171875 11.13000011444092
494.0700073242188 196.7700042724609 10.14000034332275
494.2699890136719 197.3899993896484 10.32999992370605
494.1700134277344 199.4400024414062 10.64999961853027
494.3200073242188 199.9400024414062 11.13000011444092
494 198.5899963378906 7.710000038146973
493.5499877929688 197.0500030517578 10.36999988555908
493.8900146484375 198.1300048828125 7.210000038146973
493.8399963378906 198.1499938964844 10.86999988555908
494.0799865722656 198.9799957275391 10.22000026702881
493.989990234375 198.6100006103516 9.609999656677246
493.4100036621094 199.1399993896484 10.90999984741211
493.7999877929688 200.5500030517578 8.710000038146973
493.6199951171875 199.8600006103516 10.73999977111816
493.5299987792969 199.6000061035156 9.600000381469727
493.6700134277344 200.1000061035156 8.180000305175781
493.25 198.3800048828125 9.510000228881836
492.7900085449219 199.6600036621094 8.520000457763672
492.9599914550781 200.2700042724609 8.520000457763672
493.1000061035156 200.7899932861328 8.829999923706055
493.3399963378906 198.9199981689453 9.720000267028809
493.4800109863281 199.2799987792969 8.569999694824219
495.5199890136719 199.2599945068359 10.59000015258789
495.3399963378906 200.2200012207031 8.239999771118164
495.1600036621094 198.8999938964844 8.060000419616699
494.9599914550781 199.6699981689453 8.159999847412109
495.0700073242188 198.8500061035156 10.6899995803833
494.5199890136719 199.0700073242188 7.96999979019165
494.2699890136719 199.8500061035156 9.5
494.6700134277344 197.9900054931641 11.57999992370605
494.5400085449219 198.5 11.17000007629395
494.6799926757812 198.0700073242188 10.34000015258789
494.8099975585938 197.6000061035156 10.76000022888184
493.7699890136719 199.1699981689453 7.849999904632568
493.4500122070312 200.3300018310547 8.659999847412109
494.0400085449219 197.8699951171875 9.430000305175781
493.9200134277344 198.1100006103516 11.26000022888184
493.75 198.75 11.21000003814697
493.9100036621094 198.25 10.22999954223633
493.2900085449219 201.0899963378906 8.609999656677246
494.0299987792969 198.3399963378906 7.489999771118164
494.239990234375 196.9499969482422 10.44999980926514
493.75 198.8999938964844 10.07999992370605
494.0899963378906 197.5500030517578 10.10000038146973
492.9400024414062 199.8999938964844 8.579999923706055
493.0899963378906 198.9199981689453 10.89999961853027
493.3099975585938 198.0800018310547 10.67000007629395
493.3900146484375 197.6600036621094 11.28999996185303
493.5400085449219 197.1900024414062 10.34000015258789
492.7799987792969 200.6699981689453 8.579999923706055
493.2900085449219 198.6499938964844 7.489999771118164
495.3399963378906 199.9100036621094 8.260000228881836
495.5 199.3399963378906 8.420000076293945
495.1099853515625 199.0800018310547 10.43000030517578
495.1199951171875 198.5700073242188 8.079999923706055
494.7900085449219 199.7299957275391 8.159999847412109
494.9299926757812 199.1799926757812 8.149999618530273
494.7300109863281 197.9499969482422 11.34000015258789
494.4599914550781 198.3500061035156 7.840000152587891
494.3200073242188 198.8800048828125 7.71999979019165
494.4800109863281 199.0399932861328 11.14000034332275
494.1900024414062 199.4700012207031 7.940000057220459
494.6400146484375 198.4499969482422 11.07999992370605
494.3200073242188 199.4700012207031 10.67000007629395
494.1900024414062 200.1000061035156 10.82999992370605
493.8699951171875 200.8899993896484 8.859999656677246
494.6400146484375 198.2599945068359 10.1899995803833
493.6499938964844 199.1199951171875 10.32999992370605
493.8200073242188 197.9900054931641 7.78000020980835
493.5 199.3600006103516 8.569999694824219
493.9200134277344 197.8399963378906 9.789999961853027
493.7799987792969 198.6699981689453 11.03999996185303
493.1799926757812 200.5700073242188 8.640000343322754
493.7699890136719 198.4499969482422 9.909999847412109
493.489990234375 199.6100006103516 9.659999847412109
493.3599853515625 199.9299926757812 8.659999847412109
493.5 199.8600006103516 10.69999980926514
493.6400146484375 198.9100036621094 9.460000038146973
494.0599975585938 197.1300048828125 9.039999961853027
494.0700073242188 197.3699951171875 10.35000038146973
494.260009765625 196.7799987792969 10.39000034332275
493.9500122070312 198.1199951171875 11.06999969482422
492.8999938964844 199.3699951171875 10.06999969482422
493.4700012207031 197.1300048828125 10.30000019073486
492.6099853515625 200.2299957275391 8.520000457763672
492.9100036621094 198.8000030517578 7.320000171661377
493.1700134277344 198.4299926757812 10.82999992370605
492.7699890136719 199.6399993896484 8.699999809265137
493.0599975585938 198.9400024414062 10.71000003814697
495.4500122070312 199.1300048828125 10.5600004196167
495.3699951171875 199.8300018310547 8.310000419616699
495.5499877929688 199.2799987792969 8.300000190734863
495.239990234375 200.3500061035156 8.369999885559082
494.8500061035156 199.25 11.4399995803833
494.7999877929688 200.0200042724609 8.149999618530273
495.1300048828125 198.1600036621094 11.26000022888184
494.989990234375 198.7799987792969 10.47000026702881
494.989990234375 198.7200012207031 11.8100004196167
495.0799865722656 198.9600067138672 8.069999694824219
494.9299926757812 199.4799957275391 8.079999923706055
494.1799926757812 199.5599975585938 10.75
494.2000122070312 199.6199951171875 9.75
494.4500122070312 198.3800048828125 11.23999977111816
494.2699890136719 199.7400054931641 8.100000381469727
494.5400085449219 198.6100006103516 7.730000019073486
494.760009765625 197.2899932861328 10.6899995803833
494.0499877929688 200.0899963378906 11.05000019073486
494.4800109863281 198.4499969482422 10.23999977111816
493.9800109863281 200.8399963378906 8.829999923706055
494.6600036621094 198.0500030517578 7.949999809265137
494.2900085449219 199.0200042724609 11.22000026702881
494.6300048828125 197.8600006103516 10.75
493.4500122070312 199.6999969482422 10.52000045776367
493.4599914550781 199.8500061035156 8.579999923706055
493.3200073242188 200.3800048828125 8.770000457763672
493.4700012207031 199.7700042724609 9.640000343322754
493.5899963378906 199.1399993896484 10.61999988555908
493.739990234375 198.6600036621094 9.390000343322754
493.6600036621094 198.5399932861328 11.36999988555908
493.8500061035156 198.0200042724609 10.64999961853027
493.9400024414062 198.2599945068359 7.099999904632568
494.1199951171875 196.8899993896484 10.30000019073486
493.9599914550781 197.5399932861328 10.17000007629395
493.6199951171875 199.2799987792969 8.100000381469727
493.7999877929688 198.8099975585938 7.630000114440918
493.5799865722656 199.2100067138672 9.479999542236328
493.1900024414062 200.9700012207031 8.789999961853027
493.989990234375 197.6100006103516 9.159999847412109
492.7699890136719 200.0800018310547 8.529999732971191
493.0899963378906 199.1100006103516 7.199999809265137
492.8599853515625 199.4400024414062 10.22999954223633
493.3999938964844 197.1699981689453 10.28999996185303
493 198.8300018310547 11
493.1700134277344 198.3399963378906 9.489999771118164
493.1400146484375 198.2799987792969 10.78999996185303
493.2900085449219 197.6699981689453 10.47999954223633
492.989990234375 198.8800048828125 10.01000022888184
495.5899963378906 199.0299987792969 8.180000305175781
495.2900085449219 200.25 8.319999694824219
495.7300109863281 198.7799987792969 10.63000011444092
495.0499877929688 198.8999938964844 11.52000045776367
495.1199951171875 198.6000061035156 10.34000015258789
495.0199890136719 198.7799987792969 7.989999771118164
494.8999938964844 199.4199981689453 8.060000419616699
494.489990234375 198.5599975585938 7.630000114440918
494.5299987792969 198.6199951171875 11.10000038146973
494.2099914550781 199.6699981689453 8.100000381469727
494.5899963378906 198.3600006103516 10.09000015258789
494.3299865722656 199.4499969482422 10.59000015258789
494.7300109863281 197.8899993896484 11.43000030517578
493.9800109863281 200.7200012207031 8.859999656677246
494.7699890136719 197.5200042724609 10.67000007629395
494.2000122070312 199.9299926757812 11.06999969482422
494.1900024414062 197.0700073242188 9.239999771118164
494.3099975585938 196.75 10.15999984741211
493.8200073242188 198.3999938964844 7.489999771118164
493.989990234375 198.1000061035156 10.05000019073486
493.8999938964844 198.0299987792969 6.480000019073486
494.1600036621094 197.4199981689453 10.35000038146973
493.7200012207031 198.8500061035156 7.960000038146973
493.6199951171875 199.5599975585938 9.729999542236328
493.510009765625 199.9299926757812 8.680000305175781
493.6000061035156 199.3899993896484 8.270000457763672
493.3299865722656 200.5200042724609 8.890000343322754
493.7799987792969 198.9199981689453 9.649999618530273
493.7099914550781 199.1399993896484 10.89000034332275
493.5499877929688 199.8699951171875 10.73999977111816
493.0199890136719 198.6600036621094 7.199999809265137
493.3900146484375 197.5800018310547 10.43000030517578
493.1199951171875 198.6999969482422 10.9399995803833
493.2099914550781 198.1499938964844 10.73999977111816
493.010009765625 199.0599975585938 9.850000381469727
493.5 196.9600067138672 10.47000026702881
492.8399963378906 199.6199951171875 10.15999984741211
492.6900024414062 200.1900024414062 8.529999732971191
