279.2099914550781 495.4599914550781 16.71999931335449
277.0599975585938 495.989990234375 18.05999946594238
280.1300048828125 495.2999877929688 11.72999954223633
280.3299865722656 495.239990234375 15.15999984741211
280.1000061035156 495.2799987792969 13.77999973297119
277.489990234375 495.8900146484375 16.6299991607666
278.010009765625 495.760009765625 16.68000030517578
283.1099853515625 494.5799865722656 11.43000030517578
279.8099975585938 495.3599853515625 14.82999992370605
279.1000061035156 495.4400024414062 19.07999992370605
283.4700012207031 494.5199890136719 12.02000045776367
280.6900024414062 495.1600036621094 11.90999984741211
279.1700134277344 495.510009765625 12.89999961853027
278.2000122070312 495.739990234375 14.14999961853027
281.8099975585938 494.8900146484375 12.09000015258789
276.3699951171875 496.2099914550781 8.699999809265137
276.8299865722656 496.1099853515625 9.050000190734863
277.3699951171875 495.9700012207031 9.310000419616699
276.0400085449219 496.2099914550781 15.65999984741211
274.7000122070312 496.6000061035156 12.39000034332275
275.7999877929688 496.3599853515625 8.670000076293945
277.9299926757812 495.8599853515625 9.25
275.6900024414062 496.3699951171875 12.98999977111816
278.4400024414062 495.75 9.369999885559082
278.5199890136719 495.75 7.420000076293945
277.6900024414062 495.8500061035156 13.93000030517578
278.1400146484375 495.760009765625 12.5
275.1700134277344 496.4500122070312 12.71000003814697
279.0799865722656 495.6099853515625 9.470000267028809
278.9599914550781 495.6400146484375 7.630000114440918
276.2000122070312 496.2000122070312 13.14000034332275
277.1799926757812 495.989990234375 11.89999961853027
279.4299926757812 496.2200012207031 10.32999992370605
278.6199951171875 496.3200073242188 18.60000038146973
278.7200012207031 496.3099975585938 16.45999908447266
277.7900085449219 496.5199890136719 17.60000038146973
279.8299865722656 496.0799865722656 14.61999988555908
279.2300109863281 496.2200012207031 16.52000045776367
280.5899963378906 495.9200134277344 12.09000015258789
278.1900024414062 496.3800048828125 22.04000091552734
282.1700134277344 495.5499877929688 14.48999977111816
279.4800109863281 496.2000122070312 14.06999969482422
282.7200012207031 495.4200134277344 10.81999969482422
283.239990234375 495.2999877929688 15.01000022888184
283.1799926757812 495.3399963378906 11.18000030517578
282.7200012207031 495.4100036621094 14.76000022888184
275.7900085449219 497.0599975585938 12.75
274.1799926757812 497.4200134277344 16.09000015258789
276.1199951171875 496.9700012207031 15.61999988555908
274.7699890136719 497.2999877929688 12.34000015258789
277.7300109863281 496.5899963378906 12.19999980926514
278.5599975585938 496.4299926757812 9.529999732971191
278.1700134277344 496.489990234375 12.61999988555908
277.25 496.6700134277344 15.57999992370605
278.3200073242188 496.4700012207031 14.05000019073486
279.6799926757812 496.1099853515625 17.20000076293945
274.75 497.2699890136719 16.20000076293945
277.3099975585938 496.6400146484375 17.39999961853027
278.6900024414062 496.3599853515625 12.76000022888184
275.3500061035156 497.1700134277344 12.1899995803833
276.7699890136719 496.8099975585938 15.32999992370605
281.5599975585938 495.6799926757812 12.85999965667725
280.9599914550781 495.8099975585938 14.76000022888184
275.510009765625 497.1000061035156 15.77999973297119
278 496.5899963378906 9.380000114440918
279.7799987792969 496.0700073242188 18.68000030517578
277.5 497.2999877929688 19.04999923706055
279.2200012207031 496.2000122070312 18.72999954223633
281.6700134277344 495.6400146484375 14.22000026702881
278.1600036621094 497.1400146484375 20.71999931335449
278.6799926757812 497.0400085449219 16.96999931335449
279.1199951171875 496.9299926757812 17.48999977111816
278.4599914550781 497.0599975585938 21.61000061035156
279.4200134277344 496.8699951171875 18.57999992370605
281.0799865722656 496.5 16.8799991607666
280.0299987792969 496.7000122070312 18.44000053405762
278.4400024414062 497.1600036621094 14
278.010009765625 497.2000122070312 17.3799991607666
279.9800109863281 496.7200012207031 16.67000007629395
282.3299865722656 496.2000122070312 14.56999969482422
280.5599975585938 496.6099853515625 16.69000053405762
279.1099853515625 496.8900146484375 21.52000045776367
283.9800109863281 495.8999938964844 9.239999771118164
281.9700012207031 496.3200073242188 13.97999954223633
275.7799987792969 497.8399963378906 9.239999771118164
276.0700073242188 497.760009765625 10.23999977111816
276.0899963378906 497.739990234375 12.1899995803833
275.8900146484375 497.760009765625 14.76000022888184
276.4700012207031 497.6300048828125 12.69999980926514
275.2900085449219 497.8999938964844 14.77999973297119
277.6499938964844 497.3599853515625 12.64000034332275
278.6400146484375 497.1400146484375 9.420000076293945
277.1199951171875 497.4400024414062 14.38000011444092
275.5799865722656 497.8500061035156 11.76000022888184
276.2900085449219 497.6499938964844 15.42000007629395
276.8699951171875 497.4700012207031 19.19000053405762
277.4700012207031 497.3500061035156 17.20000076293945
276.9100036621094 497.489990234375 16.94000053405762
274.5899963378906 498.1000061035156 9.560000419616699
276.3200073242188 497.6199951171875 17
277.9299926757812 497.260009765625 15.6899995803833
276.760009765625 497.5799865722656 9.869999885559082
279.1499938964844 497.0299987792969 9.510000228881836
275.6900024414062 497.8099975585938 15.47000026702881
275.0899963378906 497.9700012207031 9.729999542236328
277.3800048828125 497.3699951171875 15.44999980926514
277.1000061035156 497.4500122070312 12.64000034332275
278.0599975585938 497.2300109863281 13.13000011444092
275.1099853515625 498.6199951171875 9.670000076293945
275.5499877929688 498.489990234375 10.1899995803833
274.3999938964844 498.6900024414062 17.8799991607666
275.8099975585938 498.3800048828125 17.1299991607666
276.2900085449219 498.3099975585938 11.68000030517578
276.6400146484375 498.2099914550781 12.48999977111816
275.7799987792969 498.4599914550781 11.52999973297119
276.1799926757812 498.3500061035156 10.10999965667725
275.1199951171875 498.5499877929688 17.52000045776367
276.9200134277344 498.0599975585938 19.27000045776367
277.2200012207031 498.0799865722656 12.55000019073486
277.510009765625 498 15.35999965667725
277.8500061035156 497.9500122070312 12.53999996185303
276.7000122070312 498.2200012207031 10.25
276.3299865722656 498.2699890136719 15.40999984741211
277.1000061035156 498.0599975585938 16.73999977111816
277.6199951171875 497.8999938964844 18.81999969482422
277.9800109863281 497.8500061035156 15.76000022888184
278.6300048828125 497.7099914550781 17.21999931335449
278.4100036621094 497.75 18.06999969482422
280.5799865722656 497.260009765625 16.72999954223633
277.2099914550781 498.0199890136719 20.07999992370605
279.239990234375 497.5199890136719 21.01000022888184
277.4500122070312 497.9200134277344 23.06999969482422
280.7799987792969 497.1700134277344 19.57999992370605
278.5799865722656 497.739990234375 13.8100004196167
276.4500122070312 498.2099914550781 17.13999938964844
278.6099853515625 497.6400146484375 21.1200008392334
278.9299926757812 497.6300048828125 16.26000022888184
281.8099975585938 496.989990234375 14.4399995803833
281.1600036621094 497.1199951171875 16.64999961853027
278.1799926757812 497.7300109863281 22.61000061035156
281.8699951171875 496.8900146484375 20.01000022888184
282.2300109863281 496.7900085449219 20.65999984741211
282.3399963378906 496.8500061035156 14.48999977111816
282.760009765625 496.6799926757812 20.95999908447266
279.510009765625 497.5400085449219 14.46000003814697
279.9299926757812 497.3999938964844 14.93000030517578
277 498.0899963378906 15.27999973297119
281.3800048828125 497.010009765625 19.72999954223633
281.6900024414062 496.9800109863281 16.60000038146973
273.489990234375 499.0199890136719 9.239999771118164
274.8099975585938 498.6600036621094 10.63000011444092
273.6300048828125 498.9200134277344 12.76000022888184
273.9500122070312 498.9100036621094 9.859999656677246
274.5299987792969 498.7799987792969 9.840000152587891
280.3399963378906 498 21.63999938964844
280.8800048828125 497.8800048828125 21.77000045776367
280.8500061035156 497.8999938964844 19.96999931335449
281.4200134277344 497.739990234375 19.96999931335449
281.3200073242188 497.7699890136719 22.10000038146973
281.7300109863281 497.6600036621094 22.55999946594238
273.1099853515625 499.7999877929688 13.05000019073486
274.5799865722656 499.4700012207031 10.05000019073486
273.7699890136719 499.6400146484375 12.80000019073486
274.3299865722656 499.489990234375 12.84000015258789
275.4599914550781 499.239990234375 12.8100004196167
274.9200134277344 499.3699951171875 12.69999980926514
274.0199890136719 499.6400146484375 9.920000076293945
273.4200134277344 499.739990234375 9.899999618530273
276.6799926757812 498.9599914550781 12.52000045776367
275.760009765625 499.1400146484375 17.53000068664551
275.5799865722656 499.1499938964844 20.1200008392334
276.5 499 11.09000015258789
277.010009765625 498.8599853515625 15.38000011444092
275.1900024414062 499.25 17.56999969482422
276.7999877929688 498.8800048828125 17.8799991607666
276.4299926757812 498.989990234375 17.34000015258789
276.0599975585938 499.1099853515625 12.52000045776367
278.4100036621094 498.4700012207031 18.32999992370605
277.3200073242188 498.8200073242188 10.48999977111816
277.7999877929688 498.6300048828125 18.29000091552734
277.760009765625 498.6799926757812 16.67000007629395
276.760009765625 498.8500061035156 19.88999938964844
277.7099914550781 498.5899963378906 22.43000030517578
276.0299987792969 499.1199951171875 10.85000038146973
277.2000122070312 498.8099975585938 12.65999984741211
276.0700073242188 499 20.22999954223633
279.010009765625 498.260009765625 24.1200008392334
277.3099975585938 498.7300109863281 19.90999984741211
280.3999938964844 498.010009765625 19.65999984741211
279.4200134277344 498.1499938964844 24.55999946594238
278.3399963378906 498.4800109863281 22.53000068664551
278.3299865722656 498.4700012207031 20.42000007629395
279.3399963378906 498.2200012207031 21.02000045776367
277.4800109863281 498.7300109863281 17.54999923706055
278.6799926757812 498.4100036621094 19.19000053405762
272.9599914550781 499.8599853515625 9.550000190734863
279.4700012207031 498.1600036621094 22.6200008392334
279.0400085449219 498.2799987792969 22.06999969482422
279.9200134277344 498.8699951171875 19.29999923706055
278.7000122070312 499.1000061035156 23.29999923706055
278.4700012207031 499.1900024414062 22.17000007629395
276.5299987792969 499.7699890136719 11.53999996185303
276.1499938964844 499.8399963378906 12.72999954223633
276.6400146484375 499.7200012207031 12.98999977111816
275.6900024414062 499.8900146484375 18.14999961853027
277.1199951171875 499.6199951171875 13.32999992370605
276.8599853515625 499.6099853515625 20.01000022888184
277.4100036621094 499.489990234375 18.19000053405762
276.260009765625 499.75 18.18000030517578
277.9200134277344 499.3699951171875 18.36000061035156
278.6300048828125 499.1900024414062 19.70999908447266
275.5700073242188 499.9700012207031 12.56999969482422
278.0599975585938 499.3299865722656 19.78000068664551
275.4400024414062 499.9100036621094 20.94000053405762
278.5599975585938 499.2099914550781 18.10000038146973
278.9500122070312 499.0299987792969 24.39999961853027
280.989990234375 498.5799865722656 21.40999984741211
281.5499877929688 498.4700012207031 19.59000015258789
280.0700073242188 498.7900085449219 22.72999954223633
281.4599914550781 498.4599914550781 21.93000030517578
280.5499877929688 498.7000122070312 21.1200008392334
277.4200134277344 499.4800109863281 20.03000068664551
279.5199890136719 498.9299926757812 24.53000068664551
282.1400146484375 498.3299865722656 19.71999931335449
277.8299865722656 499.3299865722656 24.38999938964844
276.8099975585938 499.6600036621094 14.39999961853027
276.8999938964844 499.5899963378906 18.13999938964844
276.260009765625 499.7300109863281 20.27000045776367
280.8999938964844 498.5700073242188 23.69000053405762
278.1000061035156 499.25 23.44000053405762
279.1099853515625 499.0899963378906 18.13999938964844
281.8999938964844 498.3900146484375 22.27000045776367
284.2799987792969 497.8399963378906 18.3700008392334
283.8500061035156 497.9400024414062 17.95000076293945
281.4100036621094 498.4599914550781 23.95000076293945
278.5899963378906 499.8500061035156 18.29000091552734
278.0599975585938 500.010009765625 16.25
278.0700073242188 499.989990234375 18.07999992370605
278.3299865722656 499.9200134277344 21.28000068664551
278.9299926757812 499.7799987792969 17.18000030517578
277.8800048828125 499.9800109863281 22.67000007629395
278.8299865722656 499.7900085449219 19.6200008392334
279.1799926757812 499.739990234375 18.3700008392334
278.0899963378906 499.989990234375 19.92000007629395
279.3399963378906 499.6400146484375 21.80999946594238
279.2200012207031 499.6700134277344 24.04000091552734
279.4700012207031 499.5899963378906 23.15999984741211
278.7300109863281 499.75 25.60000038146973
280.2699890136719 499.3800048828125 24.35000038146973
280.2000122070312 499.4800109863281 18.92000007629395
278.010009765625 499.9599914550781 24.02000045776367
281.3299865722656 499.1499938964844 22.72999954223633
280.739990234375 499.2999877929688 22.86000061035156
279.8299865722656 499.510009765625 22.04999923706055
279.6000061035156 499.5499877929688 26.6200008392334
283.6099853515625 498.6600036621094 18.95000076293945
279.2000122070312 499.6300048828125 26.05999946594238
282.7300109863281 498.8699951171875 18.15999984741211
278.8200073242188 499.760009765625 23.32999992370605
279.6900024414062 499.6000061035156 20.61000061035156
284.1300048828125 498.5700073242188 19.29000091552734
283.1300048828125 498.7699890136719 18.68000030517578
282.0899963378906 498.989990234375 22.04000091552734
282.3200073242188 498.989990234375 19.45999908447266
279.4299926757812 499.5700073242188 25.32999992370605
281.6499938964844 499.1000061035156 21.70999908447266
280.3299865722656 499.9500122070312 25.76000022888184
283.510009765625 499.3099975585938 15.36999988555908
281.3299865722656 499.75 22.60000038146973
281.25 499.75 24.79000091552734
281.7900085449219 499.6300048828125 23.02000045776367
280.7900085449219 499.8399963378906 24.34000015258789
284.6799926757812 499.0299987792969 15.52999973297119
285.2200012207031 498.8699951171875 15.67000007629395
283.239990234375 500 16.54999923706055
284.6700134277344 499.6700134277344 15.53999996185303
285.6799926757812 499.4400024414062 16.09000015258789
283.1600036621094 499.9700012207031 20.44000053405762
285.2300109863281 499.5700073242188 15.68000030517578
285.260009765625 499.9200134277344 8.109999656677246
285.2300109863281 499.9800109863281 10.56999969482422
285.6099853515625 499.2099914550781 15.77000045776367
284.5299987792969 499.510009765625 15.48999977111816
284.0400085449219 499.6300048828125 15.4399995803833
285.0599975585938 499.3500061035156 15.69999980926514
283.5199890136719 499.760009765625 15.39999961853027
283.0599975585938 499.8500061035156 15.32999992370605
284.0700073242188 499.5299987792969 10.6899995803833
282.5 500 15.25
283.0400085449219 499.8599853515625 13.25
283.0400085449219 499.8699951171875 16.55999946594238
283.0299987792969 499.9400024414062 20.34000015258789
284.0899963378906 499.5799865722656 12.52999973297119
283.5400085449219 499.7000122070312 12.89999961853027
282.4800109863281 499.9599914550781 13.46000003814697
284.4700012207031 498.6700134277344 9.479999542236328
284.9700012207031 498.5199890136719 9.659999847412109
283.9100036621094 498.8200073242188 9.720000267028809
283.9400024414062 498.8900146484375 15.36999988555908
283.3999938964844 498.989990234375 15.46000003814697
284.4800109863281 498.7300109863281 15.39999961853027
283.3800048828125 499.0299987792969 18.85000038146973
282.3200073242188 499.2900085449219 17.94000053405762
282.3200073242188 499.239990234375 10.93000030517578
282.8399963378906 499.2000122070312 18.61000061035156
281.2300109863281 499.6499938964844 22.48999977111816
283.3999938964844 498.9200134277344 9.829999923706055
282.3399963378906 499.3200073242188 19.72999954223633
280.739990234375 499.7900085449219 22.3799991607666
282.3200073242188 499.2799987792969 16.70999908447266
282.3200073242188 499.2699890136719 15.15999984741211
281.75 499.4800109863281 19.13999938964844
281.2300109863281 499.6300048828125 21.01000022888184
281.260009765625 499.6499938964844 24.46999931335449
280.7099914550781 499.7699890136719 24.27000045776367
284.4700012207031 498.6700134277344 8.600000381469727
282.8800048828125 499.1799926757812 17.19000053405762
282.8699951171875 499.1300048828125 15.46000003814697
282.8800048828125 499.1700134277344 16.31999969482422
281.760009765625 499.5 23.04000091552734
282.1700134277344 498.6400146484375 22.42000007629395
282.7099914550781 498.510009765625 19.79999923706055
281.6700134277344 498.739990234375 19.28000068664551
280.6600036621094 499.0799865722656 23.54000091552734
281.1600036621094 498.9200134277344 22.80999946594238
280.1199951171875 499.2000122070312 21.92000007629395
280.1099853515625 499.2000122070312 24.36000061035156
279.5599975585938 499.3299865722656 25.22999954223633
278.5299987792969 499.6099853515625 23.32999992370605
278.5199890136719 499.5899963378906 21.18000030517578
279.0899963378906 499.510009765625 25.8799991607666
281.6499938964844 498.7900085449219 23.63999938964844
277.4299926757812 499.8599853515625 24.26000022888184
281.1300048828125 498.9200134277344 21.79000091552734
277.4100036621094 499.8399963378906 19.76000022888184
280.0899963378906 499.1600036621094 20.81999969482422
277.4100036621094 499.8200073242188 18.01000022888184
276.9100036621094 499.9700012207031 20.03000068664551
276.8999938964844 499.9500122070312 18.06999969482422
282.1700134277344 498.6300048828125 19.52000045776367
279.5799865722656 499.3299865722656 24.29999923706055
277.4100036621094 499.75 13.93000030517578
277.989990234375 499.7300109863281 21.18000030517578
276.8900146484375 499.9299926757812 16.11000061035156
277.4299926757812 499.8399963378906 22.6299991607666
278 499.760009765625 23.86000061035156
281.1300048828125 498.9500122070312 23.53000068664551
281.6799926757812 498.7999877929688 21.82999992370605
279.0799865722656 499.4599914550781 24.15999984741211
279.0499877929688 499.4400024414062 23.21999931335449
284.2799987792969 497.9700012207031 9.550000190734863
283.7799987792969 498.2200012207031 17.84000015258789
284.2699890136719 498.1099853515625 18.38999938964844
283.739990234375 498.2099914550781 19.13999938964844
283.260009765625 498.3399963378906 18.75
284.7200012207031 497.1799926757812 9.369999885559082
282.5499877929688 497.8399963378906 17.53000068664551
282.5599975585938 497.8099975585938 15.01000022888184
283.1099853515625 497.6900024414062 17.55999946594238
283.1199951171875 497.6600036621094 14.97999954223633
282.5599975585938 497.739990234375 10
282.0299987792969 497.9700012207031 17.26000022888184
283.6199951171875 497.5799865722656 17.95999908447266
281.4599914550781 498.1700134277344 22.03000068664551
282.0400085449219 498.0199890136719 22.1200008392334
282.0299987792969 497.989990234375 19.94000053405762
279.9599914550781 498.5899963378906 24.6200008392334
280.4800109863281 498.3599853515625 14.60000038146973
283.6499938964844 497.489990234375 9.640000343322754
279.4800109863281 498.7300109863281 24.60000038146973
278.9599914550781 498.8699951171875 24.52000045776367
280.9700012207031 498.2799987792969 19.56999969482422
280.4500122070312 498.4100036621094 21.30999946594238
280.9700012207031 498.3099975585938 21.63999938964844
283.1300048828125 497.5899963378906 9.800000190734863
281.4700012207031 498.1000061035156 16.75
281 498.3099975585938 23.70999908447266
280.4800109863281 498.3800048828125 19.53000068664551
279.4800109863281 498.7000122070312 22.30999946594238
277.8699951171875 499.0899963378906 21.3700008392334
275.7799987792969 499.6099853515625 20.56999969482422
276.8999938964844 499.2900085449219 20.20000076293945
284.2099914550781 497.3299865722656 9.449999809265137
275.7699890136719 499.5899963378906 18.01000022888184
279.9599914550781 498.5499877929688 20.72999954223633
277.8699951171875 499.0299987792969 18.13999938964844
278.9599914550781 498.8599853515625 23.61000061035156
274.7300109863281 499.8200073242188 17.96999931335449
276.3399963378906 499.4700012207031 20.36000061035156
275.7799987792969 499.489990234375 12.67000007629395
278.3999938964844 498.9400024414062 22.25
275.2300109863281 499.6499938964844 12.64999961853027
274.7300109863281 499.7699890136719 10.84000015258789
275.25 499.7200012207031 18.01000022888184
274.739990234375 499.7799987792969 12.72999954223633
277.3800048828125 499.1799926757812 20.01000022888184
279.9700012207031 498.5400085449219 22.61000061035156
273.6199951171875 500 10.22999954223633
275.2900085449219 499.7200012207031 20.80999946594238
277.8800048828125 499.0400085449219 19.88999938964844
278.3999938964844 498.9700012207031 23.29999923706055
274.1400146484375 499.9100036621094 12.84000015258789
274.1600036621094 499.9100036621094 10.59000015258789
272.489990234375 499.5799865722656 9.659999847412109
273.0499877929688 499.4200134277344 9.659999847412109
284.5499877929688 496.5299987792969 8.659999847412109
283.5299987792969 496.8099975585938 10.72999954223633
283.5400085449219 496.7699890136719 9.550000190734863
283.0400085449219 496.9299926757812 10.47000026702881
281.9700012207031 497.2900085449219 20.23999977111816
281.9800109863281 497.2099914550781 14.30000019073486
282.510009765625 497.1199951171875 14.56999969482422
281.9400024414062 497.3500061035156 22.5
280.9400024414062 497.5400085449219 19.64999961853027
281.4400024414062 497.4500122070312 22.46999931335449
284.0899963378906 496.6499938964844 11.01000022888184
282.4700012207031 497.1700134277344 20.23999977111816
280.3699951171875 497.6600036621094 16.71999931335449
280.3699951171875 497.6199951171875 13.9399995803833
279.8599853515625 497.8500061035156 21.73999977111816
280.3900146484375 497.6900024414062 20.07999992370605
280.9599914550781 497.5400085449219 18.75
280.9299926757812 497.5899963378906 21.86000061035156
279.3699951171875 498.010009765625 22.64999961853027
283 496.9299926757812 9.380000114440918
278.8299865722656 498.1400146484375 23.96999931335449
279.3200073242188 497.9800109863281 20.5
278.7900085449219 498.1400146484375 22.17000007629395
284.0700073242188 496.6300048828125 9.239999771118164
277.7099914550781 498.3699951171875 18.47999954223633
278.8299865722656 498.1199951171875 20.89999961853027
277.75 498.3900146484375 22.53000068664551
276.7300109863281 498.6199951171875 20.01000022888184
277.7099914550781 498.3500061035156 16.56999969482422
278.2300109863281 498.2900085449219 22.52000045776367
276.7200012207031 498.5899963378906 17.10000038146973
276.1799926757812 498.7900085449219 20.36000061035156
277.2300109863281 498.5299987792969 20
276.2000122070312 498.7200012207031 17.3700008392334
275.7099914550781 498.8200073242188 12.38000011444092
277.2099914550781 498.4599914550781 15.26000022888184
275.1700134277344 499.0199890136719 17.3799991607666
275.6900024414062 498.8800048828125 17.36000061035156
274.6199951171875 499.0899963378906 12.55000019073486
275.1400146484375 498.9599914550781 12.47999954223633
275.6900024414062 498.7699890136719 10.36999988555908
274.0599975585938 499.1700134277344 9.619999885559082
279.8500061035156 497.8299865722656 19.8799991607666
274.0899963378906 499.2300109863281 12.76000022888184
273.5799865722656 499.2999877929688 9.720000267028809
274.6799926757812 499.1400146484375 17.61000061035156
277.7099914550781 498.3099975585938 15.25
274.6000061035156 499.0599975585938 9.930000305175781
277.1799926757812 498.4800109863281 17
280.3900146484375 497.7000122070312 21.55999946594238
281.4500122070312 497.4500122070312 20.02000045776367
276.6900024414062 498.5899963378906 15.27000045776367
280.9400024414062 497.5 16.81999969482422
279.8699951171875 497.7999877929688 18.04000091552734
281.2099914550781 496.6900024414062 16.42000007629395
281.7000122070312 496.5400085449219 14.30000019073486
280.6700134277344 496.8699951171875 19.55999946594238
282.2300109863281 496.3999938964844 14.52000045776367
280.1700134277344 496.9500122070312 16.71999931335449
282.25 496.3299865722656 10.69999980926514
281.739990234375 496.5599975585938 16.57999992370605
281.1799926757812 496.6400146484375 13.77000045776367
281.2000122070312 496.6099853515625 12.57999992370605
278.6499938964844 497.3999938964844 21.30999946594238
280.1700134277344 496.9800109863281 18.5
280.7099914550781 496.8200073242188 16.54000091552734
278.1199951171875 497.5 21.38999938964844
279.6600036621094 497.0499877929688 14.55000019073486
279.1600036621094 497.2099914550781 18.40999984741211
277.6199951171875 497.6799926757812 23.1299991607666
277.1199951171875 497.739990234375 19.11000061035156
277.5799865722656 497.5700073242188 15.6899995803833
276.5400085449219 497.8599853515625 17.1200008392334
278.1000061035156 497.5199890136719 22.54999923706055
278.1199951171875 497.510009765625 19.23999977111816
276.5199890136719 497.9100036621094 19.56999969482422
276.010009765625 497.989990234375 17.15999984741211
275.9599914550781 497.9100036621094 9.619999885559082
279.1400146484375 497.239990234375 21.15999984741211
275.989990234375 497.9299926757812 11.78999996185303
276.5400085449219 497.8599853515625 15.27999973297119
275.489990234375 498.0799865722656 11.52000045776367
278.0799865722656 497.489990234375 17.27000045776367
279.6600036621094 497.1000061035156 18.3799991607666
274.8999938964844 498.2000122070312 9.600000381469727
274.9400024414062 498.25 17.32999992370605
274.4200134277344 498.3999938964844 17.97999954223633
275.9800109863281 497.9599914550781 14.72000026702881
277.6000061035156 497.6000061035156 18.96999931335449
283.3999938964844 496.0499877929688 9.069999694824219
283.3900146484375 496.0799865722656 11.06999969482422
283.8699951171875 495.9100036621094 9.289999961853027
282.7999877929688 496.2300109863281 14.55000019073486
282.7699890136719 496.2200012207031 10.77000045776367
284.3999938964844 495.7900085449219 9.020000457763672
282.25 496.4599914550781 20.89999961853027
283.7200012207031 495.260009765625 9.170000076293945
283.1600036621094 495.4200134277344 11.06999969482422
283.760009765625 495.2799987792969 10.98999977111816
282.6900024414062 495.5499877929688 10.94999980926514
281.6099853515625 495.7900085449219 9.550000190734863
282.6400146484375 495.5899963378906 14.55000019073486
282.1099853515625 495.7000122070312 14.55000019073486
280.5400085449219 496.1300048828125 15.10000038146973
279.989990234375 496.2699890136719 15.02000045776367
278.9800109863281 496.5499877929688 18.54999923706055
280.5700073242188 496.1300048828125 16.54999923706055
278.4400024414062 496.75 21.51000022888184
281.6199951171875 495.7999877929688 12.6899995803833
279.510009765625 496.4100036621094 16.79000091552734
280.010009765625 496.260009765625 16.78000068664551
278.9800109863281 496.489990234375 14.15999984741211
278.3999938964844 496.6300048828125 14.02999973297119
277.3800048828125 496.9299926757812 17.17000007629395
283.1600036621094 495.4400024414062 14.64000034332275
277.8900146484375 496.7900085449219 15.75
281.6099853515625 495.8599853515625 14.59000015258789
278.4299926757812 496.6900024414062 18.35000038146973
276.8599853515625 497.0400085449219 15.55000019073486
276.3399963378906 497.2099914550781 15.55000019073486
276.8500061035156 497.0199890136719 12.40999984741211
280.5400085449219 496.1000061035156 12.30000019073486
275.8399963378906 497.3500061035156 16.96999931335449
277.4100036621094 496.9400024414062 15.64999961853027
277.8699951171875 496.8800048828125 20.89999961853027
277.9100036621094 496.8999938964844 21.8700008392334
275.8399963378906 497.3099975585938 15.60000038146973
277.8699951171875 496.8099975585938 17.45000076293945
276.3299865722656 497.1099853515625 9.850000381469727
275.2900085449219 497.4299926757812 12.02999973297119
274.8099975585938 497.5599975585938 11.72000026702881
278.4400024414062 496.6900024414062 16.17000007629395
274.7699890136719 497.510009765625 9.899999618530273
274.7900085449219 497.6000061035156 15.85000038146973
275.2999877929688 497.4599914550781 15.44999980926514
279.5400085449219 496.4100036621094 18.60000038146973
276.3599853515625 497.1499938964844 12.56999969482422
283.0599975585938 494.8200073242188 11.39000034332275
283.6000061035156 494.6700134277344 11.60000038146973
282.489990234375 494.989990234375 14.77999973297119
281.9599914550781 495.1499938964844 14.51000022888184
283.0799865722656 494.8500061035156 15.1899995803833
281.4400024414062 495.2699890136719 12.90999984741211
280.4500122070312 495.5199890136719 15
279.9800109863281 495.6700134277344 15.02999973297119
280.4599914550781 495.489990234375 11.97000026702881
281.4500122070312 495.2200012207031 11.77000045776367
280.9800109863281 495.3399963378906 11.89999961853027
278.9299926757812 495.9599914550781 16.57999992370605
277.8800048828125 496.239990234375 17.6299991607666
281.9700012207031 495.0899963378906 11.6899995803833
279.4100036621094 495.8099975585938 16.45999908447266
279.3800048828125 495.7999877929688 14.01000022888184
280.9599914550781 495.3900146484375 14.76000022888184
279.9400024414062 495.6300048828125 11.47999954223633
278.3299865722656 496.1199951171875 18.64999961853027
279.4200134277344 495.8399963378906 17.35000038146973
278.3599853515625 496.0899963378906 16.22999954223633
276.7799987792969 496.4400024414062 12.13000011444092
278.3500061035156 496.0400085449219 14.14000034332275
276.2099914550781 496.5899963378906 12.85000038146973
277.2999877929688 496.2699890136719 9.199999809265137
275.739990234375 496.739990234375 15.85999965667725
276.2300109863281 496.510009765625 8.550000190734863
278.8999938964844 495.9500122070312 18.79999923706055
277.8800048828125 496.2000122070312 14.1899995803833
275.1700134277344 496.8200073242188 12.56999969482422
279.4100036621094 495.8299865722656 18.73999977111816
277.3500061035156 496.3399963378906 17.80999946594238
276.260009765625 496.6099853515625 15.5
274.6700134277344 496.9800109863281 12.43000030517578
274.6600036621094 496.989990234375 16.11000061035156
275.2099914550781 496.8500061035156 15.9399995803833
276.7999877929688 496.4500122070312 15.53999996185303
277.8399963378906 496.1000061035156 9.329999923706055
275.7300109863281 496.7000122070312 12.63000011444092
276.7699890136719 496.3900146484375 8.729999542236328
280.3200073242188 494.8599853515625 15.10000038146973
281.4500122070312 494.5199890136719 11.97000026702881
279.8699951171875 494.9200134277344 11.52000045776367
280.9299926757812 494.6900024414062 11.94999980926514
278.1799926757812 495.4200134277344 16.73999977111816
278.1900024414062 495.3699951171875 14.09000015258789
281.4299926757812 494.4700012207031 8.510000228881836
277.7099914550781 495.5199890136719 16.92000007629395
280.3299865722656 494.7799987792969 11.64999961853027
279.2999877929688 495.0899963378906 13.90999984741211
277.6900024414062 495.4299926757812 9.479999542236328
276.1499938964844 495.8299865722656 9.189999580383301
278.739990234375 495.239990234375 12.80000019073486
278.1799926757812 495.3699951171875 12.39000034332275
279.8699951171875 494.9599914550781 15.13000011444092
275.6199951171875 495.9599914550781 9.369999885559082
275.1300048828125 496.1300048828125 12.8100004196167
277.1600036621094 495.5700073242188 9.289999961853027
275.6400146484375 495.989990234375 13.01000022888184
276.6799926757812 495.6799926757812 9.289999961853027
277.5799865722656 494.6900024414062 9.289999961853027
275.9800109863281 495.1400146484375 9.539999961853027
275.4700012207031 495.2699890136719 13.07999992370605
276.489990234375 494.9700012207031 9.420000076293945
274.8999938964844 495.4200134277344 13.21000003814697
274.3800048828125 495.5499877929688 13.22999954223633
277.0299987792969 494.8399963378906 9.159999847412109
280.239990234375 494.0799865722656 11.52000045776367
280.7099914550781 493.8999938964844 8.619999885559082
280.7000122070312 493.9599914550781 12.03999996185303
279.6600036621094 494.2200012207031 11.69999980926514
281.239990234375 493.8399963378906 12.30000019073486
279.1499938964844 494.3699951171875 12.78999996185303
280.2200012207031 494.010009765625 8.270000457763672
279.6700134277344 494.25 15.5
278.1199951171875 494.6099853515625 12.69999980926514
278.6099853515625 494.4800109863281 12.93000030517578
279.1900024414062 494.3500061035156 11.60000038146973
274.260009765625 494.9400024414062 13.72000026702881
275.2799987792969 494.5799865722656 10.18000030517578
275.7999877929688 494.4700012207031 9.800000190734863
280.489990234375 493.3200073242188 12.43000030517578
280.0199890136719 493.4200134277344 11.97000026702881
278.9100036621094 493.7099914550781 13.07999992370605
279.4800109863281 493.5599975585938 11.9399995803833
278.3900146484375 493.8800048828125 13.02999973297119
276.3099975585938 494.3500061035156 9.760000228881836
279.3299865722656 492.9800109863281 12.39000034332275
285.239990234375 499.6900024414062 15.68000030517578
284.3299865722656 499.989990234375 10.5
284.75 499.9100036621094 8.210000038146973
284.9100036621094 499.8800048828125 10.56999969482422
281.1099853515625 500.010009765625 22.22999954223633
282.1400146484375 499.7799987792969 17.70999908447266
281.25 499.9599914550781 24.36000061035156
282.4800109863281 499.7300109863281 15.3100004196167
282.5299987792969 499.7200012207031 13.52999973297119
281.6300048828125 499.8800048828125 19.85000038146973
284.3099975585938 499.25 15.55000019073486
281.9500122070312 499.8399963378906 15.35000038146973
281.1900024414062 500 20.5
281.9299926757812 499.7900085449219 22.95999908447266
284.8699951171875 499.0899963378906 15.55000019073486
281.4200134277344 499.989990234375 15.32999992370605
283.3399963378906 499.5700073242188 8.510000228881836
283.0599975585938 499.5799865722656 15.36999988555908
283.8800048828125 499.4100036621094 12.25
282.8699951171875 499.6799926757812 10.71000003814697
283.8999938964844 499.4400024414062 10.43000030517578
283.7200012207031 499.3900146484375 15.51000022888184
281.4599914550781 499.8999938964844 21.35000038146973
282.0400085449219 499.8900146484375 13.72999954223633
283.9200134277344 499.4400024414062 8.560000419616699
281.739990234375 499.8500061035156 22.18000030517578
284.3500061035156 499.2900085449219 10.10000038146973
284.75 499.2300109863281 9.350000381469727
282.1600036621094 499.739990234375 19.78000068664551
283.4700012207031 499.5499877929688 10.73999977111816
278 500.0199890136719 23.84000015258789
279.3399963378906 499.6199951171875 26.30999946594238
280.1900024414062 499.4700012207031 23.45999908447266
280.4400024414062 499.3800048828125 24.32999992370605
279.5299987792969 499.6099853515625 25.07999992370605
279.9299926757812 499.5700073242188 18.94000053405762
280.5799865722656 499.3599853515625 23.05999946594238
280.6700134277344 499.3699951171875 21.44000053405762
279.7699890136719 499.5400085449219 24.05999946594238
278.510009765625 499.9100036621094 23.51000022888184
281.0299987792969 499.260009765625 22.60000038146973
279.739990234375 499.6099853515625 22
280.239990234375 499.4599914550781 21.93000030517578
282.0299987792969 499 22
281.3200073242188 499.2000122070312 21.82999992370605
280.6900024414062 499.3699951171875 19.68000030517578
281.9599914550781 499.0599975585938 18.17000007629395
283.3299865722656 498.7000122070312 18.70000076293945
282.1600036621094 499.010009765625 16.95000076293945
282.989990234375 498.7799987792969 19.68000030517578
282.2999877929688 498.989990234375 19.32999992370605
283.989990234375 498.5199890136719 19.15999984741211
282.7999877929688 498.8699951171875 15.21000003814697
280.4500122070312 499.4400024414062 18.82999992370605
284.4299926757812 498.4200134277344 18.54999923706055
284.0799865722656 498.5400085449219 15.43000030517578
283.4700012207031 498.7000122070312 15.38000011444092
284.5899963378906 498.4800109863281 9.609999656677246
282.6099853515625 499 10.55000019073486
282.8900146484375 498.8299865722656 17.25
281.6499938964844 499.25 11.26000022888184
283.5299987792969 498.760009765625 9.75
284.25 498.5799865722656 8.460000038146973
284.0499877929688 498.6199951171875 9.569999694824219
281.0899963378906 499.2799987792969 18.8799991607666
282.5700073242188 498.8999938964844 18.29999923706055
284.2000122070312 498.5199890136719 17.84000015258789
283.1099853515625 498.8699951171875 10.10000038146973
281.6700134277344 499.1400146484375 19.14999961853027
275.6700134277344 499.9700012207031 20.77000045776367
275.989990234375 499.8900146484375 18.18000030517578
276.5799865722656 499.7099914550781 20.11000061035156
276.5400085449219 499.739990234375 18.17000007629395
278.5199890136719 499.1799926757812 24.63999938964844
279.010009765625 499.0299987792969 24.42000007629395
279.3900146484375 498.9200134277344 25.65999984741211
276.1199951171875 499.8599853515625 20.43000030517578
275.9500122070312 499.8900146484375 19.89999961853027
278.760009765625 499.2000122070312 19.6200008392334
279.5199890136719 498.9299926757812 22.20000076293945
281.2200012207031 498.510009765625 23.81999969482422
280.3800048828125 498.760009765625 21.05999946594238
278.1600036621094 499.2699890136719 23.43000030517578
279.4100036621094 499.0299987792969 19.90999984741211
277.7699890136719 499.3800048828125 24.02000045776367
278.7999877929688 499.1199951171875 21.76000022888184
279.4299926757812 499.0400085449219 17.93000030517578
280.5400085449219 498.6700134277344 23.60000038146973
281.010009765625 498.5899963378906 19.29999923706055
279.6300048828125 498.8999938964844 24.48999977111816
278.9100036621094 499.1300048828125 18.3700008392334
281.3500061035156 498.5400085449219 16.76000022888184
281.4500122070312 498.5199890136719 15.27999973297119
281.8200073242188 498.4400024414062 14.65999984741211
282.5899963378906 498.239990234375 15.22000026702881
282.0599975585938 498.3699951171875 17.31999969482422
282.239990234375 498.2799987792969 19.6299991607666
281.8999938964844 498.3699951171875 22.15999984741211
282.7099914550781 498.2000122070312 17.69000053405762
282.1700134277344 498.4400024414062 9.989999771118164
282.6900024414062 498.3099975585938 9.909999847412109
283.0799865722656 498.1300048828125 14.98999977111816
281.25 498.5700073242188 18.17000007629395
283.8399963378906 497.9500122070312 15.4399995803833
282.2099914550781 498.3800048828125 12
281.1400146484375 498.5299987792969 21.72999954223633
283.239990234375 498.1600036621094 9.869999885559082
279.0899963378906 499.0899963378906 20.67000007629395
284.2200012207031 497.9299926757812 8.920000076293945
277.1000061035156 499.5899963378906 19.88999938964844
283.3200073242188 498.0199890136719 17.6200008392334
284 497.8399963378906 18.04000091552734
281.6000061035156 498.4299926757812 19.45000076293945
280.8299865722656 498.7300109863281 11.39999961853027
283.7999877929688 498.0199890136719 9.680000305175781
275.8500061035156 499.3299865722656 20.1200008392334
277.0299987792969 499.010009765625 20.06999969482422
276.4800109863281 499.1600036621094 20.21999931335449
276.4599914550781 499.1799926757812 18.21999931335449
277.7900085449219 498.8099975585938 22.53000068664551
275.4500122070312 499.4299926757812 20.80999946594238
273.6400146484375 499.9599914550781 12.90999984741211
275.7799987792969 499.3699951171875 17.93000030517578
277.5499877929688 498.9100036621094 18.29000091552734
274.75 499.7000122070312 12.73999977111816
278.3299865722656 498.6799926757812 22.55999946594238
278.9400024414062 498.4700012207031 24.54000091552734
279.3999938964844 498.3900146484375 22.48999977111816
279.3500061035156 498.3900146484375 24.18000030517578
274.260009765625 499.8099975585938 12.86999988555908
278.8699951171875 498.5 22.59000015258789
277.5299987792969 498.9100036621094 19.90999984741211
279.2900085449219 498.4299926757812 20.14999961853027
279.1400146484375 498.510009765625 17.89999961853027
280.3599853515625 498.1700134277344 21.80999946594238
280.0400085449219 498.2300109863281 20.76000022888184
280.3699951171875 498.1700134277344 19.95000076293945
279.6199951171875 498.3200073242188 21.26000022888184
282.0599975585938 497.7300109863281 19.92000007629395
281.9200134277344 497.7699890136719 17.44000053405762
280.8999938964844 498.0199890136719 19.75
282.2099914550781 497.7300109863281 16.45000076293945
281.5 497.8699951171875 19.86000061035156
278.4700012207031 498.6700134277344 19.45999908447266
281.6700134277344 497.8500061035156 16.61000061035156
282.4299926757812 497.6900024414062 15.21000003814697
281.6099853515625 497.9200134277344 12.55000019073486
280.9299926757812 497.9800109863281 21.78000068664551
282.2000122070312 497.7799987792969 14.56999969482422
281.6799926757812 497.8200073242188 22.35000038146973
283.1000061035156 497.5700073242188 13.4399995803833
281.1600036621094 498.0199890136719 16.78000068664551
281.1099853515625 498.0499877929688 12.80000019073486
282.1000061035156 497.8699951171875 10.09000015258789
281.0499877929688 498.0599975585938 14.55000019073486
281.4400024414062 498 9.979999542236328
282.5499877929688 497.6099853515625 17.67000007629395
282.6499938964844 497.7000122070312 10.02999973297119
281.1600036621094 498.0599975585938 10.97999954223633
278.9400024414062 498.5 20.92000007629395
284.6900024414062 497.1799926757812 9.350000381469727
283.1000061035156 497.5799865722656 9.789999961853027
281.5899963378906 497.9299926757812 14.47999954223633
284.4599914550781 497.25 8.489999771118164
283.6199951171875 497.4400024414062 9.680000305175781
282.6099853515625 497.6400146484375 13.92000007629395
283.3099975585938 496.8399963378906 9.680000305175781
283.8099975585938 496.7099914550781 9.560000419616699
284.75 496.5299987792969 8.539999961853027
283.6600036621094 496.75 10.77000045776367
284.2999877929688 496.6099853515625 9
274.7699890136719 498.9700012207031 17.75
276.5799865722656 498.4400024414062 20.02000045776367
275.7900085449219 498.7200012207031 17.3799991607666
278.489990234375 497.9200134277344 22.39999961853027
278.1400146484375 498.0199890136719 21.22999954223633
275.2900085449219 498.8099975585938 17.52000045776367
276.3399963378906 498.5700073242188 17.22999954223633
278.7300109863281 497.9100036621094 21.21999931335449
279.1900024414062 497.7300109863281 22.82999992370605
279.010009765625 497.8099975585938 20.30999946594238
278.4100036621094 497.9800109863281 18.3700008392334
279.260009765625 497.7799987792969 21.04000091552734
277.8900146484375 498.1400146484375 18.57999992370605
279.5599975585938 497.6700134277344 20.13999938964844
279.0599975585938 497.8599853515625 18.35000038146973
277.989990234375 498.0499877929688 22.65999984741211
278.25 498.0799865722656 15.84000015258789
277.5400085449219 498.1900024414062 23.04000091552734
280.0899963378906 497.5700073242188 17.93000030517578
280.2699890136719 497.5199890136719 20.44000053405762
281.4599914550781 497.1799926757812 22.57999992370605
276.8299865722656 498.4200134277344 16.93000030517578
280.6300048828125 497.4299926757812 19.82999992370605
281.8900146484375 497.1000061035156 20.36000061035156
281.7099914550781 497.1400146484375 19.65999984741211
278.4700012207031 498.0499877929688 12.60999965667725
279.5799865722656 497.7000122070312 18.26000022888184
280.7300109863281 497.4500122070312 14.65999984741211
274.2900085449219 499.0499877929688 18.15999984741211
282.5400085449219 496.9200134277344 20.76000022888184
280.7699890136719 497.4299926757812 16.68000030517578
281.8900146484375 497.1199951171875 16.48999977111816
279.9100036621094 497.6000061035156 21.30999946594238
281.7900085449219 497.1799926757812 14.35000038146973
282.7900085449219 496.9299926757812 13.89000034332275
277.3800048828125 498.25 18.73999977111816
281.760009765625 497.2300109863281 10.46000003814697
282.9500122070312 496.9299926757812 10.51000022888184
278.9200134277344 497.9400024414062 14.05000019073486
282.4200134277344 497.0299987792969 14.47999954223633
282.6000061035156 497.0299987792969 9.340000152587891
281.2300109863281 497.3900146484375 10.5
280.7000122070312 497.3500061035156 21.98999977111816
278.6700134277344 497.9800109863281 17.1200008392334
282.3800048828125 497.0700073242188 10.55000019073486
282.3299865722656 497.0899963378906 12.42000007629395
278.9599914550781 497.8699951171875 16.25
281.2799987792969 497.2699890136719 20.05999946594238
281.3200073242188 497.2699890136719 16.61000061035156
281.25 497.3200073242188 14.27999973297119
281.1099853515625 496.6700134277344 12.52000045776367
280.3699951171875 496.8299865722656 12.22000026702881
281.6400146484375 496.5599975585938 10.47999954223633
282.2900085449219 496.3399963378906 14.47999954223633
281.6300048828125 496.489990234375 14.36999988555908
282.8399963378906 496.2099914550781 10.80000019073486
282.1700134277344 496.3900146484375 10.5
284.0499877929688 495.9500122070312 9.210000038146973
283.4299926757812 496.0899963378906 11.02000045776367
284.5899963378906 495.8200073242188 8.819999694824219
283.5199890136719 496.1000061035156 9.189999580383301
274.5799865722656 498.2699890136719 17.75
275.010009765625 498.1400146484375 17.27000045776367
276.7699890136719 497.6700134277344 19.32999992370605
278.8200073242188 497.1600036621094 20.3799991607666
276.1000061035156 497.8800048828125 17.23999977111816
278.0400085449219 497.4200134277344 15.85999965667725
277.0499877929688 497.6600036621094 14.59000015258789
279.3900146484375 497.0499877929688 18.52000045776367
279.0499877929688 497.0599975585938 21.25
277.8900146484375 497.3999938964844 17.39999961853027
279.2000122070312 497.1099853515625 14.09000015258789
278.8399963378906 497.1799926757812 18.48999977111816
278.5799865722656 497.3099975585938 13.97999954223633
279.989990234375 496.8800048828125 16.72999954223633
278.5599975585938 497.1900024414062 21.42000007629395
280.5700073242188 496.7200012207031 16.64999961853027
278.4100036621094 497.2900085449219 17.23999977111816
277.2200012207031 497.5599975585938 19.07999992370605
279.2900085449219 497.0700073242188 16.31999969482422
280.989990234375 496.6600036621094 16.20000076293945
280.5499877929688 496.760009765625 14.80000019073486
280.0700073242188 496.9100036621094 14.9399995803833
280.1499938964844 496.8999938964844 13.53999996185303
279.8999938964844 496.9100036621094 18.31999969482422
277.9500122070312 497.3599853515625 21.47999954223633
275.8699951171875 497.9500122070312 14.67000007629395
281.7200012207031 496.4400024414062 16.60000038146973
279.2300109863281 496.3699951171875 18.65999984741211
277.9200134277344 496.7799987792969 12.47000026702881
279.8599853515625 496.2300109863281 16.95000076293945
278.5799865722656 496.5700073242188 16.54000091552734
280.4100036621094 496.0799865722656 15.05000019073486
279.510009765625 496.3500061035156 12.07999992370605
279.7999877929688 496.2699890136719 14.98999977111816
278.4700012207031 496.6000061035156 14.22999954223633
280.3399963378906 496.1099853515625 16.6200008392334
279.260009765625 496.3999938964844 15.10999965667725
279.1700134277344 496.3900146484375 16.5
274.489990234375 497.5899963378906 16.54000091552734
275.4299926757812 497.3800048828125 15.72999954223633
275.9400024414062 497.25 15.61999988555908
274.8900146484375 497.489990234375 15.88000011444092
277.7300109863281 496.739990234375 17.48999977111816
278.3900146484375 496.5499877929688 21.61000061035156
275.5599975585938 497.3699951171875 12.23999977111816
278.6900024414062 496.489990234375 18.59000015258789
276.5 497.0899963378906 15.39000034332275
276.8299865722656 497.0599975585938 12.53999996185303
277.2000122070312 496.9299926757812 15.64999961853027
277.9299926757812 496.6600036621094 22.09000015258789
278.2300109863281 496.6099853515625 17.1200008392334
275.8099975585938 497.3200073242188 13.02000045776367
281.989990234375 495.7200012207031 14.40999984741211
282.5899963378906 495.5599975585938 14.63000011444092
280.7000122070312 496.0499877929688 12.14999961853027
