269.8299865722656 454.1900024414062 7.449999809265137
270.4500122070312 454.0400085449219 7.829999923706055
270.4100036621094 454.7300109863281 8.989999771118164
269.8800048828125 454.8900146484375 7.269999980926514
270.4700012207031 454.739990234375 7.239999771118164
270.3699951171875 455.3900146484375 8.619999885559082
270.6199951171875 455.3599853515625 7.610000133514404
271.0299987792969 455.2099914550781 9.020000457763672
270.7799987792969 456.010009765625 8.149999618530273
271.4100036621094 455.8500061035156 8.199999809265137
269.8699951171875 456.9599914550781 10.63000011444092
270.8800048828125 456.7200012207031 8.140000343322754
271.2099914550781 456.6499938964844 7.349999904632568
270.010009765625 456.9800109863281 7.329999923706055
270.5899963378906 456.8099975585938 7.170000076293945
270.6700134277344 457.5400085449219 7.159999847412109
270.2799987792969 457.5899963378906 9.439999580383301
270.0599975585938 457.7000122070312 6.929999828338623
270.4500122070312 458.1900024414062 10.02000045776367
267.7300109863281 452.2999877929688 9.779999732971191
269.7099914550781 453.4800109863281 8.020000457763672
268.6900024414062 453.2099914550781 7.590000152587891
268.5199890136719 453.1799926757812 10.07999992370605
268.9100036621094 453.2699890136719 8.840000152587891
267.510009765625 452.9200134277344 9.800000190734863
267.989990234375 453.0799865722656 9.989999771118164
268.2099914550781 453.0599975585938 7.349999904632568
267.7300109863281 453.5799865722656 9.600000381469727
267.2200012207031 453.4700012207031 11.30000019073486
267.4400024414062 453.489990234375 8.710000038146973
268.6199951171875 453.7999877929688 8.560000419616699
266.8800048828125 453.3800048828125 8.619999885559082
265.6600036621094 453.0799865722656 8.810000419616699
267.8500061035156 453.5700073242188 7.309999942779541
266.9599914550781 453.3999938964844 10.39000034332275
268.3299865722656 453.7000122070312 7.53000020980835
269.5299987792969 453.9800109863281 7.46999979019165
268.0799865722656 453.7000122070312 10.27000045776367
267.7000122070312 453.6000061035156 11.65999984741211
268.2699890136719 453.739990234375 11.65999984741211
268.6700134277344 453.8500061035156 10.25
269.0199890136719 453.8900146484375 9.100000381469727
265.8900146484375 453.75 8.930000305175781
266.4400024414062 453.9200134277344 8.970000267028809
265.8599853515625 453.7799987792969 10.92000007629395
265.3500061035156 453.6199951171875 8.689999580383301
266.2900085449219 453.8699951171875 7.579999923706055
268.8399963378906 454.5199890136719 10.60999965667725
268.6400146484375 454.4800109863281 11.31999969482422
269.3999938964844 454.6799926757812 10.60000038146973
269.0799865722656 454.5400085449219 7.75
267.4200134277344 454.1799926757812 11.56999969482422
267.1600036621094 454.1000061035156 10.51000022888184
266.7000122070312 453.9800109863281 9.989999771118164
269.5199890136719 454.6499938964844 8.289999961853027
267.0700073242188 454.0899963378906 8.710000038146973
267.7799987792969 454.2699890136719 10.25
268.010009765625 454.2999877929688 7.760000228881836
266.3900146484375 453.9200134277344 11.10999965667725
267.6700134277344 454.1900024414062 8.869999885559082
268.2999877929688 454.3699951171875 10.4399995803833
265.4800109863281 454.5 11.17000007629395
266.0700073242188 454.5899963378906 7.130000114440918
264.7200012207031 454.2999877929688 9.779999732971191
265.1300048828125 454.3299865722656 8.390000343322754
265.739990234375 454.489990234375 8.329999923706055
264.5199890136719 454.2300109863281 8.449999809265137
266.0199890136719 454.5799865722656 9.310000419616699
266.9599914550781 454.8099975585938 7.980000019073486
266.2999877929688 454.6499938964844 10.31999969482422
266.7099914550781 454.7699890136719 9.010000228881836
265.4599914550781 454.4500122070312 9.340000152587891
269.239990234375 455.4100036621094 12.18000030517578
268.3500061035156 455.1600036621094 11.11999988555908
268.0499877929688 455.1099853515625 12.14999961853027
267.8900146484375 455.0799865722656 10.52999973297119
267.1799926757812 454.8900146484375 11.14000034332275
269.7099914550781 455.4700012207031 8.430000305175781
268.5199890136719 455.2000122070312 8.399999618530273
266.7699890136719 454.7999877929688 10.52000045776367
268.0199890136719 455.0599975585938 8.260000228881836
267.6499938964844 455.010009765625 11.46000003814697
268.75 455.2999877929688 11.75
266.2999877929688 454.7099914550781 12.11999988555908
267.25 454.8699951171875 8.939999580383301
265.7200012207031 454.5499877929688 12.28999996185303
267.5700073242188 454.9700012207031 9.800000190734863
269.7300109863281 455.5499877929688 12.38000011444092
269.1700134277344 455.3299865722656 8.369999885559082
266.0299987792969 454.6000061035156 11.27999973297119
265.4500122070312 455.1499938964844 8.380000114440918
264.989990234375 455.0299987792969 7.869999885559082
266.1000061035156 455.2999877929688 8.159999847412109
264.8500061035156 455.010009765625 10.35000038146973
264.3399963378906 454.8800048828125 8.029999732971191
268.1600036621094 455.8699951171875 12.94999980926514
269.6300048828125 456.2099914550781 11.90999984741211
269.0799865722656 456.0499877929688 9.800000190734863
267.4700012207031 455.7000122070312 13.30000019073486
269.5799865722656 456.1499938964844 8.090000152587891
267.8999938964844 455.7799987792969 11.86999988555908
269 456.0400085449219 8.149999618530273
267.8599853515625 455.760009765625 8.229999542236328
269.2099914550781 456.1099853515625 11.23999977111816
268.5299987792969 456 13.52000045776367
267.6300048828125 455.7099914550781 10.86999988555908
267.1799926757812 455.5799865722656 10.53999996185303
268.3699951171875 455.8800048828125 8.25
267.0199890136719 455.5299987792969 6.820000171661377
269.7099914550781 456.2300109863281 9.640000343322754
265.010009765625 455.1000061035156 11.96000003814697
266.4200134277344 455.3800048828125 9
266.7099914550781 455.4800109863281 9.930000305175781
265.8500061035156 455.2699890136719 10.92000007629395
266.3699951171875 455.4100036621094 11.11999988555908
268.3699951171875 455.8800048828125 10.21000003814697
265.6000061035156 455.25 11.69999980926514
268.5899963378906 455.989990234375 11.43000030517578
265.6199951171875 455.1900024414062 9.800000190734863
268.989990234375 456.7799987792969 13.0600004196167
269.6900024414062 456.9200134277344 10.78999996185303
268.5 456.6199951171875 12.80000019073486
268.260009765625 456.5700073242188 13.67000007629395
267.5400085449219 456.3200073242188 8.220000267028809
267.6000061035156 456.3999938964844 11.75
268.0299987792969 456.5 12.27999973297119
266.2699890136719 456.0700073242188 10.60999965667725
268.489990234375 456.6300048828125 10.64000034332275
267.3099975585938 456.3299865722656 10.76000022888184
265.6600036621094 455.8999938964844 10.84000015258789
266.8800048828125 456.1700134277344 6.539999961853027
266.5199890136719 456.1199951171875 9.760000228881836
268.9800109863281 456.7300109863281 11.11999988555908
267.0599975585938 456.2300109863281 9.810000419616699
269.3900146484375 456.8699951171875 11.69999980926514
266.0700073242188 456.010009765625 9.329999923706055
265.9700012207031 455.989990234375 11.52999973297119
267.1799926757812 456.260009765625 7.539999961853027
265.1000061035156 455.739990234375 8.720000267028809
266.1499938964844 455.9700012207031 7.03000020980835
264.6600036621094 455.6700134277344 10.31999969482422
265.2900085449219 455.8500061035156 12.11999988555908
264.3999938964844 455.6000061035156 8.960000038146973
265.5899963378906 455.8599853515625 8.960000038146973
267.9200134277344 457.2699890136719 13.73999977111816
268.9400024414062 457.4599914550781 10.23999977111816
267.75 457.2000122070312 12.27000045776367
269.6300048828125 457.6300048828125 11.81999969482422
266.9100036621094 456.989990234375 13.25
268.1700134277344 457.3200073242188 12.89999961853027
269.2099914550781 457.5299987792969 9.180000305175781
268.3800048828125 457.2999877929688 10.03999996185303
268 457.2300109863281 9.409999847412109
268.5400085449219 457.3599853515625 11.64000034332275
267.260009765625 457.0599975585938 12.03999996185303
268.0499877929688 457.260009765625 11.23999977111816
266.4400024414062 456.8399963378906 10.84000015258789
267.3800048828125 457.1000061035156 13.44999980926514
266.7999877929688 456.9299926757812 9.640000343322754
267.5899963378906 457.1199951171875 8.899999618530273
266.4500122070312 456.7999877929688 8.800000190734863
267.1099853515625 457 10.59000015258789
267.1799926757812 456.9800109863281 8.300000190734863
269.3800048828125 457.5700073242188 10.59000015258789
264.7999877929688 456.4500122070312 10.39999961853027
267.5700073242188 457.1499938964844 11.03999996185303
265.8500061035156 456.7300109863281 10.76000022888184
265.0599975585938 456.4700012207031 9.630000114440918
266.7999877929688 456.8999938964844 7.590000152587891
265.5700073242188 456.5799865722656 7.760000228881836
264.5 456.3900146484375 11.43000030517578
266.1099853515625 456.739990234375 9.880000114440918
265.0899963378906 456.4500122070312 7.329999923706055
269.2300109863281 458.3299865722656 10.1899995803833
267.5499877929688 457.9299926757812 10.03999996185303
267.5199890136719 457.9400024414062 11.84000015258789
266.9299926757812 457.75 10.10000038146973
267.2900085449219 457.8500061035156 8.779999732971191
267.8599853515625 458.0400085449219 12.72999954223633
268.9100036621094 458.2900085449219 11.17000007629395
267.6099853515625 457.8800048828125 7.800000190734863
267.2900085449219 457.8900146484375 12.73999977111816
266.4100036621094 457.6499938964844 9.949999809265137
266.0199890136719 457.5700073242188 11.28999996185303
265.8099975585938 457.4700012207031 8.210000038146973
264.260009765625 457.1300048828125 11.40999984741211
268.7900085449219 458.1900024414062 9.699999809265137
265.7300109863281 457.4599914550781 10.39000034332275
263.9800109863281 457 8.430000305175781
267.1099853515625 457.760009765625 7.630000114440918
265.2000122070312 457.3200073242188 8.170000076293945
264.1700134277344 457.0499877929688 9.810000419616699
267.2999877929688 457.8500061035156 10.8100004196167
264.6700134277344 457.1799926757812 8.079999923706055
264.8200073242188 457.2099914550781 9.529999732971191
269.4200134277344 458.3500061035156 9.510000228881836
268.260009765625 458.0799865722656 9.409999847412109
265.1400146484375 457.3299865722656 10.36999988555908
263.3699951171875 456.8500061035156 8.760000228881836
268.7699890136719 458.8800048828125 9.199999809265137
269.1400146484375 458.9800109863281 10.01000022888184
268.239990234375 458.739990234375 9.119999885559082
266.760009765625 458.4100036621094 10.27999973297119
269.4700012207031 459.0700073242188 10.77000045776367
268.0899963378906 458.6799926757812 7.78000020980835
267.5499877929688 458.5599975585938 7.579999923706055
266.9599914550781 458.4100036621094 7.449999809265137
266.2300109863281 458.2699890136719 10.05000019073486
264.8500061035156 457.9299926757812 10.73999977111816
267.2200012207031 458.5 10.72000026702881
265.739990234375 458.1199951171875 7.760000228881836
264.8800048828125 457.9100036621094 8.550000190734863
265.4800109863281 458.1199951171875 10.60999965667725
263.0700073242188 457.4800109863281 9
268.5799865722656 458.7999877929688 7.980000019073486
264.3900146484375 457.7900085449219 8.25
263.7699890136719 457.6499938964844 8.539999961853027
265.5499877929688 458.7099914550781 7.920000076293945
265.5199890136719 458.7000122070312 9.869999885559082
264.0799865722656 458.3699951171875 8.880000114440918
264.6499938964844 458.5 8.880000114440918
269.0799865722656 459.5799865722656 9.399999618530273
268.3699951171875 459.4100036621094 7.809999942779541
267.75 459.260009765625 8.199999809265137
266.5 458.9599914550781 10.43000030517578
265.2000122070312 458.6499938964844 10.93000030517578
266.7799987792969 459.010009765625 7.570000171661377
268 459.3099975585938 9.079999923706055
268.5400085449219 459.4700012207031 9.159999847412109
267.1199951171875 459.0700073242188 8.350000381469727
266.1300048828125 458.8900146484375 9.939999580383301
267.2900085449219 459.8200073242188 8.560000419616699
264.1799926757812 459.0499877929688 9.180000305175781
264.4500122070312 459.1099853515625 8.260000228881836
265.7000122070312 459.4400024414062 7.96999979019165
265.010009765625 459.239990234375 8.350000381469727
266.75 459.6799926757812 8.369999885559082
266.3800048828125 459.5799865722656 7.75
265.260009765625 460.0700073242188 8.569999694824219
270.2699890136719 453.5799865722656 8.090000152587891
271.1799926757812 454.4700012207031 9.779999732971191
270.2900085449219 454.2000122070312 8.890000343322754
270.7000122070312 454.2900085449219 7.480000019073486
270.0499877929688 454.1300048828125 7.75
271 455.0599975585938 9.239999771118164
271.5899963378906 455.1900024414062 9.069999694824219
270.3999938964844 454.8500061035156 7.289999961853027
270.0199890136719 454.7799987792969 8.590000152587891
270.4599914550781 454.8900146484375 9.079999923706055
270.0400085449219 454.8500061035156 10.48999977111816
269.8200073242188 454.7099914550781 7.320000171661377
271.3099975585938 455.8599853515625 9.100000381469727
270.6700134277344 455.739990234375 9.199999809265137
270.3099975585938 455.6300048828125 8.5
270.8900146484375 455.7799987792969 8.470000267028809
269.8099975585938 455.5199890136719 10.25
270.0700073242188 456.3599853515625 12.39000034332275
270.7200012207031 456.4299926757812 8.189999580383301
270.4400024414062 456.3500061035156 7.090000152587891
271 456.510009765625 7.320000171661377
270.1400146484375 456.2799987792969 8.119999885559082
269.8800048828125 456.25 7.019999980926514
270.0599975585938 456.9700012207031 7.420000076293945
270.25 457.0400085449219 10.73999977111816
270.6900024414062 457.0899963378906 7.340000152587891
269.8699951171875 456.9599914550781 12.03999996185303
270.6099853515625 457.8599853515625 10.32999992370605
269.760009765625 457.6400146484375 9.270000457763672
269.7699890136719 457.6099853515625 7.340000152587891
269.9400024414062 457.6900024414062 10.84000015258789
270.2300109863281 457.760009765625 9.75
270.4100036621094 457.7699890136719 7.070000171661377
270.2799987792969 458.5799865722656 10.5
269.8599853515625 458.4800109863281 10.07999992370605
265.2099914550781 460.1000061035156 8.600000381469727
264.3599853515625 459.2699890136719 10.09000015258789
265.3599853515625 459.5499877929688 8.329999923706055
266.3699951171875 459.7900085449219 8.130000114440918
267.4500122070312 460.0400085449219 8.979999542236328
267.4500122070312 460.0299987792969 8.199999809265137
266.8800048828125 459.8800048828125 8.609999656677246
264.8299865722656 459.4100036621094 8.609999656677246
265.489990234375 458.8900146484375 8.010000228881836
264.8999938964844 458.7699890136719 8.529999732971191
267.6199951171875 459.4400024414062 8.149999618530273
265.9599914550781 459.010009765625 7.900000095367432
264.4100036621094 458.6400146484375 9.039999961853027
268.1300048828125 459.5400085449219 9.220000267028809
268.6600036621094 459.6499938964844 9.239999771118164
266.5899963378906 459.1600036621094 10.52999973297119
267.0599975585938 459.3099975585938 8.260000228881836
268.1199951171875 459.5299987792969 7.860000133514404
269.1799926757812 459.7699890136719 9.439999580383301
267.6400146484375 459.4299926757812 9.239999771118164
266.5499877929688 459.1499938964844 7.630000114440918
263.8800048828125 458.489990234375 9.090000152587891
263.8900146484375 458.4800109863281 9.949999809265137
264.6199951171875 457.9200134277344 8.670000076293945
264.0899963378906 457.760009765625 9.550000190734863
264.6400146484375 457.8800048828125 11.01000022888184
265.1000061035156 458.0199890136719 8.579999923706055
265.1600036621094 458.0400085449219 10.78999996185303
263.0199890136719 457.5400085449219 9.210000038146973
263.5700073242188 457.6499938964844 8.729999542236328
264.0700073242188 457.7799987792969 8.359999656677246
266.1199951171875 458.3200073242188 7.110000133514404
266.6600036621094 458.3999938964844 8.850000381469727
267.7300109863281 458.6499938964844 9.390000343322754
267.7099914550781 458.6700134277344 7.590000152587891
267.239990234375 458.5199890136719 10.64999961853027
265.6099853515625 458.1700134277344 10.07999992370605
268.2200012207031 458.8200073242188 7.789999961853027
268.239990234375 458.7699890136719 9.189999580383301
266.7099914550781 458.4100036621094 10.22000026702881
268.7900085449219 458.9200134277344 10.21000003814697
268.25 458.7699890136719 10.57999992370605
267.239990234375 458.5700073242188 7.980000019073486
268.7900085449219 458.8999938964844 9.100000381469727
265.5899963378906 458.1499938964844 7.730000019073486
269.3699951171875 459.0700073242188 9.300000190734863
266.2000122070312 458.2999877929688 9.960000038146973
264.1099853515625 457.0700073242188 9.960000038146973
263.6199951171875 456.9700012207031 8.649999618530273
264.6799926757812 457.2099914550781 9.789999961853027
264.1300048828125 457.0799865722656 12.01000022888184
264.6600036621094 457.2300109863281 8.25
265.25 457.3599853515625 10.51000022888184
265.739990234375 457.4500122070312 10.4399995803833
265.739990234375 457.5199890136719 8.289999961853027
266.2900085449219 457.6199951171875 9.720000267028809
267.4200134277344 457.8599853515625 12.63000011444092
267.4200134277344 457.8599853515625 11.93000030517578
267.3699951171875 457.9100036621094 7.46999979019165
265.1799926757812 457.3800048828125 8.199999809265137
267.9200134277344 457.9500122070312 12.56999969482422
267.8699951171875 458 7.699999809265137
268.9400024414062 458.260009765625 9.539999961853027
266.2699890136719 457.6099853515625 11.5
268.9299926757812 458.2200012207031 11.0600004196167
267.4100036621094 457.8800048828125 10.71000003814697
266.260009765625 457.6099853515625 7.679999828338623
269.3900146484375 458.3900146484375 9.390000343322754
267.8800048828125 458.010009765625 9.899999618530273
264.7200012207031 457.2000122070312 11
269.4299926757812 458.3699951171875 10.03999996185303
264.0899963378906 457.0899963378906 8.439999580383301
266.8699951171875 457.75 10.03999996185303
263.7999877929688 456.3800048828125 10.28999996185303
264.3099975585938 456.5199890136719 10.18000030517578
265.8500061035156 456.8999938964844 8.010000228881836
264.3599853515625 456.510009765625 11.51000022888184
265.8999938964844 456.8999938964844 10.15999984741211
266.4100036621094 457.010009765625 12.78999996185303
266.3800048828125 457.010009765625 9.319999694824219
264.7900085449219 456.6600036621094 6.849999904632568
266.4299926757812 457.010009765625 10.97999954223633
266.3900146484375 457.0499877929688 7.659999847412109
266.9599914550781 457.1000061035156 13.60000038146973
267.489990234375 457.2200012207031 13.52999973297119
266.9700012207031 457.1099853515625 12.01000022888184
266.8999938964844 457.1499938964844 7.71999979019165
264.8099975585938 456.6099853515625 10.31999969482422
264.8299865722656 456.6199951171875 12.64000034332275
266.9599914550781 457.1499938964844 10.52999973297119
267.4599914550781 457.25 11.06999969482422
267.9700012207031 457.3399963378906 12.56999969482422
267.9400024414062 457.3800048828125 9.439999580383301
268.5299987792969 457.5499877929688 9.069999694824219
269.6099853515625 457.7999877929688 10.8100004196167
266.9400024414062 457.1700134277344 8.989999771118164
267.9599914550781 457.3699951171875 11.11999988555908
269.5499877929688 457.7900085449219 7.71999979019165
268.5299987792969 457.5 10.23999977111816
269.0299987792969 457.6400146484375 9.390000343322754
268.510009765625 457.5299987792969 11.51000022888184
269.0499877929688 457.6300048828125 11.17000007629395
269.5899963378906 457.7799987792969 9.470000267028809
264.4299926757812 455.8900146484375 10.15999984741211
264.9500122070312 456.0299987792969 9.279999732971191
265 456.0499877929688 10.26000022888184
264.4400024414062 455.8999938964844 9.029999732971191
266.0499877929688 456.2699890136719 10.5600004196167
265.4700012207031 456.1700134277344 7.78000020980835
265.5400085449219 456.1199951171875 11.90999984741211
263.8800048828125 455.7799987792969 9.149999618530273
265.5299987792969 456.1600036621094 10.51000022888184
266.010009765625 456.2900085449219 7.199999809265137
267.1400146484375 456.510009765625 11.85999965667725
266.010009765625 456.2900085449219 8.689999580383301
267.6700134277344 456.6400146484375 12.56999969482422
266.0400085449219 456.2699890136719 9.920000076293945
267.1000061035156 456.5799865722656 6.110000133514404
267.1499938964844 456.5 12.82999992370605
266.6199951171875 456.4299926757812 10.10999965667725
267.6499938964844 456.6900024414062 8.399999618530273
264.9700012207031 456.0299987792969 11.52000045776367
268.1600036621094 456.760009765625 11.75
266.5499877929688 456.4599914550781 7.429999828338623
267.1499938964844 456.5199890136719 10.68000030517578
267.6499938964844 456.6700134277344 9.720000267028809
269.1799926757812 456.989990234375 12.9399995803833
268.7200012207031 456.8999938964844 12.65999984741211
267.1199951171875 456.6000061035156 7.260000228881836
269.1600036621094 457.0599975585938 7.889999866485596
267.0599975585938 456.5899963378906 4.429999828338623
268.1700134277344 456.75 13.46000003814697
268.6900024414062 456.8999938964844 11.31999969482422
268.1700134277344 456.7999877929688 10.47000026702881
269.1499938964844 457.0499877929688 10.47000026702881
269.1700134277344 457.0299987792969 9.170000076293945
266.1499938964844 455.5499877929688 11.32999992370605
266.1099853515625 455.6000061035156 7.550000190734863
266.6700134277344 455.739990234375 8.539999961853027
267.2000122070312 455.8299865722656 11.48999977111816
267.2200012207031 455.7900085449219 13.14999961853027
266.6900024414062 455.7300109863281 7.130000114440918
267.739990234375 455.9200134277344 11.89000034332275
267.75 455.9200134277344 12.85999965667725
266.1199951171875 455.5700073242188 9.079999923706055
266.1400146484375 455.5599975585938 10.52999973297119
268.2900085449219 456.0499877929688 12.77000045776367
268.2099914550781 456.1000061035156 7.579999923706055
267.1499938964844 455.8599853515625 6.599999904632568
268.8200073242188 456.2099914550781 11.03999996185303
268.25 456.0599975585938 10.8100004196167
266.739990234375 455.7200012207031 11.11999988555908
267.1799926757812 455.8500061035156 10.01000022888184
267.1700134277344 455.8500061035156 8.189999580383301
268.25 456.0799865722656 8.760000228881836
269.3299865722656 456.3599853515625 9.829999923706055
268.8099975585938 456.2200012207031 9.739999771118164
268.8399963378906 456.1799926757812 12.84000015258789
269.2699890136719 456.3800048828125 7.829999923706055
269.3500061035156 456.3500061035156 11.4399995803833
266.6900024414062 455.739990234375 10.13000011444092
268.7999877929688 456.2300109863281 8.140000343322754
264.0199890136719 455.0899963378906 8.100000381469727
264.5799865722656 455.2200012207031 10.27000045776367
265.1000061035156 455.2999877929688 11.82999992370605
265.0700073242188 455.3200073242188 9.470000267028809
265.6799926757812 455.4599914550781 11.51000022888184
264.0599975585938 455.0700073242188 9.340000152587891
264.5899963378906 455.2099914550781 8.770000457763672
265.6199951171875 455.4599914550781 9.189999580383301
269.3500061035156 455.7000122070312 8.279999732971191
269.3800048828125 455.6900024414062 12.32999992370605
264.6499938964844 454.5899963378906 8.170000076293945
265.1400146484375 454.6799926757812 11.17000007629395
264.6499938964844 454.5400085449219 10.52999973297119
265.1099853515625 454.6799926757812 8.220000267028809
265.1300048828125 454.6900024414062 10.14000034332275
265.7000122070312 454.8099975585938 11.38000011444092
266.1900024414062 454.9800109863281 7.489999771118164
266.8399963378906 455.0499877929688 11.36999988555908
266.760009765625 455.1199951171875 6.929999828338623
266.2699890136719 454.9299926757812 11.23999977111816
266.7900085449219 455.0799865722656 9.119999885559082
267.2699890136719 455.2200012207031 9.079999923706055
265.6799926757812 454.8099975585938 8.430000305175781
267.3299865722656 455.2099914550781 10.92000007629395
267.8500061035156 455.2699890136719 13.52999973297119
266.8200073242188 455.0700073242188 10.25
268.8800048828125 455.5199890136719 13.15999984741211
268.3500061035156 455.4400024414062 11.77999973297119
268.8699951171875 455.5400085449219 11.55000019073486
267.3500061035156 455.1700134277344 13.32999992370605
268.3500061035156 455.3800048828125 13.17000007629395
268.3099975585938 455.4200134277344 10.60999965667725
268.8399963378906 455.5799865722656 8.189999580383301
267.8200073242188 455.3200073242188 11.55000019073486
267.7900085449219 455.3299865722656 7.940000057220459
265.7200012207031 454.760009765625 12.39000034332275
268.3099975585938 455.4700012207031 8.270000457763672
268.8699951171875 455.5899963378906 10.28999996185303
265.2699890136719 454.0599975585938 9.550000190734863
264.6499938964844 453.9400024414062 8.560000419616699
264.7000122070312 453.8900146484375 9.970000267028809
265.739990234375 454.1799926757812 10.8100004196167
265.2799987792969 454.0599975585938 10.68000030517578
266.3399963378906 454.2999877929688 11.10999965667725
265.7900085449219 454.1199951171875 12.19999980926514
266.8200073242188 454.3900146484375 10.4399995803833
265.260009765625 454.0700073242188 8.460000038146973
267.2900085449219 454.5599975585938 7.090000152587891
265.7099914550781 454.1900024414062 8.689999580383301
266.8099975585938 454.4500122070312 8.859999656677246
266.3200073242188 454.2799987792969 12.52999973297119
267.8299865722656 454.7000122070312 8.529999732971191
268.3900146484375 454.8399963378906 8.069999694824219
268.3999938964844 454.8399963378906 9.460000038146973
266.2699890136719 454.3200073242188 7.119999885559082
267.8900146484375 454.6900024414062 10.21000003814697
267.3599853515625 454.5199890136719 11.27000045776367
267.8599853515625 454.6700134277344 11.52999973297119
268.9299926757812 454.8999938964844 12.03999996185303
268.4299926757812 454.7799987792969 11.44999980926514
267.8999938964844 454.6300048828125 12.75
268.9400024414062 454.9400024414062 10.5
268.8800048828125 454.9700012207031 7.920000076293945
269.4599914550781 455.1000061035156 8.430000305175781
269.5199890136719 455.0400085449219 12.01000022888184
266.8399963378906 454.4100036621094 11.4399995803833
269.4599914550781 455.0899963378906 7.309999942779541
267.3500061035156 454.5599975585938 9.979999542236328
265.9400024414062 453.489990234375 11.10999965667725
265.9200134277344 453.510009765625 9.189999580383301
265.3900146484375 453.3900146484375 9.090000152587891
266.4800109863281 453.6499938964844 8.579999923706055
267.5499877929688 453.8800048828125 9.810000419616699
266.9800109863281 453.760009765625 9.159999847412109
266.510009765625 453.6099853515625 10.72999954223633
267.9800109863281 454.0299987792969 7.400000095367432
268.5299987792969 454.1300048828125 10.38000011444092
268.0400085449219 454 10.0600004196167
267.5400085449219 453.8399963378906 11.05000019073486
267.5 453.8999938964844 8.600000381469727
269.0799865722656 454.2099914550781 10.97000026702881
269.0400085449219 454.2799987792969 7.599999904632568
268.5199890136719 454.1400146484375 8.710000038146973
267.989990234375 453.989990234375 8.170000076293945
267.5299987792969 453.9100036621094 7.179999828338623
269.1199951171875 454.2300109863281 11.85000038146973
268.0299987792969 453.9599914550781 11.52999973297119
269.0599975585938 454.25 9.079999923706055
267.0199890136719 453.7300109863281 10.64000034332275
269.5700073242188 454.4200134277344 7.519999980926514
267.0899963378906 452.9299926757812 11.60000038146973
267.6400146484375 453.0899963378906 11.72000026702881
267.0700073242188 452.9700012207031 9.609999656677246
267.5799865722656 453.1199951171875 9.640000343322754
267.0599975585938 452.9599914550781 10.38000011444092
267.0599975585938 452.9599914550781 8.789999961853027
268.1099853515625 453.2699890136719 7.420000076293945
268.7000122070312 453.3699951171875 10.02000045776367
269.2200012207031 453.5199890136719 8.960000038146973
268.1300048828125 453.25 9.300000190734863
268.1600036621094 453.2200012207031 10.10000038146973
268.1199951171875 452.5299987792969 9.609999656677246
268.6900024414062 452.7099914550781 7.699999809265137
269.1400146484375 452.8299865722656 7.710000038146973
267.6099853515625 452.4299926757812 9.960000038146973
269.989990234375 458.4800109863281 10.22999954223633
270.1000061035156 457.8999938964844 9.670000076293945
270.1300048828125 457.8800048828125 11.01000022888184
270.6499938964844 458.0599975585938 10.14000034332275
269.7200012207031 457.1799926757812 9.239999771118164
269.739990234375 457.2200012207031 8.550000190734863
269.7000122070312 457.1900024414062 7.789999961853027
270.1900024414062 457.3200073242188 9.159999847412109
270.7699890136719 457.4500122070312 7.21999979019165
270.2200012207031 457.2699890136719 10.8100004196167
269.6900024414062 457.2300109863281 7.199999809265137
270.2200012207031 457.3399963378906 7.210000038146973
269.760009765625 457.1799926757812 10.52000045776367
269.760009765625 457.1499938964844 11.90999984741211
270.3599853515625 456.6600036621094 7.760000228881836
269.8599853515625 456.5 7.409999847412109
270.9400024414062 456.7699890136719 7.090000152587891
270.9400024414062 456.7900085449219 8.229999542236328
271.4700012207031 456.9200134277344 7.610000133514404
269.8800048828125 456.4500122070312 11.90999984741211
269.8999938964844 455.8200073242188 9.539999961853027
269.8999938964844 455.7799987792969 11.98999977111816
269.8900146484375 455.8800048828125 6.949999809265137
269.8999938964844 455.8500061035156 8.159999847412109
270.9700012207031 456.1199951171875 8.130000114440918
270.9599914550781 456.0799865722656 9.159999847412109
270.9299926757812 456.1000061035156 7.21999979019165
271.4200134277344 456.2300109863281 8.300000190734863
270.3999938964844 455.9500122070312 8.140000343322754
270.0400085449219 455.1799926757812 10.42000007629395
270 455.2000122070312 8.649999618530273
270.5599975585938 455.3399963378906 8.760000228881836
270.0199890136719 455.1799926757812 12.11999988555908
271.0499877929688 455.4800109863281 8.899999618530273
271.5799865722656 455.6000061035156 8.829999923706055
270.1099853515625 454.5299987792969 8.789999961853027
270.6700134277344 454.6199951171875 9.300000190734863
270.6300048828125 454.6600036621094 8.590000152587891
271.1600036621094 454.739990234375 9.489999771118164
270.6300048828125 454.6499938964844 7.409999847412109
270.1000061035156 454.510009765625 7.059999942779541
269.7699890136719 453.6600036621094 7.869999885559082
270.2999877929688 453.7999877929688 7.889999866485596
269.7200012207031 453.2200012207031 8.279999732971191
268.3800048828125 452.8999938964844 7.619999885559082
267.8800048828125 452.8299865722656 9.689999580383301
267.4500122070312 452.75 10.25
268.9500122070312 453.8999938964844 8.479999542236328
268.1000061035156 453.7000122070312 7.639999866485596
268.6000061035156 453.7999877929688 7.360000133514404
268.1099853515625 453.739990234375 11.59000015258789
268.2000122070312 453.75 9.899999618530273
267.5499877929688 453.5799865722656 9.800000190734863
269.0700073242188 453.989990234375 10.94999980926514
267.4100036621094 453.6000061035156 11.27999973297119
267.0700073242188 453.4700012207031 10.0600004196167
267.2000122070312 453.5 8.560000419616699
269.7699890136719 454.1099853515625 7.5
266.9100036621094 453.4599914550781 11.52000045776367
268.7799987792969 453.8699951171875 9.960000038146973
265.5199890136719 453.0899963378906 9.010000228881836
266.6300048828125 453.3699951171875 10.72000026702881
268.4200134277344 453.7699890136719 8.810000419616699
269.7300109863281 455.010009765625 8.600000381469727
269.1400146484375 454.8699951171875 10.51000022888184
269.3599853515625 454.8900146484375 7.340000152587891
269.5400085449219 454.9700012207031 11.78999996185303
268.3999938964844 454.6600036621094 8.109999656677246
269.6199951171875 455 10.21000003814697
268.260009765625 454.6499938964844 9.5
268.7300109863281 454.7900085449219 10.92000007629395
267.989990234375 454.5899963378906 10.47000026702881
267.5499877929688 454.4800109863281 8.939999580383301
269.2099914550781 454.8999938964844 12.52999973297119
267.3599853515625 454.4299926757812 10.17000007629395
267.1499938964844 454.3900146484375 11.47000026702881
268.9200134277344 454.7799987792969 7.920000076293945
268.2699890136719 454.6900024414062 11.39999961853027
265.8099975585938 454.0799865722656 9.039999961853027
267.760009765625 454.5499877929688 11.53999996185303
267.5700073242188 454.4400024414062 7.289999961853027
266.9400024414062 454.3299865722656 8.779999732971191
266.1900024414062 454.1300048828125 8.340000152587891
268.5899963378906 454.7799987792969 12.31999969482422
267.489990234375 454.5299987792969 12.64999961853027
266.4400024414062 454.2200012207031 10.96000003814697
264.6400146484375 453.7999877929688 9
265.7999877929688 454.0799865722656 10.94999980926514
266.260009765625 454.2099914550781 12.4399995803833
268.7300109863281 454.7799987792969 9.229999542236328
264.9700012207031 453.8599853515625 10.03999996185303
266.7799987792969 454.2900085449219 10.32999992370605
265.1499938964844 453.8900146484375 8.909999847412109
269.4500122070312 455.7300109863281 8.270000457763672
269.6300048828125 455.7900085449219 10.84000015258789
268.9200134277344 455.6300048828125 10.34000015258789
268.7799987792969 455.5700073242188 8.050000190734863
268.6799926757812 455.6099853515625 13.27999973297119
269.4200134277344 455.7699890136719 11.96000003814697
268.3299865722656 455.4700012207031 10.31999969482422
268.0799865722656 455.4700012207031 13.44999980926514
268.2999877929688 455.4400024414062 8.310000419616699
267.239990234375 455.239990234375 10.72999954223633
266.2699890136719 454.9299926757812 7.550000190734863
268.1499938964844 455.4700012207031 11.57999992370605
266.6400146484375 455.0899963378906 10.44999980926514
265.6000061035156 454.8099975585938 9.239999771118164
266.9800109863281 455.1499938964844 11.5600004196167
265.9800109863281 454.8800048828125 8.409999847412109
268.7999877929688 455.6000061035156 11.77000045776367
265.3599853515625 454.739990234375 8.470000267028809
264.8099975585938 454.6300048828125 10.52000045776367
267.75 455.3299865722656 8.489999771118164
267.6400146484375 455.3299865722656 11.97999954223633
265.2200012207031 454.7099914550781 9.909999847412109
267.5 455.3299865722656 13.32999992370605
267.0899963378906 455.1400146484375 8.140000343322754
266.2799987792969 455.0199890136719 11.34000015258789
265.6000061035156 454.8099975585938 11.07999992370605
265.9200134277344 454.9100036621094 12.14999961853027
269.0499877929688 456.2999877929688 7.989999771118164
269.5599975585938 456.489990234375 11.64000034332275
269.6300048828125 456.4800109863281 8.090000152587891
268.3200073242188 456.1499938964844 7.760000228881836
268.3999938964844 456.1900024414062 9.800000190734863
268.989990234375 456.3099975585938 9.810000419616699
267.5400085449219 455.9700012207031 10.77999973297119
267.5700073242188 456.010009765625 12.72999954223633
268.0400085449219 456.1400146484375 12.31999969482422
265.9599914550781 455.5599975585938 7.579999923706055
269.4400024414062 456.4100036621094 7.449999809265137
268.7099914550781 456.2999877929688 12.6899995803833
267.1799926757812 455.9200134277344 13.15999984741211
265.2699890136719 455.4100036621094 9.050000190734863
266.3500061035156 455.6900024414062 10.57999992370605
266.7799987792969 455.7799987792969 10.19999980926514
268.0299987792969 456.1199951171875 10.63000011444092
265.5199890136719 455.5400085449219 11.72999954223633
267.1199951171875 455.8599853515625 9.340000152587891
266.3399963378906 455.6700134277344 8.779999732971191
265.8599853515625 455.5499877929688 9.010000228881836
265.9700012207031 455.6300048828125 11.26000022888184
268.760009765625 456.260009765625 11.05000019073486
264.510009765625 455.239990234375 10.44999980926514
265.0199890136719 455.3999938964844 12.07999992370605
264.1499938964844 455.1799926757812 9.329999923706055
264.739990234375 456.0299987792969 12.28999996185303
264.2000122070312 455.8800048828125 10.5600004196167
269.75 457.2099914550781 7.570000171661377
269.0599975585938 457.0700073242188 9.149999618530273
269.2699890136719 457.0599975585938 7.739999771118164
269.4800109863281 457.1300048828125 10.4399995803833
268.4800109863281 456.8800048828125 9.020000457763672
267.0899963378906 456.489990234375 4.539999961853027
269.6499938964844 457.2000122070312 9.100000381469727
268.9400024414062 457.0199890136719 10.46000003814697
268.2099914550781 456.8599853515625 12
266.7699890136719 456.4599914550781 7.349999904632568
269.2699890136719 457.1499938964844 11.64999961853027
267.6499938964844 456.7099914550781 8.369999885559082
268.25 456.8399963378906 10.28999996185303
267.3299865722656 456.6900024414062 12.82999992370605
267.2900085449219 456.6499938964844 10.85000038146973
268.6600036621094 456.9500122070312 11.5600004196167
266.0700073242188 456.3399963378906 8.770000457763672
267.6099853515625 456.6900024414062 10.0600004196167
266.5 456.4299926757812 10.14999961853027
269.0199890136719 457.0899963378906 12.77999973297119
265.9500122070312 456.3299865722656 10.44999980926514
264.7799987792969 456.0299987792969 10.36999988555908
268.7000122070312 456.9400024414062 7.820000171661377
267.8299865722656 456.8200073242188 12.60999965667725
266.3699951171875 456.3599853515625 7.869999885559082
267.0700073242188 456.5199890136719 6.389999866485596
265 456.0700073242188 9.189999580383301
265.2099914550781 456.1400146484375 11.84000015258789
265.510009765625 456.1900024414062 10.8100004196167
266.4100036621094 457.1600036621094 9.239999771118164
266.1300048828125 457.0799865722656 8.229999542236328
266.8699951171875 457.260009765625 10.68000030517578
266.4299926757812 457.1600036621094 11.09000015258789
266.8200073242188 457.260009765625 12.25
266.4400024414062 457.1799926757812 12.85000038146973
265.6600036621094 456.9500122070312 10.39000034332275
267.1300048828125 457.3599853515625 11.55000019073486
265.8500061035156 457.010009765625 7.449999809265137
264.4500122070312 456.7000122070312 10.31999969482422
266.1300048828125 457.0799865722656 10.10999965667725
264.2799987792969 456.6799926757812 11.64999961853027
267.3999938964844 457.4200134277344 12.27999973297119
263.8900146484375 456.5400085449219 10.3100004196167
265.0400085449219 456.8299865722656 12.21000003814697
265.1300048828125 456.8299865722656 10.52000045776367
265.1600036621094 456.8200073242188 8.739999771118164
263.8200073242188 456.5400085449219 12.05000019073486
269.489990234375 457.8699951171875 7.650000095367432
269.4700012207031 457.8800048828125 9.430000305175781
268.2300109863281 457.5899963378906 9.350000381469727
268.8200073242188 457.739990234375 9.310000419616699
267.0799865722656 457.2900085449219 7.610000133514404
268.0899963378906 457.5700073242188 12.8100004196167
267.739990234375 457.4400024414062 9.720000267028809
268.25 457.6199951171875 11.28999996185303
267.3200073242188 457.3999938964844 10.36999988555908
267.4299926757812 457.3800048828125 8.590000152587891
266.4700012207031 457.1499938964844 7.599999904632568
269.739990234375 458.5700073242188 9.109999656677246
268.4800109863281 458.25 10.57999992370605
268.6900024414062 458.3399963378906 11.28999996185303
268.75 458.3099975585938 9.449999809265137
267.7000122070312 458.0599975585938 9.920000076293945
267.75 458.1199951171875 11.90999984741211
267.5599975585938 458.0299987792969 7.639999866485596
268.8900146484375 458.3099975585938 8.090000152587891
267.9800109863281 458.1700134277344 12.60999965667725
268.1300048828125 458.1600036621094 9.449999809265137
266.7000122070312 457.8399963378906 10.38000011444092
265.9599914550781 457.6499938964844 9.75
265.9599914550781 457.6300048828125 8.010000228881836
267.3399963378906 458 12.57999992370605
265.4299926757812 457.510009765625 8.069999694824219
265.5299987792969 457.5400085449219 10.5
269.3299865722656 458.4200134277344 9.449999809265137
267.3599853515625 458.010009765625 10.63000011444092
264.2799987792969 457.2200012207031 8.289999961853027
264.7799987792969 457.3999938964844 10.01000022888184
263.7799987792969 457.0899963378906 8.640000343322754
264.8999938964844 457.3800048828125 8.340000152587891
263.7000122070312 457.1600036621094 12.22000026702881
266.3800048828125 457.760009765625 9.510000228881836
265.1799926757812 457.4700012207031 11.17000007629395
267.3500061035156 457.9599914550781 8.779999732971191
264.2300109863281 457.25 12
264.5599975585938 457.3299865722656 11.15999984741211
269.4599914550781 459.0499877929688 10.57999992370605
269.0400085449219 458.8999938964844 9.319999694824219
267.989990234375 458.6400146484375 7.900000095367432
268.4200134277344 458.75 9.310000419616699
267.0400085449219 458.4500122070312 8.630000114440918
267.3699951171875 458.4800109863281 7.710000038146973
267.7999877929688 458.5899963378906 7.230000019073486
267.8500061035156 458.6300048828125 9.25
266.5199890136719 458.2799987792969 6.929999828338623
269.6199951171875 459.0400085449219 9.210000038146973
266.1700134277344 458.25 9.640000343322754
266.3299865722656 458.2799987792969 10.26000022888184
266.760009765625 458.3699951171875 7.710000038146973
265.3599853515625 458.010009765625 7.159999847412109
265.3500061035156 458.0700073242188 10.72000026702881
264.7099914550781 457.8699951171875 8.659999847412109
266.989990234375 458.4299926757812 10.42000007629395
268.6000061035156 458.8099975585938 7.909999847412109
263.6099853515625 457.6000061035156 8.800000190734863
265.2200012207031 457.989990234375 8.479999542236328
263.1400146484375 457.5 9.260000228881836
266.0700073242188 458.1700134277344 7.349999904632568
265.6600036621094 458.1099853515625 8.060000419616699
267.5400085449219 458.5599975585938 10.11999988555908
265.7000122070312 458.1400146484375 9.930000305175781
264.7900085449219 457.9400024414062 10.77000045776367
264.010009765625 457.6900024414062 8.199999809265137
269.3999938964844 459.6300048828125 9.420000076293945
269.2000122070312 459.5799865722656 10.40999984741211
267.3299865722656 459.1000061035156 8.010000228881836
268.3599853515625 459.3299865722656 7.710000038146973
266.8699951171875 459.010009765625 10.32999992370605
268.7699890136719 459.4700012207031 9.149999618530273
266.239990234375 458.8599853515625 10.32999992370605
268.2000122070312 459.3099975585938 9.229999542236328
266.9800109863281 459.0199890136719 8.949999809265137
265.7799987792969 458.739990234375 10.64000034332275
265.4500122070312 458.6700134277344 7.920000076293945
265.239990234375 458.6300048828125 10.76000022888184
265.0599975585938 458.5700073242188 8.270000457763672
264.1900024414062 458.3599853515625 9.300000190734863
264.6300048828125 458.4500122070312 8.890000343322754
267.1499938964844 459.739990234375 8.350000381469727
266.4700012207031 459.5799865722656 8
267.75 459.8999938964844 8.310000419616699
265.2900085449219 459.3099975585938 8.100000381469727
264.8099975585938 459.2000122070312 8.449999809265137
264.3200073242188 459.0799865722656 8.869999885559082
266.75 459.6700134277344 8.920000076293945
264.0199890136719 459.0299987792969 9.579999923706055
264.7799987792969 459.8500061035156 8.680000305175781
265.2799987792969 459.9700012207031 8.470000267028809
270.760009765625 454.3399963378906 8.770000457763672
270.489990234375 454.2900085449219 9.819999694824219
271.0899963378906 454.4500122070312 9.779999732971191
270.2099914550781 454.2099914550781 8.909999847412109
271.6700134277344 455.4800109863281 9.189999580383301
270.4299926757812 455.1600036621094 8.949999809265137
269.9100036621094 455 7.269999980926514
271.0299987792969 455.3200073242188 8.939999580383301
271.2099914550781 456.1199951171875 8.380000114440918
270.1400146484375 455.8500061035156 6.670000076293945
269.989990234375 455.8299865722656 8.270000457763672
270.8200073242188 456.0499877929688 7.139999866485596
269.9400024414062 455.8999938964844 11.88000011444092
269.8800048828125 455.8200073242188 9.659999847412109
270.6600036621094 455.989990234375 8.380000114440918
270.0199890136719 456.5400085449219 7.309999942779541
271.2099914550781 456.8399963378906 7.340000152587891
270.2000122070312 456.5700073242188 8.020000457763672
270.5799865722656 456.6799926757812 7.230000019073486
270.1300048828125 457.3299865722656 10.64000034332275
270.7799987792969 457.4100036621094 7.269999980926514
270.1600036621094 457.260009765625 7.070000171661377
269.8800048828125 458 10.89999961853027
270.2900085449219 458.0599975585938 10.14000034332275
270.0199890136719 457.9800109863281 9.300000190734863
270.0899963378906 458.6199951171875 10.22999954223633
263.1099853515625 457.3299865722656 9.189999580383301
263.760009765625 457.489990234375 8.670000076293945
264.1199951171875 458.8699951171875 9.199999809265137
264.0199890136719 458.5899963378906 9.989999771118164
263.9299926757812 456.1300048828125 10.72000026702881
264.1600036621094 457.1400146484375 11.85999965667725
264.0299987792969 456.5 10.14999961853027
264.3399963378906 457.6700134277344 8.340000152587891
264.1499938964844 457.0799865722656 9.970000267028809
264.2900085449219 457.489990234375 9.520000457763672
264.8299865722656 459.510009765625 8.489999771118164
264.3599853515625 457.8099975585938 10.43000030517578
264.2200012207031 457.1300048828125 8.479999542236328
264.6499938964844 458.989990234375 8.710000038146973
264.9700012207031 460.1400146484375 8.550000190734863
264.5199890136719 458.4599914550781 8.850000381469727
264.2900085449219 457.5899963378906 11.39000034332275
264.4200134277344 455.6799926757812 10.47000026702881
264.6400146484375 456.6300048828125 9.680000305175781
264.3099975585938 455.2200012207031 9.100000381469727
264.4400024414062 455.7900085449219 8.960000038146973
264.8599853515625 457.3200073242188 8.210000038146973
264.6300048828125 456.6499938964844 11.47000026702881
265.0799865722656 458.2799987792969 10.82999992370605
264.2300109863281 454.8699951171875 8.060000419616699
264.5799865722656 456.2900085449219 10.35999965667725
264.8099975585938 457.3299865722656 9.939999580383301
264.7300109863281 456.9800109863281 10.71000003814697
265.0499877929688 458.0700073242188 8.630000114440918
265.3099975585938 458.989990234375 7.949999809265137
265.1900024414062 458.6700134277344 10.32999992370605
265.1700134277344 458.5299987792969 8.239999771118164
264.6799926757812 454.1199951171875 9.930000305175781
264.6199951171875 453.7999877929688 9.039999961853027
264.739990234375 454.4200134277344 10.81999969482422
264.75 456.8599853515625 6.800000190734863
265.1799926757812 456.239990234375 11.14000034332275
265.0799865722656 455.9599914550781 11.88000011444092
265.2900085449219 456.6799926757812 10.69999980926514
264.8399963378906 454.7699890136719 10.21000003814697
265.4500122070312 457.1400146484375 10.3100004196167
264.9500122070312 455.2300109863281 9.899999618530273
265.2699890136719 456.2900085449219 7.900000095367432
265.3800048828125 456.6600036621094 7.320000171661377
265.5899963378906 457.7900085449219 10.5
265.25 456.6199951171875 12.09000015258789
264.9599914550781 455.4100036621094 12.06999969482422
265.1300048828125 455.8999938964844 8.479999542236328
265.6099853515625 457.6300048828125 8.270000457763672
265.489990234375 457.1499938964844 8.649999618530273
264.7200012207031 454.1700134277344 8.479999542236328
265.7200012207031 458.1799926757812 9.840000152587891
265.2300109863281 456.3200073242188 9.770000457763672
265.739990234375 458.1000061035156 7.940000057220459
265.4500122070312 455.1000061035156 12
265.3699951171875 454.7000122070312 10.86999988555908
265.2000122070312 453.8699951171875 8.550000190734863
265.3699951171875 454.3800048828125 8.399999618530273
265.7300109863281 455.9599914550781 11.11999988555908
265.8399963378906 456.3699951171875 10.51000022888184
265.9700012207031 457.0400085449219 10.77000045776367
265.1199951171875 453.4299926757812 9.060000419616699
265.4700012207031 454.8399963378906 9.659999847412109
