471.4400024414062 177.8600006103516 7.699999809265137
472.1600036621094 177.6799926757812 7.369999885559082
472.7999877929688 177.4900054931641 7.420000076293945
470.8099975585938 177.9900054931641 7.599999904632568
472.1099853515625 178.3899993896484 7.110000133514404
472.3800048828125 178.3300018310547 6.429999828338623
473.3399963378906 178.0800018310547 7.230000019073486
471.7699890136719 178.4199981689453 8.079999923706055
472.2799987792969 178.3000030517578 8.319999694824219
472.760009765625 178.2100067138672 8.770000457763672
473.5899963378906 177.9700012207031 8.140000343322754
471.2999877929688 178.5899963378906 7.550000190734863
473.1700134277344 178.1000061035156 9.390000343322754
471.9200134277344 179.1399993896484 8.659999847412109
473.1700134277344 178.8200073242188 8.810000419616699
473.7000122070312 178.7100067138672 7.380000114440918
472.5499877929688 179 8.569999694824219
473.3500061035156 178.8200073242188 6.420000076293945
473.4599914550781 178.7700042724609 9.779999732971191
474.0899963378906 178.6100006103516 8.020000457763672
473.1900024414062 179.1699981689453 8.789999961853027
473.760009765625 179.0200042724609 8.970000267028809
472.6400146484375 179.3300018310547 9.039999961853027
473.8800048828125 179.0099945068359 7.869999885559082
472.5299987792969 179.3300018310547 10.0600004196167
471.8500061035156 178.7400054931641 6.659999847412109
471.2300109863281 178.8899993896484 7.809999942779541
473.5 178.3300018310547 8.220000267028809
473.6099853515625 178.3099975585938 6.559999942779541
473 178.4400024414062 6.760000228881836
472.5 178.5899963378906 6.610000133514404
472.5599975585938 177.8800048828125 8.520000457763672
473.260009765625 177.6799926757812 7.349999904632568
472.0199890136719 177.9900054931641 8.239999771118164
471.5299987792969 178.1399993896484 6.929999828338623
470.8900146484375 178.2700042724609 7.960000038146973
471.4800109863281 178.1699981689453 7.639999866485596
471.9200134277344 178.0599975585938 9.399999618530273
471.9299926757812 177.4600067138672 6.889999866485596
472.5400085449219 177.2799987792969 7.130000114440918
471.3299865722656 177.6100006103516 7.610000133514404
473.0199890136719 177.5 6.949999809265137
472.3800048828125 177.6699981689453 6.739999771118164
472.2099914550781 177.6600036621094 8.729999542236328
471.4700012207031 177.8699951171875 7.849999904632568
472.5899963378906 177.5800018310547 7.75
471.4400024414062 178.5500030517578 7.639999866485596
472.8299865722656 178.2299957275391 8.449999809265137
473.3099975585938 178.1100006103516 8.010000228881836
473.0199890136719 178.1999969482422 6.570000171661377
472.1700134277344 178.3600006103516 8.289999961853027
470.8999938964844 178.7200012207031 7.590000152587891
473.6900024414062 178.0299987792969 6.829999923706055
471.9400024414062 178.4400024414062 7.099999904632568
471.6700134277344 178.4900054931641 8.75
473.1300048828125 178.7799987792969 6.730000019073486
473.8999938964844 178.5800018310547 7.579999923706055
473.5199890136719 178.6699981689453 8.710000038146973
471.9400024414062 179.0700073242188 6.800000190734863
472.3299865722656 178.9400024414062 8.840000152587891
472.75 178.8699951171875 7.820000171661377
473.7300109863281 178.6499938964844 6.579999923706055
472.9800109863281 178.7799987792969 9.010000228881836
473.6199951171875 179.3500061035156 6.420000076293945
472.8800048828125 179.5099945068359 8.680000305175781
472.5199890136719 179.6199951171875 9.5
472.1400146484375 177.2299957275391 7
472.8900146484375 177.8000030517578 6.829999923706055
472.1499938964844 178.0200042724609 8.329999923706055
472.7300109863281 177.8500061035156 9.619999885559082
471.6900024414062 178.1100006103516 7.400000095367432
473.5299987792969 178.3699951171875 7.929999828338623
473.1099853515625 178.5 8.640000343322754
472.5700073242188 178.6300048828125 7.619999885559082
472.8299865722656 178.5599975585938 6.5
472.2099914550781 178.6699981689453 6.840000152587891
472.4400024414062 178.6799926757812 8.640000343322754
472.1799926757812 178.7200012207031 9.729999542236328
472.989990234375 178.5500030517578 9.859999656677246
473.5400085449219 178.3300018310547 6.670000076293945
471.3500061035156 178.9199981689453 7.929999828338623
473.6300048828125 178.8999938964844 6.489999771118164
473.3399963378906 179.0500030517578 8.800000190734863
472.6000061035156 179.1999969482422 8.800000190734863
472.5199890136719 179.2599945068359 10.07999992370605
472.1700134277344 179.3300018310547 9.439999580383301
472.6199951171875 177.0399932861328 7.25
472.6700134277344 177.6600036621094 7.610000133514404
472.1600036621094 177.5599975585938 7.239999771118164
473.489990234375 177.8600006103516 7.210000038146973
473.8200073242188 177.9700012207031 8.159999847412109
473.7200012207031 178.6499938964844 10.31999969482422
472.5700073242188 178.3399963378906 8.350000381469727
470.9200134277344 177.8899993896484 7.570000171661377
473.1199951171875 178.4600067138672 6.929999828338623
473.5199890136719 178.5399932861328 7.389999866485596
471.5299987792969 178.0399932861328 7.710000038146973
472.0599975585938 178.1999969482422 8.130000114440918
472.6199951171875 178.3300018310547 6.460000038146973
473.0400085449219 178.4299926757812 8.789999961853027
473.5299987792969 179.3200073242188 9.859999656677246
472.0599975585938 178.9600067138672 8.689999580383301
472.7000122070312 179.1100006103516 8.670000076293945
471.1499938964844 178.7100067138672 7.539999961853027
471.4100036621094 178.75 6.730000019073486
473.3200073242188 179.2700042724609 8.75
472.2300109863281 179.6100006103516 9
472.010009765625 179.5599975585938 9.609999656677246
472.5700073242188 179.7200012207031 9.800000190734863
472.6000061035156 177.0399932861328 7.239999771118164
472.1199951171875 177.6399993896484 8.859999656677246
472.25 177.6900024414062 7.25
473.3800048828125 177.9299926757812 7.28000020980835
473.9100036621094 178.0500030517578 8.100000381469727
474.0599975585938 178.1300048828125 6.590000152587891
472.7699890136719 177.8099975585938 7.869999885559082
470.9100036621094 177.9499969482422 7.610000133514404
472.0499877929688 178.2400054931641 7.170000076293945
472.5700073242188 178.3399963378906 7.809999942779541
473.0799865722656 178.4499969482422 8.840000152587891
471.8999938964844 178.1900024414062 8.569999694824219
471.3900146484375 178.0899963378906 7.730000019073486
472.6799926757812 178.3999938964844 6.619999885559082
473.260009765625 178.5099945068359 6.860000133514404
472.510009765625 178.3099975585938 8.619999885559082
473.5400085449219 178.5599975585938 9.630000114440918
474.3200073242188 178.7899932861328 8.180000305175781
473.7099914550781 178.6199951171875 7.599999904632568
471.3800048828125 178.7700042724609 6.630000114440918
472.9299926757812 179.0899963378906 8.079999923706055
473.4400024414062 179.2100067138672 8.840000152587891
472.8599853515625 179.0700073242188 8.960000038146973
471.9400024414062 178.8899993896484 6.75
471.3299865722656 178.7200012207031 7.71999979019165
472.3299865722656 178.9299926757812 8.739999771118164
472.489990234375 179.7400054931641 9.729999542236328
471.5899963378906 179.5399932861328 6.949999809265137
472.6000061035156 177.2100067138672 7.159999847412109
473.5599975585938 178.1399993896484 8.130000114440918
473.8200073242188 178.1699981689453 6.489999771118164
473.1799926757812 178.0500030517578 9.319999694824219
472.6300048828125 177.8800048828125 6.730000019073486
471.9500122070312 177.7400054931641 9
474.1199951171875 178.2799987792969 7.800000190734863
472.2099914550781 177.7799987792969 7.360000133514404
473.3200073242188 178.0599975585938 6.949999809265137
471.7099914550781 177.6900024414062 7.670000076293945
472.5499877929688 177.8899993896484 8.939999580383301
472.9299926757812 178.7899932861328 6.570000171661377
472.5899963378906 178.6900024414062 7.760000228881836
472.010009765625 178.5599975585938 7.769999980926514
472.2699890136719 178.6199951171875 8.960000038146973
471.6000061035156 178.4600067138672 8.75
471.8299865722656 178.5399932861328 6.920000076293945
472.3399963378906 178.6499938964844 6.610000133514404
473.7900085449219 179 7.769999980926514
472.9299926757812 178.8300018310547 9.409999847412109
471.3500061035156 178.3899993896484 7.619999885559082
470.8099975585938 178.3000030517578 8.039999961853027
473.3099975585938 178.8899993896484 8.460000038146973
473.4800109863281 178.8999938964844 6.360000133514404
471.1499938964844 179.0800018310547 7.739999771118164
472.8900146484375 179.5399932861328 7.949999809265137
472.5199890136719 179.4400024414062 8.939999580383301
472.1099853515625 179.3600006103516 9.489999771118164
473.9599914550781 177.9900054931641 8.060000419616699
472.5599975585938 177.6699981689453 6.639999866485596
473.4200134277344 177.8800048828125 6.929999828338623
472.2099914550781 177.5800018310547 8.789999961853027
471.9700012207031 177.5200042724609 6.800000190734863
474.010009765625 178.0200042724609 6.570000171661377
472.4200134277344 177.6100006103516 7.820000171661377
473.1099853515625 178.3999938964844 9.159999847412109
471.2099914550781 177.9499969482422 8.039999961853027
471.8999938964844 178.0800018310547 9.579999923706055
472.6000061035156 178.3200073242188 8.130000114440918
473.7300109863281 178.5700073242188 7.619999885559082
472.75 178.3500061035156 6.920000076293945
473.1199951171875 178.4700012207031 6.380000114440918
471.010009765625 178.5800018310547 7.820000171661377
472.2200012207031 178.8600006103516 8.880000114440918
473.4599914550781 179.1799926757812 8.579999923706055
473.8099975585938 179.2899932861328 6.369999885559082
471.6099853515625 178.7299957275391 7.619999885559082
472.5299987792969 179.6499938964844 9.600000381469727
471.1099853515625 178.6799926757812 7.579999923706055
471.2099914550781 179.1000061035156 8.5
471.5899963378906 177.8399963378906 8.180000305175781
471.75 178.3099975585938 7.75
471.8099975585938 178.6399993896484 6.949999809265137
472.6099853515625 179.1600036621094 8.75
472.3599853515625 178.2200012207031 8.310000419616699
472.2799987792969 177.8099975585938 8.880000114440918
472.4800109863281 178.5399932861328 7.46999979019165
472.5199890136719 178.6999969482422 6.46999979019165
472.9200134277344 177.9400024414062 7.070000171661377
473.1199951171875 178.8099975585938 8.670000076293945
473.0499877929688 178.5200042724609 6.75
472.7099914550781 177.2700042724609 7.070000171661377
473.739990234375 178.5899963378906 7.71999979019165
473.6000061035156 178.0700073242188 8.189999580383301
473.7799987792969 178.7700042724609 6.75
474.0799865722656 178.4400024414062 7.789999961853027
473.9700012207031 177.9799957275391 8.239999771118164
473.6000061035156 179.1399993896484 8.539999961853027
473.4599914550781 178.7299957275391 6.75
473.489990234375 178.6100006103516 8.989999771118164
473.5599975585938 178.7899932861328 9.779999732971191
473.239990234375 177.7700042724609 7.880000114440918
473.3599853515625 178.1199951171875 9.390000343322754
473.5700073242188 179.2700042724609 6.349999904632568
473.6900024414062 179.4700012207031 9.920000076293945
473.3900146484375 178.3600006103516 8.069999694824219
473.3099975585938 178.1000061035156 6.940000057220459
472.6300048828125 178.3699951171875 8.170000076293945
472.9100036621094 179.4499969482422 7.980000019073486
472.6700134277344 178.5 6.519999980926514
472.8399963378906 179.0099945068359 8.590000152587891
472.5299987792969 178.0099945068359 6.75
472.510009765625 177.8399963378906 8.699999809265137
471.8900146484375 178.2700042724609 8.430000305175781
471.8500061035156 178.0399932861328 7.599999904632568
471.8299865722656 177.8899993896484 9.619999885559082
472.0700073242188 178.9100036621094 8.930000305175781
471.9200134277344 178.5 6.96999979019165
471.2900085449219 178.5200042724609 7.619999885559082
471.1499938964844 177.8600006103516 7.730000019073486
473.8399963378906 178.5299987792969 7.590000152587891
473.6499938964844 177.9499969482422 8.319999694824219
473.9800109863281 179.1000061035156 7.909999847412109
473.2000122070312 178.8800048828125 8.539999961853027
473.3500061035156 179.4400024414062 8.819999694824219
473.1199951171875 178.3500061035156 6.78000020980835
472.3399963378906 177.5200042724609 7.03000020980835
472.7000122070312 179.1000061035156 8.659999847412109
472.6099853515625 178.6399993896484 7.420000076293945
472.4200134277344 177.9400024414062 8.430000305175781
472 178.9600067138672 6.679999828338623
471.7000122070312 177.75 7.550000190734863
472.1000061035156 179.3999938964844 9.489999771118164
471.8099975585938 178.2899932861328 8.420000076293945
471.8500061035156 178.3200073242188 7.420000076293945
471.239990234375 178.6499938964844 7.690000057220459
471.0899963378906 178.0399932861328 7.71999979019165
474.239990234375 178.8300018310547 8.319999694824219
474.1199951171875 178.3500061035156 7.920000076293945
473.489990234375 178.7200012207031 9.689999580383301
473.6000061035156 179.0299987792969 8.75
473.4700012207031 178.4600067138672 6.489999771118164
473.6199951171875 179.3200073242188 9.899999618530273
473.3399963378906 177.9900054931641 7.900000095367432
473.4100036621094 178.3600006103516 8.829999923706055
473.239990234375 177.6999969482422 6.949999809265137
472.8999938964844 178.6600036621094 8.670000076293945
472.739990234375 178.0599975585938 8.659999847412109
472.8900146484375 178.5700073242188 7.119999885559082
472.9400024414062 178.8899993896484 9.970000267028809
473.0400085449219 179.2400054931641 8.909999847412109
472.7699890136719 178.1199951171875 6.53000020980835
473.1400146484375 179.5500030517578 7.989999771118164
472.6900024414062 177.75 7.619999885559082
472.5199890136719 179.8999938964844 10.0600004196167
472.3399963378906 179.2200012207031 10.02999973297119
472.5799865722656 177.3600006103516 6.929999828338623
472.0400085449219 177.9799957275391 8.170000076293945
472.0199890136719 178.0299987792969 9.819999694824219
471.9599914550781 177.6900024414062 6.900000095367432
472.1799926757812 178.5099945068359 8.5
472.1600036621094 178.4100036621094 6.860000133514404
472.2999877929688 179.0200042724609 8.869999885559082
472.3999938964844 179.5500030517578 9.109999656677246
471.6600036621094 179.3399963378906 6.889999866485596
471.4299926757812 178.5299987792969 7.590000152587891
471.25 177.8200073242188 7.739999771118164
471.3399963378906 178.0200042724609 7.039999961853027
470.8699951171875 178.7799987792969 7.769999980926514
470.8599853515625 178.2899932861328 7.730000019073486
471.4700012207031 177.9499969482422 7.840000152587891
471.3099975585938 178.5399932861328 7.570000171661377
472.0899963378906 177.7599945068359 6.889999866485596
472.1700134277344 177.3200073242188 7.480000019073486
471.760009765625 179.1900024414062 6.789999961853027
471.8999938964844 178.5099945068359 6.920000076293945
471.8999938964844 178.3399963378906 8.079999923706055
473.2000122070312 178.5700073242188 6.909999847412109
473.1300048828125 178.6499938964844 8.550000190734863
473.3500061035156 177.75 8.170000076293945
473.1400146484375 178.3899993896484 9.380000114440918
471.9700012207031 178.0700073242188 8.869999885559082
472.6499938964844 178.3399963378906 7.340000152587891
472.3999938964844 179.0700073242188 8.810000419616699
472.6099853515625 178.1900024414062 8.439999580383301
473.7900085449219 178.1499938964844 8.229999542236328
473.5599975585938 179.1499938964844 8.770000457763672
473.739990234375 178.5599975585938 7.639999866485596
474.0199890136719 178.5700073242188 7.739999771118164
473.7099914550781 179.4400024414062 6.400000095367432
473.4599914550781 178.3699951171875 8.020000457763672
473.4700012207031 178.1199951171875 6.840000152587891
473.4500122070312 178.6999969482422 9.439999580383301
473.1900024414062 179.6199951171875 8.069999694824219
473.5899963378906 177.8800048828125 8.25
473.4500122070312 178.5700073242188 8.710000038146973
473.3099975585938 179.0399932861328 8.409999847412109
473.3599853515625 178.6699981689453 6.599999904632568
473.010009765625 177.8999938964844 9.479999542236328
472.989990234375 177.7100067138672 8.800000190734863
473.0299987792969 177.4600067138672 7.53000020980835
472.8399963378906 178.2200012207031 8.430000305175781
472.5499877929688 179.6799926757812 9.460000038146973
472.8800048828125 177.9600067138672 7.130000114440918
472.6799926757812 178.6100006103516 7.099999904632568
472.6900024414062 179.2599945068359 9.930000305175781
472.2900085449219 177.1499938964844 7.360000133514404
471.8800048828125 178.7799987792969 6.679999828338623
472.1199951171875 177.7400054931641 7.199999809265137
471.989990234375 178.3699951171875 7.610000133514404
472.1199951171875 178 8.489999771118164
471.3999938964844 178.0399932861328 7.840000152587891
471.2200012207031 178.8500061035156 8.699999809265137
471.2300109863281 178.6000061035156 7.610000133514404
473.9599914550781 178.7400054931641 7.909999847412109
474.1099853515625 178.2400054931641 8.239999771118164
473.1400146484375 179.4700012207031 8.020000457763672
473.3900146484375 178.3600006103516 8.069999694824219
473.2900085449219 179.0399932861328 6.389999866485596
473.4700012207031 178.4499969482422 6.550000190734863
473.260009765625 178.8899993896484 8.449999809265137
473.3599853515625 178.2700042724609 9.279999732971191
473.5700073242188 177.8099975585938 6.960000038146973
472.3299865722656 179.4799957275391 8.869999885559082
472.6000061035156 178.4299926757812 8.369999885559082
472.6600036621094 178.5 6.639999866485596
472.7300109863281 177.8699951171875 8.779999732971191
472.5 178.9900054931641 8.560000419616699
472.9200134277344 177.3800048828125 7.25
472.7799987792969 177.9199981689453 7.25
471.9100036621094 178.7299957275391 6.699999809265137
471.8800048828125 178.6499938964844 8.270000457763672
471.7699890136719 179.25 6.860000133514404
471.9700012207031 177.9900054931641 9.579999923706055
472.2000122070312 177.4900054931641 7.760000228881836
472.0199890136719 178.0399932861328 8.119999885559082
472.2099914550781 177.5399932861328 6.760000228881836
471.3800048828125 178.1999969482422 7.679999828338623
471.5199890136719 177.6300048828125 7.639999866485596
471.2099914550781 178.7599945068359 7.650000095367432
474.239990234375 178.8699951171875 8.239999771118164
473.6700134277344 178.5 6.610000133514404
473.6000061035156 178.8600006103516 7.590000152587891
473.8299865722656 178.1000061035156 7.869999885559082
473.6700134277344 178.6100006103516 8.319999694824219
473.5599975585938 179.1300048828125 8.729999542236328
473.510009765625 179.3800048828125 9.869999885559082
473.7000122070312 178.7799987792969 9.899999618530273
473.3200073242188 177.6000061035156 6.960000038146973
473.2000122070312 178.2100067138672 8.909999847412109
473.2699890136719 177.8699951171875 8.060000419616699
473.1700134277344 178.4400024414062 10.02999973297119
473.0899963378906 178.8200073242188 8.949999809265137
472.9500122070312 179.1900024414062 7.929999828338623
473.1000061035156 178.6199951171875 7.550000190734863
473.1400146484375 178.3600006103516 6.579999923706055
472.8999938964844 179.4499969482422 8.789999961853027
473.0199890136719 179.0399932861328 10.0600004196167
472.6499938964844 177.6600036621094 7.75
472.760009765625 177.3000030517578 7.079999923706055
472.6099853515625 178.0399932861328 8.470000267028809
472.5400085449219 178 6.71999979019165
472.25 179.5399932861328 9.760000228881836
472.4599914550781 178.6499938964844 8.699999809265137
472.2900085449219 179.2100067138672 9.050000190734863
472.4700012207031 178.5 7.119999885559082
471.8099975585938 178.0299987792969 7.550000190734863
471.75 178.2899932861328 8.689999580383301
471.8900146484375 177.6300048828125 6.989999771118164
471.8699951171875 177.9299926757812 9.739999771118164
471.4299926757812 179.4499969482422 6.980000019073486
471.1099853515625 178.1999969482422 7.78000020980835
470.9299926757812 178.9100036621094 7.75
471.2000122070312 177.7700042724609 7.309999942779541
