372.0499877929688 490.5499877929688 12.56999969482422
371.3099975585938 487.239990234375 17.1299991607666
371.4200134277344 487.760009765625 16.95000076293945
371.7999877929688 489.4800109863281 14.75
371.0899963378906 486.6300048828125 13.52999973297119
370.8500061035156 485.5700073242188 17.40999984741211
372.4800109863281 489.1199951171875 17.29000091552734
372.3200073242188 488.5400085449219 14.77999973297119
372.0599975585938 487.4200134277344 18.1200008392334
372.0400085449219 487.3999938964844 16.32999992370605
372.3099975585938 488.5599975585938 13.63000011444092
371.1499938964844 486.6300048828125 17.95999908447266
372.6499938964844 489.6900024414062 17.6200008392334
371.8099975585938 486.2699890136719 18.21999931335449
371.989990234375 487.4200134277344 13.81999969482422
371.9299926757812 486.7999877929688 18.61000061035156
371.8999938964844 486.8200073242188 15.06999969482422
372.0400085449219 487.3999938964844 14.92000007629395
371.0799865722656 486.6600036621094 14.76000022888184
371.7000122070312 486.260009765625 14.10999965667725
371.6799926757812 486.2200012207031 11.69999980926514
372.1400146484375 487.989990234375 12.0600004196167
371.8399963378906 486.7999877929688 13.85999965667725
371.5700073242188 485.6600036621094 13.88000011444092
371.4100036621094 485.1300048828125 13.4399995803833
371.739990234375 486.239990234375 15.11999988555908
371.2999877929688 484.6000061035156 15.47999954223633
371.2799987792969 484.6000061035156 11.93000030517578
371.7799987792969 486.2699890136719 16.56999969482422
371.2999877929688 484.5700073242188 13.96000003814697
371.1799926757812 484.0599975585938 14.44999980926514
371.6300048828125 485.6799926757812 16.44000053405762
372.8599853515625 488.1199951171875 12.21000003814697
372.6799926757812 487 18.35000038146973
373.0400085449219 488.7000122070312 14.09000015258789
372.3099975585938 485.8599853515625 13.72000026702881
372.3699951171875 485.8999938964844 15.47999954223633
372.5599975585938 486.4400024414062 18.1299991607666
372.0899963378906 484.7699890136719 15.59000015258789
372.2900085449219 485.8699951171875 12.65999984741211
371.8500061035156 484.1900024414062 12.39000034332275
371.8800048828125 484.1700134277344 13.64999961853027
372.6199951171875 487 14.8100004196167
372.739990234375 487.6000061035156 13.9399995803833
371.739990234375 483.6000061035156 13.75
372 484.739990234375 11.06999969482422
372.8800048828125 485.489990234375 15.67000007629395
373 486.0199890136719 15.85000038146973
373.3099975585938 487.2300109863281 14.6899995803833
372.7699890136719 484.9400024414062 17.20999908447266
372.2300109863281 485.3299865722656 16.88999938964844
373.4400024414062 487.7900085449219 14.57999992370605
372.5199890136719 484.3800048828125 12.36999988555908
373.5799865722656 487.0700073242188 15.07999992370605
373.7999877929688 487.7699890136719 14.68000030517578
372.0899963378906 483.7000122070312 13.09000015258789
372.3399963378906 485.010009765625 17.04999923706055
373.3200073242188 488.8099975585938 14.5
372.8500061035156 486.8900146484375 14.89999961853027
371.8399963378906 485.489990234375 12.69999980926514
373.2099914550781 488.3299865722656 12.15999984741211
371.6900024414062 485.0899963378906 16.22999954223633
372.0799865722656 486.4100036621094 11.57999992370605
371.7999877929688 485.6099853515625 16.71999931335449
371.9599914550781 485.8999938964844 11.27000045776367
372.0400085449219 486.3900146484375 13.92000007629395
371.7999877929688 485.7200012207031 18.38999938964844
372.6199951171875 485.9400024414062 13.75
372.0899963378906 486.6400146484375 15.07999992370605
372.1700134277344 486.8999938964844 14.17000007629395
372.6400146484375 488.7999877929688 13.89999961853027
372.6300048828125 488.6700134277344 12.27000045776367
372.0799865722656 486.8699951171875 18.70999908447266
371.9500122070312 486.0199890136719 15.21000003814697
372.260009765625 487.3699951171875 14.81999969482422
372.7999877929688 489.4299926757812 13.89999961853027
372.239990234375 487.4299926757812 18.70000076293945
372.4800109863281 488.3699951171875 17.6200008392334
372.5899963378906 488.5499877929688 14.84000015258789
372.4800109863281 488.1000061035156 12.25
372.7799987792969 489.6300048828125 17.57999992370605
371.4299926757812 483.9299926757812 14.07999992370605
371.5899963378906 484.3900146484375 12.47000026702881
371.6400146484375 484.6700134277344 13.5600004196167
371.6400146484375 484.739990234375 15.42000007629395
371.3699951171875 483.6499938964844 12.96000003814697
370.6499938964844 483.1400146484375 15.60999965667725
371.6499938964844 484.6799926757812 11.40999984741211
371.1700134277344 485.1199951171875 15.3100004196167
371.1099853515625 484.8399963378906 11.81999969482422
370.9299926757812 484.1000061035156 12.22000026702881
371.3999938964844 486.0499877929688 13.98999977111816
371.1199951171875 485.0700073242188 17.44000053405762
370.989990234375 484.7200012207031 18.72999954223633
371.1300048828125 484.8900146484375 13.89000034332275
371.4700012207031 486.1400146484375 11.64000034332275
371.5199890136719 486.4599914550781 12.52000045776367
371.0299987792969 484.4100036621094 11.07999992370605
371.7200012207031 487.3500061035156 13.89000034332275
371.6400146484375 487.0700073242188 14.85000038146973
371.3099975585938 485.7900085449219 17.20999908447266
371.3800048828125 485.8099975585938 12.85000038146973
371.6900024414062 487.4500122070312 17.85000038146973
371.5499877929688 486.5899963378906 14.51000022888184
371.3599853515625 486.0400085449219 18.56999969482422
371.3399963378906 486.0299987792969 16.42000007629395
371.9200134277344 488.239990234375 17.28000068664551
371.7099914550781 487.3599853515625 16.14999961853027
371.6099853515625 487.0899963378906 17.07999992370605
371.7900085449219 487.7900085449219 16.65999984741211
371.9299926757812 488.0199890136719 11.52000045776367
372 488.5799865722656 18.07999992370605
372.0799865722656 488.9200134277344 14.89000034332275
372.25 489.4500122070312 14.97999954223633
372.0899963378906 489 18.73999977111816
372.2000122070312 489.5299987792969 18.95000076293945
371.3900146484375 488.6499938964844 14.56999969482422
371.3599853515625 488.5799865722656 16.97999954223633
371.989990234375 488.5 14.25
371.1400146484375 487.9100036621094 19.29999923706055
371.3399963378906 488.760009765625 18.70000076293945
372.1700134277344 489.3399963378906 17.48999977111816
371.8699951171875 490.510009765625 12.56999969482422
371.1000061035156 487.5899963378906 18.28000068664551
371.239990234375 488.4100036621094 19.90999984741211
371.510009765625 486.7200012207031 18.3700008392334
371.4200134277344 488.9700012207031 17.88999938964844
371.5199890136719 489.3900146484375 18.42000007629395
370.1099853515625 483.2699890136719 12.25
370.1900024414062 483.8999938964844 16.35000038146973
370.25 483.8800048828125 12.23999977111816
370.1700134277344 483.6900024414062 15.06999969482422
370.5199890136719 484.9599914550781 10.60000038146973
370.239990234375 484.3399963378906 19
370.6099853515625 485.3699951171875 13.28999996185303
370.25 484.2300109863281 17.32999992370605
370.3999938964844 484.8200073242188 17.26000022888184
370.8399963378906 486.4400024414062 15.86999988555908
370.8800048828125 486.6900024414062 17.29000091552734
370.3900146484375 484.8900146484375 19.36000061035156
370.5 485.1600036621094 16.04999923706055
370.5899963378906 485.25 11.56999969482422
370.8099975585938 486.239990234375 12.3100004196167
371.2999877929688 488.25 13.80000019073486
370.8500061035156 486.7200012207031 19.17000007629395
370.3399963378906 484.3900146484375 12.68000030517578
370.9299926757812 486.8200073242188 14.55000019073486
371.1900024414062 487.6000061035156 11.81999969482422
369.9500122070312 485.6600036621094 11.31999969482422
371.1400146484375 487.5299987792969 14.39000034332275
369.8599853515625 485.3099975585938 14.76000022888184
370.010009765625 485.7999877929688 12.86999988555908
370.9599914550781 487.1900024414062 19.64999961853027
369.8399963378906 485.4700012207031 16.29999923706055
369.7699890136719 485.1099853515625 17.57999992370605
371.0499877929688 487.3999938964844 16.77000045776367
369.6300048828125 484.7000122070312 18.95000076293945
369.9800109863281 486.1700134277344 18.34000015258789
370.5599975585938 485.489990234375 19.22999954223633
370.4599914550781 487.5299987792969 11.25
369.8299865722656 485.6000061035156 20.21999931335449
370.4599914550781 487.7300109863281 14.97000026702881
370.0299987792969 486.4500122070312 19.53000068664551
369.5899963378906 484.489990234375 17.52000045776367
369.8599853515625 485.5700073242188 18.06999969482422
370.4700012207031 487.8800048828125 16.70000076293945
370.8299865722656 489.1700134277344 12.03999996185303
370.3200073242188 487.2799987792969 16.48999977111816
370.7099914550781 488.5799865722656 11.97000026702881
370.2999877929688 487.1300048828125 12.64999961853027
370.9599914550781 489.6700134277344 12.27000045776367
370.3699951171875 487.6799926757812 19.22999954223633
370.8299865722656 489.25 13.73999977111816
370.9500122070312 490.0400085449219 19.39999961853027
369.4800109863281 484.1499938964844 18.78000068664551
370.6099853515625 488.5400085449219 18.45999908447266
369.760009765625 485.1900024414062 19.40999984741211
370.4800109863281 488.1499938964844 17.72999954223633
370.7699890136719 489.2900085449219 17.78000068664551
370.7300109863281 489.0199890136719 18.70000076293945
370.6199951171875 488.6700134277344 19.84000015258789
369.760009765625 485.010009765625 13.60999965667725
369.3900146484375 483.5299987792969 16.54000091552734
369.2999877929688 483.4100036621094 19.15999984741211
369.3399963378906 483.2799987792969 15.3100004196167
368.6400146484375 483.3800048828125 16.6200008392334
368.4400024414062 482.6700134277344 17.20999908447266
368.8099975585938 484.1099853515625 16.30999946594238
368.9400024414062 484.5899963378906 18.79999923706055
368.6199951171875 483.3900146484375 18.72999954223633
368.7699890136719 484.0700073242188 18.42000007629395
369.6900024414062 487.260009765625 9.369999885559082
368.7300109863281 483.739990234375 17.46999931335449
369.510009765625 486.7999877929688 15.17000007629395
369.4700012207031 486.9400024414062 21.01000022888184
369.760009765625 487.9299926757812 17.53000068664551
369.260009765625 485.739990234375 14.59000015258789
369.4500122070312 486.3500061035156 10.3100004196167
369.1099853515625 485.3500061035156 20.32999992370605
370.2200012207031 489.6000061035156 16.15999984741211
370.6300048828125 490.8900146484375 9.449999809265137
369.4200134277344 486.3099975585938 14.78999996185303
369.2099914550781 485.9500122070312 20.42000007629395
368.9599914550781 484.7799987792969 20.15999984741211
370.25 489.8999938964844 19.44000053405762
370.2300109863281 489.7300109863281 17.79999923706055
370.3500061035156 490.2000122070312 16.17000007629395
370.1099853515625 489.3299865722656 19.20000076293945
369.0599975585938 485.0299987792969 14.96000003814697
369.1300048828125 485.239990234375 16.48999977111816
369.7799987792969 488.1000061035156 19.18000030517578
369.9200134277344 488.7099914550781 19.27000045776367
369.3099975585938 485.6600036621094 10.76000022888184
370.3800048828125 490.3399963378906 17.85000038146973
369.3800048828125 486.4200134277344 18.61000061035156
368.9700012207031 486.4500122070312 8.960000038146973
368.1499938964844 483.75 18.43000030517578
368.8500061035156 486.2000122070312 12.01000022888184
368.5199890136719 485.1300048828125 15.80000019073486
368.3699951171875 484.5499877929688 15.68000030517578
368.4500122070312 484.7999877929688 16.93000030517578
368.8699951171875 486.5299987792969 15.22999954223633
368.5499877929688 485.1099853515625 13.64999961853027
368.5799865722656 485.5400085449219 20.94000053405762
368.7200012207031 485.7900085449219 15.59000015258789
368.7999877929688 486.3399963378906 18.1200008392334
368.8399963378906 486.2000122070312 14.28999996185303
368.3699951171875 484.7000122070312 19.42000007629395
368.6799926757812 486.0199890136719 19.32999992370605
368.7300109863281 485.7300109863281 13.73999977111816
368.9200134277344 486.8900146484375 20.5
368.7900085449219 486.2799987792969 16.1299991607666
369.25 488.2099914550781 17.95999908447266
369.3500061035156 488.5499877929688 16.77000045776367
369.3800048828125 488.75 18.18000030517578
368.8399963378906 486.5799865722656 19.47999954223633
369.0400085449219 487.3800048828125 20.86000061035156
368.9700012207031 486.9400024414062 18.34000015258789
369.1799926757812 487.8800048828125 19.04999923706055
368.9800109863281 486.8800048828125 16.20999908447266
368.7200012207031 486.25 20.75
369.5299987792969 489.2900085449219 18.23999977111816
369 487.2900085449219 19.19000053405762
370.1400146484375 491.2699890136719 9.289999961853027
369.2099914550781 490.3999938964844 15.75
369.1099853515625 490.0599975585938 16.86000061035156
369.260009765625 488.2099914550781 20.03000068664551
369.7200012207031 489.5400085449219 9.079999923706055
369.6199951171875 491.9100036621094 12.71000003814697
369.8599853515625 490.3599853515625 12.55000019073486
367.3699951171875 483.260009765625 19.40999984741211
367.8500061035156 485.1000061035156 15.18000030517578
367.6099853515625 484.3599853515625 19.79999923706055
367.5199890136719 483.9100036621094 19.26000022888184
368.2200012207031 486.1900024414062 11.23999977111816
368.2900085449219 486.4299926757812 10.31999969482422
368.2699890136719 486.5799865722656 14.14999961853027
368.4500122070312 487.1900024414062 12.02000045776367
367.6499938964844 484.4100036621094 17.55999946594238
368.2099914550781 486.3399963378906 12.68000030517578
367.8999938964844 485.3699951171875 18.40999984741211
368.3299865722656 486.9500122070312 17.21999931335449
368.2799987792969 486.760009765625 15.53999996185303
368 485.9800109863281 20.63999938964844
368.3900146484375 487.3299865722656 17.79000091552734
368.1099853515625 486.0299987792969 16.15999984741211
369.1499938964844 489.7900085449219 9.25
368.9500122070312 489.1199951171875 9.560000419616699
368.7000122070312 488.4400024414062 13.98999977111816
368.4500122070312 487.6799926757812 18.79999923706055
369.2699890136719 490.3099975585938 9.590000152587891
367.8200073242188 485.0299987792969 19.75
368.7799987792969 488.75 17.21999931335449
368.8200073242188 488.760009765625 12.80000019073486
368.3500061035156 487.2799987792969 20.13999938964844
368.010009765625 485.7799987792969 18.96999931335449
368.2900085449219 487.1000061035156 20.78000068664551
368.8299865722656 488.5599975585938 9.220000267028809
369.6099853515625 491.6799926757812 9.210000038146973
369.4599914550781 491.0499877929688 9.189999580383301
368.0899963378906 486.2699890136719 19.6200008392334
368.2099914550781 489.510009765625 18.04000091552734
367.7000122070312 484.6600036621094 18.72999954223633
368.7999877929688 491.2699890136719 9.659999847412109
368.8500061035156 489.1600036621094 18
368.3699951171875 489.9800109863281 16.30999946594238
367.8599853515625 485.0700073242188 17.14999961853027
368.9400024414062 491.9700012207031 9.520000457763672
368.2699890136719 489.75 21.34000015258789
368.1300048828125 489.260009765625 21
368.4400024414062 490.3099975585938 17.32999992370605
368.3800048828125 490.2699890136719 19.68000030517578
368.1099853515625 489.0499877929688 19.63999938964844
368.6499938964844 491 12.85999965667725
367.9200134277344 488.3800048828125 19.73999977111816
368.7799987792969 488.7999877929688 14.89999961853027
368.2699890136719 486.8500061035156 19.55999946594238
368.9700012207031 489.5799865722656 16.54999923706055
369 489.5199890136719 14.63000011444092
369.1400146484375 492.7900085449219 12.94999980926514
366.7999877929688 483.7300109863281 18.95000076293945
367.1499938964844 485.010009765625 16.77000045776367
367.7999877929688 487.3299865722656 8.590000152587891
366.8599853515625 484.010009765625 17.92000007629395
368.0700073242188 488.4500122070312 8.970000267028809
367.1600036621094 485.2200012207031 17.96999931335449
367.3699951171875 486.0599975585938 19.52000045776367
367.760009765625 487.4299926757812 14.64000034332275
366.989990234375 484.5 18.51000022888184
368.0899963378906 488.4800109863281 11.05000019073486
368.0499877929688 488.5299987792969 13.15999984741211
367.5700073242188 487.0599975585938 20.38999938964844
367.5199890136719 486.6900024414062 17.34000015258789
367.6099853515625 486.9100036621094 14.44999980926514
368.0799865722656 488.6499938964844 14.80000019073486
368.4700012207031 490.0899963378906 9.760000228881836
367.7999877929688 487.7999877929688 19.84000015258789
367.5799865722656 486.9400024414062 18.69000053405762
367.6400146484375 487.0499877929688 16.01000022888184
368.6700134277344 490.739990234375 9.5
367.6700134277344 487.489990234375 20.98999977111816
366.9700012207031 486.9599914550781 17.65999984741211
367.6900024414062 487.3299865722656 19.36000061035156
366.9500122070312 486.989990234375 19.65999984741211
367.3999938964844 488.4700012207031 12.36999988555908
367.5199890136719 488.8099975585938 11.14999961853027
368.2000122070312 489.0199890136719 11.42000007629395
367.5799865722656 489.1499938964844 10.10000038146973
366.8299865722656 486.4800109863281 19.38999938964844
367.9800109863281 487.8999938964844 8.710000038146973
368.1799926757812 489.0499877929688 13.32999992370605
367.4599914550781 489.0199890136719 16.94000053405762
367.6300048828125 489.4700012207031 15.30000019073486
367.1799926757812 487.8599853515625 18.59000015258789
367.0799865722656 487.4100036621094 18.18000030517578
368.1700134277344 489.1900024414062 14.97999954223633
367.2900085449219 488.2900085449219 17.10000038146973
367.9800109863281 490.6499938964844 11.25
367.5799865722656 489.5 19.44000053405762
366.989990234375 487.2200012207031 20.85000038146973
368.2099914550781 488.8699951171875 9.680000305175781
367.0700073242188 487.5499877929688 19.70999908447266
367.989990234375 490.989990234375 16.44000053405762
367.8900146484375 490.75 19.51000022888184
367.7200012207031 490.1499938964844 19.34000015258789
367.5599975585938 489.6499938964844 21.14999961853027
367.6799926757812 490.0299987792969 21.93000030517578
367.9400024414062 490.8099975585938 17.20999908447266
367.6199951171875 489.6700134277344 16.88999938964844
368.2799987792969 492.1600036621094 16.8700008392334
367.3099975585938 488.1600036621094 13.42000007629395
367.9700012207031 490.7000122070312 13.22000026702881
368.0499877929688 491.3599853515625 17.32999992370605
368.3599853515625 489.7300109863281 11.02999973297119
367.4400024414062 489.0499877929688 21.01000022888184
367.4700012207031 489.1099853515625 18.69000053405762
366.3900146484375 484.8299865722656 18.78000068664551
366.2300109863281 484.1400146484375 18.8799991607666
367.2200012207031 487.5599975585938 9
366.5199890136719 485.1300048828125 17.65999984741211
366.739990234375 486.0599975585938 16.52000045776367
366.5700073242188 485.5700073242188 20.32999992370605
367.3800048828125 488.2200012207031 11.0600004196167
367.239990234375 487.6600036621094 10.89000034332275
367.3200073242188 488 9.670000076293945
367.0400085449219 487.1000061035156 15.09000015258789
366.3299865722656 486.7300109863281 17.43000030517578
366.239990234375 486.3800048828125 18.65999984741211
366.8299865722656 488.239990234375 9.909999847412109
366.8200073242188 486.2799987792969 13.68000030517578
366.4299926757812 487.1199951171875 18.27000045776367
367.25 487.8599853515625 12.28999996185303
367.0599975585938 489.2200012207031 10.88000011444092
366.7799987792969 486.2900085449219 17.80999946594238
366.5899963378906 487.6300048828125 16.54000091552734
366.4299926757812 487.2099914550781 20.05999946594238
366.8800048828125 488.7999877929688 16.51000022888184
366.8500061035156 488.6199951171875 15.21000003814697
367.0599975585938 489.4200134277344 14.31999969482422
367.0499877929688 489.489990234375 16.20999908447266
366.239990234375 486.6000061035156 20.15999984741211
366.8699951171875 488.7300109863281 12.73999977111816
367.1799926757812 489.7999877929688 13.07999992370605
367.0199890136719 489.6000061035156 17.89999961853027
366.7300109863281 486.1700134277344 20.43000030517578
367.0400085449219 489.3200073242188 12.68000030517578
366.9100036621094 488.6400146484375 10.89999961853027
366.6700134277344 488.1799926757812 18.65999984741211
367.5199890136719 491.4599914550781 18.01000022888184
367 489.7300109863281 21.71999931335449
366.5799865722656 487.8099975585938 20.03000068664551
367.1799926757812 490.1499938964844 16.04000091552734
367.3900146484375 490.9200134277344 17.5
367.3099975585938 490.8200073242188 20.07999992370605
367.2200012207031 490.0700073242188 14.15999984741211
366.5899963378906 487.8299865722656 17.90999984741211
367.6000061035156 491.8900146484375 18.3799991607666
366.9400024414062 489.3099975585938 21.17000007629395
366.9700012207031 486.4500122070312 8.720000267028809
367.739990234375 492.2999877929688 17.1200008392334
365.7699890136719 484.5599975585938 18.48999977111816
366.1499938964844 486.1000061035156 17.45999908447266
366.1700134277344 488.25 8.810000419616699
365.6700134277344 486.7900085449219 15.96000003814697
366.7300109863281 487.8099975585938 9.319999694824219
365.7300109863281 486.9500122070312 17.73999977111816
365.9500122070312 487.6400146484375 12.86999988555908
366.6199951171875 487.3399963378906 8.649999618530273
366.1600036621094 488.2799987792969 10.71000003814697
366.0899963378906 488.2300109863281 13.11999988555908
366.010009765625 488 15.93000030517578
366.2900085449219 488.8399963378906 10.97000026702881
365.5700073242188 486.5299987792969 19.14999961853027
365.739990234375 487.3299865722656 20.54000091552734
366.2300109863281 486.3099975585938 16.63999938964844
366.4100036621094 489.3500061035156 11.1899995803833
366.5700073242188 489.9700012207031 11.18000030517578
365.489990234375 486.0400085449219 18.53000068664551
366.0599975585938 488.3999938964844 16.77000045776367
366.1600036621094 488.7000122070312 17.79000091552734
366.1700134277344 488.7699890136719 15.5
365.6799926757812 486.8699951171875 19.94000053405762
365.8399963378906 487.3200073242188 16.44000053405762
365.8099975585938 487.3999938964844 18.04000091552734
366.4500122070312 489.5599975585938 12.69999980926514
366.489990234375 489.9800109863281 17.63999938964844
366.239990234375 489.2200012207031 20.22999954223633
365.9800109863281 488 18.06999969482422
365.7300109863281 487.1199951171875 19
366.260009765625 489.0299987792969 16.63999938964844
366.5400085449219 490.2699890136719 18.82999992370605
366.3399963378906 489.5599975585938 17.19000053405762
366.8900146484375 491.7099914550781 18.20000076293945
366.6700134277344 490.8200073242188 19.14999961853027
366.3399963378906 489.2799987792969 13.60000038146973
366.4599914550781 489.7999877929688 16.27000045776367
366.9700012207031 491.8399963378906 15.60000038146973
366.5199890136719 490.3800048828125 20.69000053405762
366.4400024414062 489.6600036621094 14.42000007629395
366.3500061035156 489.6300048828125 21.13999938964844
367.2200012207031 492.9200134277344 14.14999961853027
366.4100036621094 489.9100036621094 20.1200008392334
366.489990234375 489.8999938964844 16
366.3099975585938 489.3200073242188 15.68000030517578
367.3800048828125 493.4100036621094 14.47000026702881
366 488.2999877929688 19.26000022888184
366 487.760009765625 10.48999977111816
365.1700134277344 487.4299926757812 12.88000011444092
364.8800048828125 486.489990234375 18.34000015258789
365.0499877929688 487.0499877929688 16.45999908447266
364.7999877929688 486.1799926757812 17.26000022888184
365.3299865722656 488.0199890136719 12.98999977111816
364.7699890136719 486.2200012207031 19.38999938964844
365.989990234375 487.6499938964844 8.590000152587891
365.3399963378906 485.4500122070312 18.73999977111816
365.5 488.6900024414062 13.10000038146973
364.9100036621094 486.489990234375 16.19000053405762
365.239990234375 487.8699951171875 17.82999992370605
365.489990234375 488.7300109863281 14.81999969482422
365.1199951171875 487.5 19.29000091552734
365.6300048828125 489.1900024414062 13.21000003814697
365.3299865722656 488.3099975585938 18.53000068664551
365.5499877929688 489.1900024414062 17.29999923706055
365.0400085449219 487.1300048828125 18.43000030517578
365.3900146484375 488.6400146484375 17.36000061035156
365.6300048828125 489.3200073242188 15.01000022888184
365.0599975585938 487.3399963378906 17.77000045776367
366.0299987792969 490.9100036621094 13.46000003814697
365.8399963378906 490.3399963378906 15.52999973297119
365.6499938964844 489.25 11.01000022888184
364.9400024414062 486.8399963378906 19.44000053405762
365.6600036621094 489.5499877929688 16.06999969482422
365.8099975585938 490.010009765625 14.4399995803833
365.8800048828125 490.5799865722656 18.84000015258789
365.9100036621094 490.4800109863281 12.9399995803833
365.5499877929688 489.0299987792969 15.88000011444092
365.8299865722656 490.3999938964844 17.45999908447266
366.0899963378906 491.2200012207031 14.5600004196167
366.4400024414062 492.6300048828125 13.94999980926514
366.1700134277344 491.6199951171875 17.40999984741211
365.9500122070312 491.0199890136719 19.60000038146973
365.1499938964844 487.6199951171875 16.79000091552734
365.5599975585938 488.7699890136719 10.4399995803833
366.2699890136719 491.8599853515625 14.40999984741211
365.6600036621094 489.760009765625 19.6200008392334
366.0299987792969 491.0899963378906 17.06999969482422
365.6799926757812 489.6799926757812 17.90999984741211
365.989990234375 490.510009765625 10.77000045776367
366.5599975585938 493.1400146484375 14.32999992370605
366.7000122070312 493.6400146484375 14.52999973297119
364.3299865722656 486.8399963378906 16.27000045776367
364.6499938964844 488.1000061035156 16.35000038146973
364.7300109863281 488.5199890136719 14.88000011444092
365.0700073242188 489.6099853515625 12.98999977111816
364.8200073242188 488.5700073242188 12.5
364.9299926757812 489.3500061035156 18.43000030517578
364.5400085449219 487.8500061035156 17.17000007629395
364.9700012207031 489.3599853515625 16.17000007629395
365.2900085449219 490.5499877929688 14.15999984741211
365.1000061035156 489.7999877929688 14.51000022888184
365.3500061035156 490.8399963378906 15.35999965667725
365.1400146484375 489.8200073242188 12.3100004196167
364.8099975585938 488.9100036621094 17.6200008392334
364.9200134277344 489.2300109863281 14.39000034332275
365.6799926757812 492.0599975585938 13.34000015258789
365.1499938964844 490.2999877929688 17.18000030517578
365.2900085449219 490.4299926757812 10.10000038146973
365.4400024414062 491.0799865722656 12.32999992370605
365.2999877929688 490.7699890136719 17.65999984741211
365.0799865722656 489.9700012207031 16.34000015258789
365.0899963378906 489.9700012207031 18.30999946594238
365.9500122070312 493.1900024414062 13.85999965667725
365.5299987792969 491.4800109863281 12.98999977111816
364.5899963378906 487.739990234375 13.09000015258789
365.7900085449219 492.6099853515625 13.40999984741211
363.8999938964844 487.4100036621094 17.77000045776367
364.7699890136719 490.510009765625 11.03999996185303
364.1400146484375 488.4400024414062 16.3700008392334
364.4100036621094 489.3900146484375 17.05999946594238
364.2900085449219 488.8099975585938 15.06999969482422
364.6300048828125 490.1400146484375 14.47000026702881
364.6900024414062 490.5299987792969 17.3799991607666
364.8900146484375 491 11.52000045776367
364.5400085449219 490.010009765625 16.89999961853027
365.3299865722656 492.8699951171875 13.56999969482422
364.8399963378906 491.1099853515625 15.38000011444092
365.4599914550781 493.4299926757812 13.61999988555908
364.4800109863281 489.5299987792969 14.47000026702881
364.7799987792969 491.0700073242188 17.57999992370605
365.1000061035156 491.9200134277344 12.55000019073486
364.4700012207031 489.7200012207031 16
365.1499938964844 492.260009765625 13.35999965667725
363.7999877929688 489.6199951171875 17.20999908447266
364.0199890136719 490.4299926757812 14.44999980926514
363.8299865722656 489.6799926757812 14.9399995803833
364.5 492.239990234375 12.46000003814697
364.2799987792969 491.2300109863281 11.56999969482422
364.7099914550781 493.1499938964844 13.77999973297119
364.6799926757812 492.8299865722656 12.68000030517578
363.9700012207031 490.2099914550781 17.40999984741211
364.3500061035156 491.5899963378906 12.47999954223633
373.7799987792969 487.6400146484375 14.72000026702881
373.5 488.760009765625 14.57999992370605
372.9599914550781 488.9400024414062 14.17000007629395
373.1900024414062 488.3599853515625 12.10999965667725
373.2799987792969 487.7799987792969 14.42000007629395
372.8800048828125 489.4299926757812 13.81999969482422
372.8999938964844 488.6799926757812 17.70999908447266
373.3999938964844 487.239990234375 14.68000030517578
373.0199890136719 488.1099853515625 17.86000061035156
372.5700073242188 488.6799926757812 12.13000011444092
372.25 489.4500122070312 14.97000026702881
372.1300048828125 489.239990234375 18.70000076293945
372.4200134277344 488.7999877929688 14.89999961853027
372.1499938964844 489.5400085449219 17.46999931335449
372.6400146484375 487.3800048828125 18.57999992370605
372.8299865722656 486.8299865722656 16.75
373.1300048828125 486.0199890136719 13.72999954223633
372.510009765625 488.5 13.84000015258789
372.8699951171875 487.010009765625 14.98999977111816
372.3800048828125 488.3999938964844 17.68000030517578
372.7999877929688 487.3900146484375 14.13000011444092
372.9299926757812 486.5199890136719 15.63000011444092
372.3099975585938 488.8599853515625 17.26000022888184
373.1900024414062 485.4100036621094 15.97000026702881
372.0299987792969 490.6499938964844 12.61999988555908
371.3299865722656 490.739990234375 12.35999965667725
371.1700134277344 490.5400085449219 18.28000068664551
371.9599914550781 488.1900024414062 12.15999984741211
371.489990234375 490.1000061035156 12.35999965667725
372.0599975585938 487.9400024414062 11.35000038146973
371.6000061035156 488.7699890136719 18.6200008392334
371.6900024414062 488.4299926757812 17.5
371.4500122070312 489.2699890136719 18.30999946594238
371.8699951171875 488.239990234375 14.69999980926514
371.9700012207031 487.5 16.31999969482422
372.1400146484375 487.0700073242188 14.69999980926514
372.3999938964844 486.1799926757812 13.75
371.6799926757812 489.489990234375 12.1899995803833
371.5899963378906 489.489990234375 14.52000045776367
371.5899963378906 488.9200134277344 17.1299991607666
372.3599853515625 486.0599975585938 15.39999961853027
372.489990234375 485.9500122070312 12.81999969482422
372.25 486.4400024414062 16.65999984741211
371.989990234375 487.1199951171875 19.06999969482422
371.8099975585938 488.5899963378906 13.57999992370605
372.1300048828125 486.4200134277344 18.8700008392334
371.6499938964844 488.4200134277344 19.51000022888184
372.489990234375 485.2900085449219 17.04999923706055
371.9200134277344 487.4700012207031 18.30999946594238
372.1099853515625 487.4100036621094 13.90999984741211
371.0199890136719 489.739990234375 12
371.1300048828125 488.8800048828125 15.60000038146973
370.7000122070312 490.1000061035156 17.76000022888184
371.4700012207031 488.1799926757812 10.9399995803833
370.7999877929688 489.6700134277344 18.5
371.1600036621094 488.510009765625 16.52000045776367
371.2699890136719 488.5299987792969 14.35000038146973
371.1499938964844 489.0400085449219 13.96000003814697
371.3099975585938 488.1300048828125 15.14999961853027
371.2799987792969 488.6000061035156 12.53999996185303
371.3500061035156 488.2200012207031 13.32999992370605
371.5400085449219 487.3699951171875 14.4399995803833
371.5 487.8399963378906 11.86999988555908
371.2799987792969 487.9299926757812 16.45000076293945
372.0199890136719 485.5799865722656 12.63000011444092
371.3800048828125 487.4299926757812 17.15999984741211
371.5 487.010009765625 17.71999931335449
371.739990234375 486.5400085449219 13.93000030517578
371.739990234375 486.0599975585938 16.6299991607666
371.5599975585938 486.5400085449219 18.30999946594238
370.9500122070312 488.8900146484375 19.86000061035156
372.3900146484375 484.2799987792969 12.39000034332275
371.1600036621094 488.0499877929688 19.31999969482422
371.8800048828125 485.4800109863281 16.79000091552734
372.1799926757812 484.5799865722656 15.85999965667725
371.1700134277344 489.1700134277344 12.32999992370605
371.6799926757812 486 18.57999992370605
371.75 486.2900085449219 15.14999961853027
370.3599853515625 491.0700073242188 9.300000190734863
370.1700134277344 490.489990234375 16.1299991607666
370.3299865722656 489.3900146484375 19.01000022888184
370.5199890136719 488.9200134277344 17.31999969482422
370.5799865722656 488.5899963378906 18.39999961853027
370.7900085449219 488.739990234375 12.23999977111816
370.3900146484375 489.4700012207031 17.18000030517578
370.1700134277344 490.3599853515625 17.90999984741211
371.0199890136719 487.5 14.42000007629395
370.9800109863281 487.3900146484375 16.10000038146973
370.7799987792969 488.0799865722656 16.57999992370605
370.6400146484375 489.4299926757812 12.3100004196167
371.1400146484375 487 14.71000003814697
370.7000122070312 488.010009765625 18.3799991607666
370.8800048828125 487.1199951171875 19.42000007629395
371.0299987792969 486.7300109863281 17.95000076293945
370.7099914550781 487.7999877929688 19.8799991607666
371.1099853515625 486.5199890136719 17.29000091552734
370.3500061035156 489.8299865722656 16.09000015258789
371.8200073242188 484.75 11.0600004196167
371.0499877929688 486.4500122070312 19.38999938964844
370.8299865722656 488.1700134277344 14.71000003814697
371.0400085449219 487.0299987792969 16.98999977111816
371.7099914550781 484.8200073242188 13.60000038146973
370.8500061035156 487.510009765625 18.73999977111816
371.1799926757812 486.1499938964844 18.39999961853027
371.8399963378906 484.239990234375 13.65999984741211
371.239990234375 486.7200012207031 13.71000003814697
370.4599914550781 490.4700012207031 9.369999885559082
371.239990234375 486.2099914550781 16.10000038146973
371.260009765625 485.739990234375 18.89999961853027
371.3900146484375 485.5799865722656 16.28000068664551
371.2999877929688 485.8500061035156 17.22999954223633
371.6499938964844 484.8099975585938 15.52000045776367
369.4500122070312 492.3800048828125 8.949999809265137
369.1799926757812 492.8399963378906 12.77000045776367
370.0199890136719 490.010009765625 9.380000114440918
369.8900146484375 490.6099853515625 9.319999694824219
369.8399963378906 490.3500061035156 12.53999996185303
369.5799865722656 491.8299865722656 9.100000381469727
370.1600036621094 489.1000061035156 12.44999980926514
369.9800109863281 489.7300109863281 12.5600004196167
370.3900146484375 487.9500122070312 12.80000019073486
370.3299865722656 487.9200134277344 14.94999980926514
370.6199951171875 487.1900024414062 12.3100004196167
369.6499938964844 490.9500122070312 12.76000022888184
369.6400146484375 490.5700073242188 15.68000030517578
370.4599914550781 487.5199890136719 13.57999992370605
370.3299865722656 488.3399963378906 11.94999980926514
370.1600036621094 488.1300048828125 17.79999923706055
369.3399963378906 492.1900024414062 12.89999961853027
370.5799865722656 487.510009765625 11.26000022888184
370.260009765625 487.6499938964844 18.3799991607666
370.5499877929688 487.1099853515625 14
370.3500061035156 487.4200134277344 17.57999992370605
369.7799987792969 489.6000061035156 18.69000053405762
370.6900024414062 486.7799987792969 13
370.1499938964844 488.3200073242188 16.29000091552734
370.7099914550781 486.25 15.65999984741211
370.3800048828125 487.0599975585938 18.47999954223633
370.8399963378906 485.8800048828125 14.22999954223633
371.1799926757812 485.0499877929688 11.39999961853027
370.6300048828125 486.010009765625 19.19000053405762
370.8099975585938 485.5599975585938 17.59000015258789
370.260009765625 487.8200073242188 16.67000007629395
370.6300048828125 486.489990234375 16.43000030517578
370.4400024414062 487.1400146484375 16.48999977111816
371.0599975585938 484.8999938964844 15.27999973297119
371.3599853515625 483.9500122070312 14.11999988555908
369.9800109863281 488.5499877929688 19.29000091552734
370.1300048828125 487.9200134277344 19.34000015258789
371.0400085449219 484.4599914550781 18.17000007629395
369.75 491.1600036621094 9.079999923706055
371.1900024414062 484.5400085449219 13.97000026702881
371.3800048828125 484.1099853515625 12.39000034332275
370.9100036621094 484.7799987792969 19.35000038146973
370.3800048828125 486.8200073242188 19.73999977111816
371.5 483.6099853515625 12.90999984741211
370.9700012207031 484.8900146484375 17.60000038146973
370.5799865722656 486.8399963378906 15.48999977111816
368.6400146484375 492.3900146484375 12.68000030517578
368.8500061035156 492.0499877929688 9.149999618530273
369.4700012207031 489.5599975585938 9.090000152587891
369.2799987792969 490.3099975585938 9.520000457763672
368.7300109863281 491.8800048828125 12.94999980926514
368.6099853515625 491.7099914550781 16.90999984741211
369.1300048828125 490.8900146484375 9.329999923706055
369.0599975585938 490.2300109863281 15.93000030517578
368.9200134277344 491.260009765625 12.86999988555908
369.5 488.6099853515625 14.68000030517578
369.0799865722656 489.8200073242188 16.80999946594238
369.1700134277344 489.4700012207031 17.76000022888184
369.3900146484375 488.5700073242188 16.88999938964844
369.5899963378906 488.1700134277344 15.31999969482422
368.9500122070312 490.6700134277344 15.39999961853027
370.010009765625 486.8699951171875 12.89000034332275
369.3299865722656 488.3900146484375 20.36000061035156
369.9299926757812 487.1900024414062 11.96000003814697
370.1799926757812 486.4299926757812 11.35000038146973
369.6099853515625 487.3599853515625 18.84000015258789
368.9700012207031 491.5599975585938 9.659999847412109
369.5299987792969 487.6600036621094 19.93000030517578
369.6900024414062 487.0400085449219 19.78000068664551
369.5299987792969 488.7000122070312 12.64000034332275
369.5700073242188 487.3099975585938 20.79000091552734
369.8999938964844 486.4100036621094 17.54000091552734
370.0299987792969 485.8699951171875 18.04000091552734
369.8900146484375 486.8500061035156 15.02000045776367
369.989990234375 486.3900146484375 15.39000034332275
369.9100036621094 487.5899963378906 11
370.2900085449219 484.9299926757812 16.85000038146973
370.2300109863281 485.3099975585938 15.98999977111816
369.239990234375 488.7799987792969 19.86000061035156
370.3299865722656 484.3900146484375 19.1299991607666
370.5599975585938 484.1199951171875 16.09000015258789
370.0199890136719 485.3999938964844 20.63999938964844
370.1199951171875 485.4400024414062 18.55999946594238
369.510009765625 487.9400024414062 18.75
370.5899963378906 483.7300109863281 16.90999984741211
369.7900085449219 486.7799987792969 18.86000061035156
369.8800048828125 486.260009765625 19.40999984741211
370.1600036621094 485.0400085449219 19.36000061035156
368.4599914550781 491.1700134277344 9.829999923706055
368.2699890136719 491.4700012207031 12.88000011444092
368.6000061035156 490.3599853515625 11.14000034332275
368.8800048828125 489.4400024414062 10.02000045776367
368.7200012207031 489.8500061035156 11.43000030517578
368.0700073242188 491.5299987792969 17.40999984741211
367.989990234375 491.9599914550781 16.79000091552734
368.3500061035156 490.5199890136719 15.86999988555908
368.760009765625 489.5299987792969 12.30000019073486
368.9400024414062 489.0799865722656 10.76000022888184
368.4500122070312 490.010009765625 16.45000076293945
368.0799865722656 490.9599914550781 19.80999946594238
368.9599914550781 488.2699890136719 14.52000045776367
368.7799987792969 489 14.96000003814697
368.3800048828125 490.2799987792969 17.34000015258789
368.3900146484375 489.5400085449219 21.28000068664551
369.0599975585938 488.7699890136719 9.569999694824219
369.5299987792969 486.3599853515625 11.97000026702881
369.7200012207031 485.9599914550781 10.59000015258789
368.9500122070312 488.1700134277344 16.20000076293945
368.2699890136719 490.3099975585938 19.59000015258789
368.9200134277344 487.9800109863281 17.8799991607666
368.5599975585938 490.6499938964844 9.899999618530273
369.8399963378906 485.3699951171875 10.64000034332275
369.4400024414062 486.4299926757812 14.52000045776367
368.3599853515625 490.9100036621094 13.14000034332275
369.5799865722656 486.7000122070312 8.890000343322754
369.4800109863281 486.0199890136719 15.39999961853027
368.989990234375 487.6300048828125 18.70000076293945
368.5899963378906 489.3099975585938 18.25
369.2300109863281 486.8999938964844 16.22999954223633
369.6199951171875 485.2099914550781 16.8799991607666
369.260009765625 486.1300048828125 20.21999931335449
369.0499877929688 486.8900146484375 20.5
369.2999877929688 486.3699951171875 18.6200008392334
369.0499877929688 487.1799926757812 19.47999954223633
369.6900024414062 484.5599975585938 19.06999969482422
369.8500061035156 483.9800109863281 19.15999984741211
369.8399963378906 484.1799926757812 17.6200008392334
369.7300109863281 484.6900024414062 17.3799991607666
370.010009765625 483.7699890136719 16.22999954223633
368.8599853515625 487.8999938964844 19.72999954223633
370.1000061035156 483.3599853515625 16.97999954223633
369.3999938964844 485.6499938964844 20.6200008392334
369.5400085449219 486.1700134277344 13.64000034332275
369.5199890136719 485.7000122070312 16.23999977111816
370.1499938964844 483.5 15.21000003814697
369.489990234375 485.0799865722656 20.78000068664551
369.9599914550781 483.6400146484375 18.03000068664551
370.010009765625 483.9800109863281 14.78999996185303
369.4700012207031 485.7000122070312 18.54000091552734
367.8099975585938 493 14.02000045776367
368.3099975585938 491.7300109863281 9.449999809265137
368.1900024414062 492.2799987792969 9.010000228881836
368.5299987792969 487.3099975585938 17.29999923706055
368.1400146484375 491.9299926757812 12.5
368.9100036621094 486.3500061035156 13.89000034332275
368.9100036621094 486.2200012207031 15.39999961853027
368.6300048828125 486.9500122070312 17.96999931335449
368.25 488.239990234375 18.39999961853027
368.739990234375 485.8900146484375 20.76000022888184
368.8900146484375 485.5 19.38999938964844
369.239990234375 485.510009765625 10.81999969482422
368.6000061035156 486.6799926757812 19.30999946594238
369.1199951171875 485.25 16.3700008392334
369.6600036621094 482.9800109863281 16.90999984741211
369.5199890136719 483.4400024414062 16.56999969482422
369.1700134277344 484.5400085449219 18.19000053405762
368.7900085449219 486.3200073242188 17.88999938964844
369.3599853515625 483.6199951171875 19.17000007629395
368.4100036621094 487.6199951171875 18.3700008392334
369.0199890136719 485.7200012207031 15.76000022888184
368.9599914550781 485.1099853515625 20.17000007629395
368.7300109863281 486.1300048828125 19.6299991607666
369.2799987792969 484.0899963378906 18.88999938964844
367.1700134277344 493.2999877929688 14.30000019073486
367.0700073242188 493.8299865722656 14.14999961853027
367.5199890136719 491.739990234375 15.32999992370605
367.8399963378906 491.010009765625 12.60999965667725
367.7000122070312 492.2799987792969 8.460000038146973
367.8599853515625 491.3099975585938 9.460000038146973
367.8900146484375 491.010009765625 10.56999969482422
367.6499938964844 490.9400024414062 16.98999977111816
368.2699890136719 489.3699951171875 11.35000038146973
367.5400085449219 492.8699951171875 8.329999923706055
367.5400085449219 491.8900146484375 13.65999984741211
367.9599914550781 490.1400146484375 14.0600004196167
367.5199890136719 491.0299987792969 19.48999977111816
368.1900024414062 489.3200073242188 13.35999965667725
368.0899963378906 489.5899963378906 14.26000022888184
367.7999877929688 490.3500061035156 17.13999938964844
368.4200134277344 488.760009765625 11.35000038146973
367.6900024414062 491.2999877929688 13.64000034332275
367.9299926757812 490.5599975585938 13.23999977111816
367.5899963378906 491.4100036621094 16.30999946594238
367.9100036621094 490.0400085449219 15.85999965667725
368.1000061035156 489.7900085449219 12.90999984741211
369.0499877929688 486.6700134277344 8.470000267028809
367.9100036621094 489.7999877929688 17.29999923706055
367.6799926757812 490.260009765625 21.18000030517578
367.3699951171875 491.8800048828125 18.05999946594238
367.4100036621094 492.5700073242188 13.9399995803833
368.3699951171875 488.6300048828125 13.14999961853027
367.9599914550781 489.4400024414062 18.26000022888184
368.1799926757812 489.1499938964844 15.10000038146973
367.8999938964844 489.3399963378906 20.20999908447266
369.010009765625 487.0299987792969 7.340000152587891
367.8800048828125 489.7300109863281 19.30999946594238
368 490.5700073242188 11.10999965667725
367.9200134277344 489.0899963378906 21.54000091552734
367.760009765625 489.7000122070312 21.60000038146973
367.7000122070312 490.3800048828125 19.45000076293945
366.5299987792969 493.5499877929688 14.51000022888184
367.3800048828125 490.9299926757812 9.710000038146973
367.0199890136719 492.5400085449219 8.649999618530273
366.9299926757812 492.0599975585938 13.84000015258789
367.0899963378906 491.4299926757812 13.75
366.8900146484375 491.9299926757812 15.5600004196167
367.2699890136719 491.4500122070312 9.260000228881836
367.2200012207031 490.8900146484375 13.84000015258789
367.010009765625 491.1799926757812 17.1200008392334
367.1400146484375 492.010009765625 9.029999732971191
367.5299987792969 490.3699951171875 9.979999542236328
367.1600036621094 490.8099975585938 15.77000045776367
367.1499938964844 490.6300048828125 17.18000030517578
367.5 489.739990234375 13.89999961853027
367.0199890136719 490.8099975585938 20.13999938964844
367.3299865722656 489.9200134277344 16.95000076293945
367.2799987792969 490.2900085449219 15.96000003814697
367.5599975585938 489.4400024414062 15.22000026702881
366.7300109863281 492.1099853515625 18.31999969482422
367.1900024414062 490.0599975585938 19.54999923706055
367.2099914550781 489.75 20.81999969482422
366.9200134277344 493.1499938964844 8.529999732971191
367.1400146484375 489.9200134277344 21.48999977111816
366.8900146484375 491.489990234375 18.17000007629395
367.0299987792969 491.3800048828125 15.61999988555908
367.6199951171875 488.3900146484375 20.1200008392334
367.9299926757812 487.6099853515625 17.31999969482422
367.1799926757812 489.6199951171875 22.44000053405762
367.3500061035156 490.3099975585938 14.05000019073486
367.6700134277344 488.6000061035156 16.68000030517578
367.989990234375 487.1099853515625 17.86000061035156
367.1300048828125 490.4700012207031 18.95999908447266
368.010009765625 486.6499938964844 20.54000091552734
368.1400146484375 486.3200073242188 19.38999938964844
367.7999877929688 487.8200073242188 18.13999938964844
368.4400024414062 485.5700073242188 16.70999908447266
367.9800109863281 487.3800048828125 16.48999977111816
367.7900085449219 487.7200012207031 19.89999961853027
368.2999877929688 485.9200134277344 17.96999931335449
367.260009765625 489.4200134277344 21.60000038146973
366.9599914550781 491.1400146484375 19.07999992370605
368.6000061035156 484.9200134277344 16.77000045776367
368.4100036621094 485.7999877929688 15.5600004196167
368.7200012207031 484.3900146484375 17.06999969482422
368.7799987792969 484.1700134277344 16.35000038146973
367.0799865722656 490.3299865722656 20.44000053405762
368.5199890136719 485.3200073242188 15.82999992370605
368.4599914550781 485.3299865722656 18.15999984741211
368.5700073242188 484.4599914550781 19.71999931335449
369.0400085449219 483.0499877929688 16.76000022888184
368.2999877929688 485.3900146484375 20.55999946594238
368.2999877929688 486.0799865722656 16.48999977111816
368.5 484.9200134277344 19.04000091552734
368.2799987792969 485.6799926757812 19.39999961853027
368.8900146484375 483.6499938964844 16.72999954223633
366.7799987792969 492.7799987792969 14.07999992370605
368.9599914550781 483.3699951171875 17.78000068664551
368.1799926757812 485.9700012207031 20.48999977111816
368.739990234375 484.6099853515625 15.57999992370605
368.8200073242188 483.6300048828125 18.75
367.0599975585938 488.1499938964844 18.92000007629395
367.1300048828125 487.9700012207031 18.27000045776367
367.1000061035156 487.8200073242188 19.90999984741211
367.5 486.9299926757812 14.57999992370605
