399.739990234375 440.7699890136719 11.5600004196167
400.1600036621094 442.1199951171875 7.039999961853027
399.9599914550781 441.489990234375 6.920000076293945
399.6799926757812 440.5199890136719 10.86999988555908
399.5400085449219 440.1400146484375 11.48999977111816
399.1199951171875 438.260009765625 8.029999732971191
398.9100036621094 439.7900085449219 8.489999771118164
399.0299987792969 440.2300109863281 8.020000457763672
399.1199951171875 440.6499938964844 7.559999942779541
399.1600036621094 440.8599853515625 9.689999580383301
399.6300048828125 442.5700073242188 7.769999980926514
399.2300109863281 441.25 9.149999618530273
399.5199890136719 442.3699951171875 8.930000305175781
399.4200134277344 441.9400024414062 9.550000190734863
399.7000122070312 443 9.050000190734863
399.2799987792969 441.2900085449219 7.75
398.5499877929688 441.1900024414062 9.779999732971191
398.7200012207031 441.8999938964844 10.19999980926514
398.4200134277344 440.7000122070312 10.30000019073486
398.3699951171875 440.7699890136719 12.05000019073486
398.6499938964844 441.5400085449219 9.199999809265137
399.1099853515625 443.3500061035156 7.730000019073486
398.739990234375 441.8500061035156 7.03000020980835
399.0700073242188 443.1499938964844 8.789999961853027
398.8800048828125 442.6300048828125 10.67000007629395
398.9400024414062 442.7799987792969 7.78000020980835
398.0199890136719 439.0400085449219 9.069999694824219
398.2000122070312 439.8599853515625 7.949999809265137
397.5899963378906 440.010009765625 11.11999988555908
397.8500061035156 440.9299926757812 10.30000019073486
397.3999938964844 439.1000061035156 8.649999618530273
398.3200073242188 442.6799926757812 6.840000152587891
397.75 440.5199890136719 10.84000015258789
398.0499877929688 441.7799987792969 9.409999847412109
398.4599914550781 443.25 8.520000457763672
398.6400146484375 444.0499877929688 8.920000076293945
397.5599975585938 441.7099914550781 7.199999809265137
397.5899963378906 441.9599914550781 8.020000457763672
397.3699951171875 441.5199890136719 9.789999961853027
397.25 441.0199890136719 10.31999969482422
397.5199890136719 442.0400085449219 9.680000305175781
398.0199890136719 441.7699890136719 8.020000457763672
398.0400085449219 441.7099914550781 7.059999942779541
398.0700073242188 441.8299865722656 9.329999923706055
397.8699951171875 441.1000061035156 7.039999961853027
397.3599853515625 439.0700073242188 8.460000038146973
398.5899963378906 443.9299926757812 8.949999809265137
397.239990234375 438.5700073242188 8.279999732971191
398.4200134277344 443.3800048828125 8.350000381469727
397.6900024414062 440.2900085449219 10.89000034332275
397.8299865722656 440.8099975585938 10.30000019073486
397.9500122070312 441.3299865722656 10.61999988555908
398.1300048828125 442.1799926757812 7.03000020980835
399.010009765625 443.1600036621094 8.850000381469727
398.989990234375 443.1000061035156 7.900000095367432
399.0400085449219 443.1799926757812 9.779999732971191
398.6300048828125 441.6400146484375 10.01000022888184
398.7200012207031 442.010009765625 6.960000038146973
398.5700073242188 441.4400024414062 6.849999904632568
398.3699951171875 440.5899963378906 10.05000019073486
398.7999877929688 442.239990234375 11.10000038146973
398.760009765625 442.1600036621094 9.140000343322754
398.8900146484375 442.5400085449219 7.849999904632568
398.510009765625 441.1400146484375 9.850000381469727
398.0899963378906 439.4100036621094 8.130000114440918
398.2999877929688 440.1600036621094 11.39000034332275
399.5199890136719 442.3500061035156 8.930000305175781
399.4700012207031 442.2999877929688 7.659999847412109
398.9400024414062 440.1499938964844 7.889999866485596
398.8699951171875 439.8200073242188 10.76000022888184
399.6300048828125 442.9100036621094 8.899999618530273
398.7000122070312 439.1900024414062 8.680000305175781
399.3900146484375 441.8599853515625 9.489999771118164
399.1499938964844 440.7900085449219 9.5
399.3599853515625 441.7000122070312 6.829999923706055
399.239990234375 441.239990234375 7.849999904632568
398.8200073242188 439.6700134277344 8.640000343322754
399.25 441.3399963378906 9.5
399.6199951171875 440.1199951171875 11.14000034332275
399.7099914550781 440.5499877929688 10.55000019073486
399.6700134277344 440.3800048828125 7.760000228881836
399.4800109863281 439.6199951171875 11.81999969482422
399.239990234375 438.7900085449219 7.260000228881836
399.4400024414062 439.4299926757812 8.579999923706055
399.2799987792969 438.8699951171875 9.100000381469727
399.5299987792969 439.8999938964844 8.100000381469727
399.5799865722656 439.9800109863281 9.539999961853027
399.0499877929688 437.8800048828125 9.640000343322754
400.7300109863281 444.6199951171875 8.369999885559082
399.9299926757812 441.3999938964844 6.909999847412109
399.7200012207031 440.6099853515625 11.53999996185303
399.9400024414062 441.5199890136719 8.720000267028809
399.7799987792969 440.9800109863281 8.189999580383301
399.7699890136719 440.7099914550781 12.56999969482422
399.8099975585938 441.0799865722656 9.850000381469727
399.7900085449219 440.8699951171875 6.920000076293945
400.0499877929688 441.989990234375 7.730000019073486
400.2699890136719 440.5700073242188 6.340000152587891
400.0899963378906 439.7300109863281 9.789999961853027
400.239990234375 440.3800048828125 12.0600004196167
400.1799926757812 440.1700134277344 9.050000190734863
399.9200134277344 439.0700073242188 7.119999885559082
400.0400085449219 439.5599975585938 7.199999809265137
399.7900085449219 438.6300048828125 8.399999618530273
399.9500122070312 439.2200012207031 10.14999961853027
400.1300048828125 440 6.289999961853027
399.6499938964844 438.0499877929688 7.670000076293945
399.9200134277344 439.0899963378906 8.100000381469727
399.5499877929688 437.5599975585938 7.989999771118164
399.5599975585938 437.6600036621094 9.890000343322754
400 439.5400085449219 6.309999942779541
400.3500061035156 440.7699890136719 9.329999923706055
400.3900146484375 440.8900146484375 10.82999992370605
399.760009765625 438.5799865722656 7.320000171661377
401 443.3900146484375 7.809999942779541
401.2300109863281 444.3299865722656 6.46999979019165
400.6900024414062 442.1799926757812 6.050000190734863
401.1000061035156 443.8299865722656 6.670000076293945
400.6000061035156 441.760009765625 7.210000038146973
400.5599975585938 441.6600036621094 5.900000095367432
400.7999877929688 442.760009765625 6.300000190734863
400.4500122070312 441.2000122070312 7.300000190734863
400.9800109863281 443.3299865722656 6.670000076293945
400.3900146484375 441.1199951171875 6.019999980926514
400.8299865722656 442.8399963378906 7.590000152587891
400.6900024414062 442.2300109863281 7.429999828338623
400.4700012207031 441.2699890136719 8.789999961853027
401.3500061035156 442.2000122070312 9.380000114440918
401.2000122070312 441.5899963378906 8.699999809265137
401.0700073242188 440.9599914550781 6.46999979019165
400.9200134277344 440.3699951171875 6.599999904632568
401.260009765625 441.6900024414062 10.53999996185303
400.9400024414062 440.510009765625 8.640000343322754
400.5799865722656 439.0799865722656 10.35999965667725
401.0899963378906 441.0899963378906 8.819999694824219
400.4200134277344 438.3999938964844 9.050000190734863
400.6799926757812 439.3900146484375 7.199999809265137
400.5299987792969 438.8699951171875 7.400000095367432
400.6300048828125 439.1499938964844 11.63000011444092
400.760009765625 439.6600036621094 10.93000030517578
400.3900146484375 438.3099975585938 7.670000076293945
400.5400085449219 438.9500122070312 8.329999923706055
400.7999877929688 439.8800048828125 6.690000057220459
400.8800048828125 440.1499938964844 10.34000015258789
401.8900146484375 444.2099914550781 8.869999885559082
401.7099914550781 443.6600036621094 8.340000152587891
401.4400024414062 442.6000061035156 7.71999979019165
401.4200134277344 442.5199890136719 6.53000020980835
402.25 442.8500061035156 7.940000057220459
402.1199951171875 442.3200073242188 8.020000457763672
401.8299865722656 441.1700134277344 6.590000152587891
401.7900085449219 440.7999877929688 9.75
401.6400146484375 440.2099914550781 8.869999885559082
401.8999938964844 441.2699890136719 8.560000419616699
401.6000061035156 440.0899963378906 7.03000020980835
401.4599914550781 439.5299987792969 6.400000095367432
401.5199890136719 439.7300109863281 9.460000038146973
401.8999938964844 441.3500061035156 9.630000114440918
401.5299987792969 439.7900085449219 10.72000026702881
401.6900024414062 440.6000061035156 6.639999866485596
401.3099975585938 439 6.389999866485596
402.1799926757812 442.3599853515625 8.810000419616699
402.010009765625 441.8500061035156 8.920000076293945
402.8599853515625 442.6300048828125 9.550000190734863
402.739990234375 442.1300048828125 9.810000419616699
402.5799865722656 441.4700012207031 8.319999694824219
402.2799987792969 440.2900085449219 6.610000133514404
402.4500122070312 441 8.920000076293945
402.6199951171875 441.5799865722656 10.03999996185303
401.9100036621094 438.7099914550781 6.429999828338623
402.9599914550781 443 8.010000228881836
402.0599975585938 439.3599853515625 7.989999771118164
402.8399963378906 440.1700134277344 8.960000038146973
402.6499938964844 439.5700073242188 7.610000133514404
403.5599975585938 440.489990234375 8.529999732971191
403.5599975585938 440.5499877929688 9.819999694824219
403.1400146484375 438.9400024414062 8.579999923706055
403.4500122070312 440.0299987792969 8.899999618530273
404.010009765625 439.3399963378906 12.09000015258789
403.8900146484375 439.0599975585938 7.28000020980835
403.9500122070312 439.2999877929688 10.71000003814697
403.6400146484375 438.0799865722656 7.510000228881836
403.7900085449219 438.6300048828125 8.189999580383301
404.0799865722656 439.6799926757812 8.779999732971191
403.5499877929688 437.6099853515625 9.229999542236328
403.8200073242188 438.7099914550781 9.689999580383301
403.6799926757812 438.1400146484375 8.979999542236328
403.9400024414062 439.1199951171875 8.569999694824219
404.1300048828125 439.8299865722656 11.14000034332275
404.2099914550781 440.260009765625 10.17000007629395
404.1700134277344 440.1700134277344 8.409999847412109
404.3699951171875 440.7999877929688 10.10999965667725
405.2000122070312 441.4299926757812 7.599999904632568
405.0899963378906 441.1099853515625 10.51000022888184
404.9599914550781 440.5700073242188 10.48999977111816
404.9100036621094 440.4299926757812 8.180000305175781
405.0799865722656 440.9400024414062 7.980000019073486
404.9700012207031 440.5 9.760000228881836
404.7999877929688 439.9500122070312 8.869999885559082
404.8299865722656 440 9.970000267028809
404.7799987792969 439.6700134277344 12.51000022888184
404.8200073242188 439.8699951171875 8.279999732971191
404.5700073242188 438.8699951171875 8.720000267028809
404.6600036621094 439.4100036621094 8.020000457763672
404.6000061035156 439.0199890136719 11.71000003814697
405.25 441.6099853515625 10.34000015258789
404.260009765625 437.7099914550781 7.639999866485596
404.4100036621094 438.239990234375 7.829999923706055
404.6099853515625 439.0899963378906 12.48999977111816
404.1199951171875 437.1600036621094 7.510000228881836
404.5899963378906 438.9299926757812 10.19999980926514
404.3099975585938 437.8200073242188 8.779999732971191
404.6900024414062 439.489990234375 9.510000228881836
404.4800109863281 438.4599914550781 10.72999954223633
405.4400024414062 439.9100036621094 13.23999977111816
405.6099853515625 440.6499938964844 8.090000152587891
405.2799987792969 439.2799987792969 10.85000038146973
405.4800109863281 440.1499938964844 8.5
405.2200012207031 439.2099914550781 9.789999961853027
405.3900146484375 439.75 10.89999961853027
405.2699890136719 439.3399963378906 12.27000045776367
404.9800109863281 438.1300048828125 9.25
405.6199951171875 440.8500061035156 10.97000026702881
404.8200073242188 437.5499877929688 9.170000076293945
405.1900024414062 438.9599914550781 14.28999996185303
405.1799926757812 438.8699951171875 12.5600004196167
405.3200073242188 439.4400024414062 13.61999988555908
404.8800048828125 437.75 12.10000038146973
404.6700134277344 436.9599914550781 7.760000228881836
404.989990234375 438.239990234375 10.55000019073486
404.8200073242188 437.489990234375 8.079999923706055
405.5199890136719 440.260009765625 10.78999996185303
406.3200073242188 441 8.199999809265137
406.1600036621094 440.1600036621094 11.60999965667725
406.1000061035156 439.9800109863281 8.920000076293945
405.9800109863281 439.5799865722656 11.0600004196167
405.75 438.6499938964844 13.56999969482422
406.2099914550781 440.4100036621094 8.039999961853027
406.0299987792969 439.6400146484375 12.30000019073486
405.4400024414062 437.2999877929688 9.420000076293945
405.9700012207031 439.4200134277344 9
405.6799926757812 438.4200134277344 9.949999809265137
405.6600036621094 438.260009765625 8.039999961853027
405.5199890136719 437.7799987792969 7.860000133514404
405.8800048828125 439.1099853515625 12.55000019073486
405.8099975585938 438.9400024414062 9.340000152587891
405.8299865722656 438.8599853515625 8.039999961853027
405.5799865722656 437.8500061035156 8.949999809265137
406.4200134277344 438.5400085449219 8.109999656677246
406.4800109863281 438.6000061035156 9.060000419616699
406.3699951171875 438.1499938964844 10.05000019073486
406.2999877929688 437.9800109863281 8.100000381469727
406.1700134277344 437.4599914550781 8.239999771118164
407.2900085449219 439.25 8.5
406.9200134277344 437.6499938964844 8.199999809265137
407.1400146484375 438.7200012207031 8.460000038146973
407.0400085449219 438.1499938964844 8.369999885559082
407.6000061035156 437.9800109863281 8.609999656677246
407.6900024414062 438.4299926757812 8.399999618530273
407.4800109863281 438.9400024414062 8.489999771118164
407.2300109863281 437.8299865722656 8.5
407.3599853515625 438.3599853515625 8.380000114440918
406.739990234375 438.739990234375 8.189999580383301
406.4700012207031 437.6700134277344 8.130000114440918
406.6199951171875 438.25 8.140000343322754
406.6099853515625 438.3399963378906 9.899999618530273
405.7099914550781 437.5700073242188 7.809999942779541
405.760009765625 437.7900085449219 9.029999732971191
406.1799926757812 439.5299987792969 8.869999885559082
405.9400024414062 438.8999938964844 14.02999973297119
406.0400085449219 439.2099914550781 12.67000007629395
405.8200073242188 438.1700134277344 10
406.1799926757812 439.510009765625 11.21000003814697
406.3999938964844 440.4700012207031 11.85999965667725
406.3599853515625 440.0899963378906 8.930000305175781
406.0599975585938 438.8900146484375 9.029999732971191
406 438.6099853515625 8.109999656677246
406.6499938964844 441.2999877929688 8.310000419616699
406.3099975585938 440.0599975585938 11.48999977111816
406.1900024414062 439.75 12.72000026702881
405.8299865722656 438.0499877929688 7.96999979019165
405.6099853515625 439.5899963378906 10.14999961853027
405.7699890136719 440.0899963378906 8.010000228881836
405.5199890136719 439.3200073242188 11.22000026702881
405.3599853515625 438.8599853515625 13.15999984741211
405.4599914550781 439.3299865722656 13.46000003814697
405.3599853515625 439.0499877929688 14.6899995803833
405.8500061035156 440.6600036621094 12.31999969482422
405.6499938964844 439.9599914550781 13.1899995803833
405.6700134277344 439.8699951171875 11.15999984741211
405.7200012207031 440.2000122070312 11.97999954223633
405.1000061035156 437.3900146484375 7.519999980926514
404.9299926757812 436.7300109863281 7.71999979019165
405.1099853515625 437.5400085449219 9.189999580383301
405.3900146484375 438.760009765625 8.880000114440918
405.3200073242188 438.4500122070312 10.11999988555908
405.3200073242188 438.3699951171875 7.940000057220459
405.2099914550781 438.1099853515625 9.25
405.3500061035156 438.7799987792969 11.25
405.1799926757812 437.8200073242188 7.800000190734863
405.239990234375 438.3299865722656 13.25
405.2900085449219 438.6400146484375 14.14000034332275
405.4599914550781 439.0799865722656 9.869999885559082
404.3500061035156 437.4299926757812 8.590000152587891
404.3500061035156 437.1700134277344 7.460000038146973
404.5799865722656 438.260009765625 7.429999828338623
404.6600036621094 438.5199890136719 8.829999923706055
404.7699890136719 438.739990234375 5.349999904632568
404.7900085449219 438.9100036621094 7.130000114440918
404.8299865722656 439.1700134277344 8.390000343322754
404.7099914550781 438.8599853515625 9.550000190734863
404.5400085449219 438.260009765625 12.10000038146973
404.8299865722656 439.2699890136719 10.35999965667725
404.489990234375 437.989990234375 8.590000152587891
404.6099853515625 438.4700012207031 11.22999954223633
404.6799926757812 438.8699951171875 11.93000030517578
404.4500122070312 437.6199951171875 7.659999847412109
405.0899963378906 440.260009765625 8.350000381469727
404.9400024414062 439.75 10.52000045776367
404.8999938964844 439.7300109863281 12.85000038146973
404.9299926757812 439.6600036621094 8.539999961853027
405.1799926757812 440.8800048828125 10.64000034332275
404.7900085449219 439.4400024414062 14.07999992370605
405.3299865722656 441.3200073242188 11.09000015258789
404.7999877929688 439.3200073242188 12.47000026702881
405.0299987792969 440.0299987792969 9.489999771118164
405.3699951171875 441.4700012207031 10.35999965667725
404.9500122070312 439.9500122070312 11.90999984741211
403.8399963378906 438.2300109863281 8.989999771118164
403.6600036621094 437.5700073242188 9.239999771118164
403.6300048828125 437.3800048828125 7.559999942779541
404.2900085449219 440.239990234375 10.14000034332275
404.2699890136719 439.9299926757812 8.859999656677246
404.2000122070312 439.8999938964844 11.52000045776367
404.5499877929688 441.2900085449219 10.30000019073486
404.1199951171875 439.4100036621094 8.670000076293945
404.4200134277344 440.6499938964844 10.52000045776367
403.7799987792969 437.8900146484375 7.800000190734863
404.0899963378906 439.1199951171875 7.320000171661377
403.9400024414062 438.5499877929688 7.619999885559082
403.9800109863281 438.7799987792969 8.909999847412109
404.0799865722656 439.489990234375 10.9399995803833
403.4400024414062 439.4100036621094 7.46999979019165
403.2200012207031 438.6099853515625 8.729999542236328
403.7000122070312 440.5899963378906 9.840000152587891
403.3999938964844 439.2000122070312 8.470000267028809
403.6600036621094 440.2900085449219 8.770000457763672
403.1300048828125 438.2200012207031 8.039999961853027
403.5400085449219 439.7900085449219 8.529999732971191
403.7699890136719 440.9800109863281 10.53999996185303
402.9100036621094 439.7300109863281 7.489999771118164
403.0899963378906 440.4299926757812 9.229999542236328
402.1099853515625 439.2799987792969 8.189999580383301
402.3299865722656 440.0199890136719 7.25
402.3599853515625 440.3299865722656 8.409999847412109
402.7900085449219 441.8699951171875 6.519999980926514
402.8500061035156 442.2300109863281 9.770000457763672
402.6900024414062 441.6099853515625 10.01000022888184
401.7000122070312 440.3900146484375 6.920000076293945
401.75 440.8200073242188 9.800000190734863
401.9700012207031 441.5299987792969 6.78000020980835
401.8999938964844 441.4299926757812 9.739999771118164
402.1199951171875 442.2200012207031 8.800000190734863
401.8299865722656 441.1300048828125 8.680000305175781
402.239990234375 442.7900085449219 8.989999771118164
401.5499877929688 440.1000061035156 10.63000011444092
402.0799865722656 442.25 11.21000003814697
401.4700012207031 439.4100036621094 6.409999847412109
402.3200073242188 443.0299987792969 8.010000228881836
400.5299987792969 438.6300048828125 8.979999542236328
401.0199890136719 440.3699951171875 6.519999980926514
400.989990234375 440.3900146484375 8.529999732971191
401.260009765625 441.4500122070312 6.409999847412109
400.6300048828125 438.989990234375 7.409999847412109
401.3399963378906 441.9700012207031 9.079999923706055
401.4400024414062 442.1700134277344 8.079999923706055
401.2999877929688 441.9800109863281 11.27000045776367
401.3500061035156 441.8299865722656 6.909999847412109
401.260009765625 441.6499938964844 10.26000022888184
401.1400146484375 440.8699951171875 6.619999885559082
400.6900024414062 439.1900024414062 6.590000152587891
401.1900024414062 441.3699951171875 8.960000038146973
401.5700073242188 442.7999877929688 7.769999980926514
401.8200073242188 443.739990234375 8.310000419616699
401.4200134277344 442.2099914550781 10.10999965667725
400.0199890136719 439.0899963378906 10.1899995803833
400.2699890136719 439.8999938964844 6.820000171661377
400.3200073242188 440.1600036621094 10.25
400.1700134277344 439.5400085449219 8.239999771118164
400.6300048828125 441.1300048828125 6.079999923706055
400.2099914550781 439.7799987792969 9.520000457763672
399.9599914550781 438.6400146484375 7.309999942779541
400.6799926757812 441.5499877929688 9.239999771118164
400.3099975585938 440.260009765625 12.28999996185303
400.5299987792969 440.9500122070312 6.980000019073486
401.2699890136719 443.8599853515625 6.769999980926514
399.8699951171875 438.3699951171875 8.5
401.0700073242188 443.010009765625 7.800000190734863
400.9200134277344 442.4500122070312 7.639999866485596
401.1700134277344 443.5400085449219 8.090000152587891
401.1400146484375 443.3399963378906 6.550000190734863
400.7000122070312 441.5400085449219 6.800000190734863
400.489990234375 440.8800048828125 9.630000114440918
400.1199951171875 439.2000122070312 7.420000076293945
399.8699951171875 441.1700134277344 9.789999961853027
399.989990234375 441.3999938964844 8.630000114440918
400.0499877929688 441.6700134277344 7.460000038146973
399.8399963378906 441.0599975585938 12.35999965667725
399.9599914550781 441.5299987792969 12.64000034332275
400.7000122070312 444.2799987792969 8.100000381469727
399.1600036621094 438.1799926757812 8.039999961853027
399.5899963378906 439.8599853515625 8.069999694824219
399.4100036621094 439.1400146484375 8.729999542236328
399.8900146484375 440.989990234375 8.039999961853027
399.7699890136719 440.739990234375 11.46000003814697
400 441.3200073242188 6.619999885559082
399.6400146484375 440.2799987792969 11.0600004196167
399.2699890136719 438.760009765625 10.32999992370605
398.6000061035156 438.8200073242188 8.869999885559082
398.7300109863281 439.6000061035156 10.55000019073486
398.9200134277344 440.2999877929688 9.899999618530273
398.9700012207031 440.2099914550781 7.78000020980835
399.2900085449219 441.5599975585938 6.820000171661377
399.5 442.4599914550781 7.809999942779541
399.1000061035156 440.989990234375 9.300000190734863
399.6799926757812 443.2200012207031 9.229999542236328
398.8800048828125 440.0499877929688 11.02000045776367
399.2099914550781 441.3399963378906 7.78000020980835
399.25 441.4500122070312 9.439999580383301
399.4100036621094 442.1300048828125 9.119999885559082
398.3599853515625 440.6499938964844 10.19999980926514
398.5400085449219 441.4800109863281 9.130000114440918
398.0599975585938 439.4299926757812 8.069999694824219
398.8099975585938 442.6799926757812 11.03999996185303
399 443.1799926757812 8.720000267028809
399.0799865722656 443.3900146484375 7.860000133514404
398.9400024414062 443.0199890136719 9.460000038146973
398.6900024414062 441.9200134277344 9.560000419616699
398.510009765625 441.260009765625 10.14999961853027
397.8999938964844 441.3699951171875 10.67000007629395
398.6300048828125 443.9700012207031 8.970000267028809
398.3299865722656 442.760009765625 6.869999885559082
398.0400085449219 441.6600036621094 9.390000343322754
398.1700134277344 442.1700134277344 9.550000190734863
397.489990234375 439.5899963378906 8.699999809265137
397.6199951171875 440.1400146484375 11.01000022888184
397.8900146484375 441.0799865722656 7.119999885559082
397.3999938964844 439.0799865722656 8.449999809265137
397.4500122070312 441.8999938964844 7.079999923706055
397.3099975585938 441.5199890136719 8.739999771118164
397.5199890136719 442.3299865722656 10.19999980926514
407.1900024414062 438.6400146484375 8.449999809265137
407.0299987792969 437.9800109863281 8.329999923706055
406.9299926757812 437.489990234375 8.029999732971191
406.489990234375 438.5 8.109999656677246
406.3399963378906 437.8900146484375 8.029999732971191
406.4200134277344 438.239990234375 9.880000114440918
406.0199890136719 439.1099853515625 12.55000019073486
405.8200073242188 438.3800048828125 11.38000011444092
406 438.9800109863281 14.14000034332275
406.3999938964844 440.7200012207031 8.210000038146973
405.9500122070312 438.9299926757812 8.979999542236328
405.5400085449219 437.2900085449219 9.340000152587891
405.8699951171875 438.6700134277344 8.140000343322754
405.9100036621094 438.489990234375 13.69999980926514
406.1300048828125 439.7200012207031 8.920000076293945
406.2300109863281 439.8599853515625 11.14000034332275
405.75 438.0599975585938 7.940000057220459
405.5599975585938 437.4400024414062 7.849999904632568
406.010009765625 439.1300048828125 9.930000305175781
405.8399963378906 438.3699951171875 10.01000022888184
405.5700073242188 439.4100036621094 12.39999961853027
405.3999938964844 438.760009765625 11.14999961853027
405.4100036621094 438.7699890136719 9.829999923706055
405.4299926757812 438.8500061035156 13.44999980926514
405.7799987792969 440.4800109863281 8.039999961853027
405.0899963378906 437.7300109863281 7.980000019073486
404.9700012207031 437.2699890136719 7.590000152587891
405.2799987792969 438.4400024414062 9.210000038146973
405.2699890136719 438.4100036621094 7.909999847412109
405.3399963378906 438.4700012207031 12.92000007629395
405.4800109863281 439.1700134277344 9.060000419616699
405.7099914550781 439.9299926757812 11.4399995803833
405.1300048828125 437.7200012207031 9.180000305175781
404.5899963378906 438.2000122070312 7.579999923706055
404.7300109863281 438.8299865722656 6.409999847412109
404.3099975585938 437.0299987792969 7.260000228881836
404.4700012207031 437.6199951171875 8.739999771118164
404.7099914550781 438.6900024414062 5.46999979019165
404.3999938964844 437.5299987792969 7.670000076293945
405.2799987792969 440.75 10.71000003814697
404.8200073242188 438.8599853515625 11.65999984741211
404.9800109863281 439.5 14.3100004196167
405.010009765625 439.7000122070312 10.11999988555908
404.6799926757812 438.3299865722656 11.46000003814697
404.8399963378906 439.010009765625 10.13000011444092
405.0299987792969 439.8399963378906 8.659999847412109
404.8999938964844 439.1799926757812 12.31999969482422
404.6499938964844 438.3099975585938 8.810000419616699
404.9100036621094 439.1799926757812 13.60000038146973
403.8500061035156 438.0199890136719 7.630000114440918
404.7799987792969 438.8599853515625 7.699999809265137
403.7099914550781 437.4299926757812 7.510000228881836
404.5700073242188 438.0199890136719 10.5600004196167
405.3800048828125 441.2099914550781 11.14999961853027
404.75 438.7699890136719 9.180000305175781
403.8200073242188 437.8099975585938 9.329999923706055
404.1300048828125 439.0299987792969 12.10000038146973
404.3900146484375 440.1199951171875 10.09000015258789
404.5400085449219 440.6199951171875 10.39000034332275
404.2200012207031 439.5 8.689999580383301
403.9200134277344 438.2900085449219 9.670000076293945
404.4299926757812 440.2699890136719 8.619999885559082
404.1499938964844 439.1600036621094 10.64999961853027
404.2200012207031 439.4800109863281 11.31999969482422
403.989990234375 438.6000061035156 9.100000381469727
403.9700012207031 441.0499877929688 10.5
403.25 438.1799926757812 7.880000114440918
403.5299987792969 439.3500061035156 8.409999847412109
403.6400146484375 439.8299865722656 8.880000114440918
403.2900085449219 438.4400024414062 8.739999771118164
403.4500122070312 439.1300048828125 7.460000038146973
403.2000122070312 440.1700134277344 9.020000457763672
402.2300109863281 438.9200134277344 8.270000457763672
402.6099853515625 440.5400085449219 9.109999656677246
400.9299926757812 439.0700073242188 6.559999942779541
402.0899963378906 441.1499938964844 8.680000305175781
401.760009765625 442.4200134277344 9.510000228881836
401.6099853515625 441.7900085449219 8.079999923706055
401.4599914550781 441.260009765625 6.480000019073486
401.3900146484375 440.9299926757812 8.329999923706055
401.2300109863281 440.3599853515625 8.180000305175781
401.2900085449219 440.510009765625 6.559999942779541
401.8099975585938 442.6799926757812 7.789999961853027
401.489990234375 441.2999877929688 8.989999771118164
401.6099853515625 443.8800048828125 8.630000114440918
401.4500122070312 443.3699951171875 8.210000038146973
401 441.510009765625 7.900000095367432
400.3200073242188 438.8200073242188 10.32999992370605
400.6099853515625 440.0499877929688 8.050000190734863
400.4400024414062 439.25 8.350000381469727
401.1700134277344 442.3399963378906 7.730000019073486
400.7300109863281 440.5700073242188 8.510000228881836
400.8599853515625 440.989990234375 6.389999866485596
400.2200012207031 438.4500122070312 7.269999980926514
401.0400085449219 441.6700134277344 10.0600004196167
401.010009765625 441.5700073242188 9.069999694824219
400.0799865722656 440.25 12.36999988555908
400.25 441 9.630000114440918
400.2200012207031 440.8599853515625 11.22000026702881
400.4299926757812 441.7000122070312 9.720000267028809
400.0400085449219 440.3599853515625 9.569999694824219
400.2699890136719 441.2699890136719 6.559999942779541
400.3800048828125 441.5400085449219 8.630000114440918
399.8699951171875 439.75 8.130000114440918
400.2900085449219 441.239990234375 7.849999904632568
399.8399963378906 439.4100036621094 9.989999771118164
400.9599914550781 443.9500122070312 7.96999979019165
399.6099853515625 438.5499877929688 7.630000114440918
399.6600036621094 438.8699951171875 8.380000114440918
400.2200012207031 441.1199951171875 5.510000228881836
400.0799865722656 440.3800048828125 8.229999542236328
399.8599853515625 439.5700073242188 7.130000114440918
398.8399963378906 440.6099853515625 11.56999969482422
399.0299987792969 441.489990234375 9.859999656677246
399.3099975585938 442.5599975585938 7.909999847412109
399.0799865722656 441.7200012207031 6.869999885559082
398.5700073242188 439.8200073242188 7.78000020980835
399.25 442.3500061035156 9.550000190734863
399.5799865722656 441.1499938964844 8.739999771118164
398.4800109863281 439.260009765625 8.789999961853027
399.4200134277344 440.5599975585938 8.560000419616699
399.7099914550781 441.7699890136719 8.800000190734863
399.6000061035156 441.1099853515625 12.53999996185303
399.3399963378906 440.3299865722656 7.670000076293945
399.5199890136719 440.9700012207031 7.840000152587891
399.6199951171875 441.489990234375 6.860000133514404
399.239990234375 439.8800048828125 9.829999923706055
398.3500061035156 440.8399963378906 10.21000003814697
398.6099853515625 441.9700012207031 6.880000114440918
398.489990234375 441.3999938964844 9.189999580383301
398.4500122070312 441.3099975585938 8.060000419616699
397.9200134277344 439.2900085449219 8.050000190734863
398.75 442.3699951171875 11.15999984741211
397.8800048828125 441.7699890136719 9.439999580383301
397.8599853515625 441.6199951171875 7.050000190734863
406.989990234375 441.2699890136719 8.369999885559082
407.6000061035156 438.8299865722656 8.380000114440918
407.7200012207031 438.2300109863281 8.460000038146973
406.2999877929688 441.3699951171875 8.149999618530273
406.5299987792969 440.3399963378906 8.699999809265137
406.6400146484375 439.8800048828125 9.050000190734863
406.4200134277344 440.8500061035156 8.260000228881836
407.1900024414062 437.7999877929688 8.439999580383301
406.3900146484375 440.2999877929688 11.68000030517578
407.0499877929688 438.4500122070312 8.359999656677246
405.4400024414062 441.4100036621094 11.0600004196167
405.8800048828125 440.2300109863281 7.960000038146973
405.6600036621094 440.6700134277344 10.85000038146973
406.0799865722656 439.5299987792969 7.829999923706055
405.7200012207031 440.8900146484375 7.960000038146973
405.7300109863281 440.2099914550781 11.17000007629395
406.010009765625 439.260009765625 10.22000026702881
405.7900085449219 439.8800048828125 11.94999980926514
406.0400085449219 439.3900146484375 9
405.8699951171875 439.6400146484375 11.17000007629395
405.9299926757812 439.9500122070312 8.899999618530273
406.1799926757812 438.6199951171875 9.949999809265137
406.4400024414062 437.9100036621094 8.130000114440918
405.8699951171875 439.4800109863281 12.39000034332275
405.9800109863281 438.989990234375 12.68000030517578
405.7999877929688 439.4200134277344 13.77999973297119
406.3099975585938 438.4599914550781 8
406.3699951171875 437.9500122070312 9.859999656677246
405.9200134277344 438.8699951171875 14.01000022888184
405.0599975585938 440.3200073242188 10.6899995803833
405.3800048828125 439.4800109863281 8.420000076293945
405.0400085449219 441.1099853515625 7.849999904632568
405.4200134277344 439.2200012207031 9.359999656677246
405.25 440.0299987792969 8.329999923706055
404.9400024414062 440.8200073242188 10.52000045776367
405.1000061035156 440.6400146484375 8.149999618530273
405.260009765625 439.6900024414062 10.48999977111816
404.8599853515625 441.2999877929688 9.989999771118164
405.6000061035156 438.739990234375 8.050000190734863
405.2099914550781 439.2900085449219 12.88000011444092
405.2099914550781 439.510009765625 11.69999980926514
405.4500122070312 438.8699951171875 10
405.7200012207031 438.1700134277344 8.119999885559082
405.1099853515625 439.7699890136719 12.51000022888184
405.3699951171875 439.1799926757812 10.77999973297119
405.1600036621094 439.2200012207031 14.27999973297119
405.2799987792969 439.8500061035156 9.310000419616699
405.3599853515625 438.6900024414062 12.84000015258789
405.4200134277344 438.739990234375 11.38000011444092
405.2900085449219 438.6900024414062 14.59000015258789
405.4200134277344 438.2699890136719 13.51000022888184
405.0899963378906 439.6499938964844 13.97000026702881
404.6099853515625 439.9100036621094 10.72000026702881
404.9400024414062 438.6300048828125 10.4399995803833
404.6000061035156 439.6099853515625 11.51000022888184
404.8200073242188 438.6199951171875 12.05000019073486
404.8399963378906 439.0299987792969 9.920000076293945
404.9800109863281 438.2099914550781 10.84000015258789
404.7099914550781 439.1099853515625 11.82999992370605
405.0799865722656 438.25 9.420000076293945
404.9400024414062 438.0700073242188 12.34000015258789
404.7999877929688 439.3999938964844 9.329999923706055
405.2099914550781 437.6099853515625 9.260000228881836
404.5299987792969 439.9100036621094 12.25
404.3500061035156 440.8999938964844 10.10999965667725
404.4800109863281 440.3399963378906 10.25
404.6900024414062 439.7999877929688 8.840000152587891
404.5899963378906 440.260009765625 8.470000267028809
404.2699890136719 441.3599853515625 9.640000343322754
404.1499938964844 439.3900146484375 8.649999618530273
404.3099975585938 438.7699890136719 8.590000152587891
404.010009765625 439.9800109863281 8.630000114440918
404.4299926757812 438.2200012207031 8.840000152587891
404.6000061035156 437.7900085449219 7.619999885559082
404.489990234375 438.3699951171875 7.460000038146973
404.2000122070312 438.8399963378906 10.40999984741211
404.010009765625 439.4400024414062 12.02000045776367
404.2900085449219 438.3599853515625 10.92000007629395
403.989990234375 439.6700134277344 11.05000019073486
404.5899963378906 437.5799865722656 8.760000228881836
403.8200073242188 440.489990234375 9.960000038146973
404.760009765625 437.2000122070312 7.71999979019165
404.3200073242188 438.5299987792969 9.560000419616699
404.1499938964844 438.8099975585938 12.0600004196167
404.2000122070312 439.5799865722656 7.5
402.5899963378906 443.0400085449219 8.029999732971191
402.7000122070312 442.3099975585938 9.439999580383301
403.1199951171875 440.7099914550781 8.439999580383301
403.4700012207031 439.4700012207031 8.409999847412109
403.5799865722656 438.9700012207031 8.630000114440918
403.2000122070312 440.2799987792969 8.970000267028809
403.5799865722656 439.0799865722656 7.360000133514404
403.6400146484375 438.5899963378906 9.220000267028809
404 437.4599914550781 7.679999828338623
403.8599853515625 437.5299987792969 9.670000076293945
403.7799987792969 437.9800109863281 9.140000343322754
403.7300109863281 438.5899963378906 7.610000133514404
402.0199890136719 442.6700134277344 7.949999809265137
401.6700134277344 444.0499877929688 8.529999732971191
402.1199951171875 442.1799926757812 8.300000190734863
401.9299926757812 442.6700134277344 9.590000152587891
402.1900024414062 441.5499877929688 9.909999847412109
402.3399963378906 441.1600036621094 8.810000419616699
403.0400085449219 438.25 9.029999732971191
402.7200012207031 439.9400024414062 7.090000152587891
402.2200012207031 441.7999877929688 8.729999542236328
402.8099975585938 439.489990234375 7.630000114440918
403.1700134277344 437.9100036621094 8.119999885559082
402.6799926757812 440.3299865722656 6.53000020980835
401.1300048828125 444.2000122070312 6.460000038146973
401.4400024414062 442.9500122070312 6.380000114440918
401.2000122070312 443.5799865722656 8.100000381469727
401.8999938964844 441.1400146484375 6.550000190734863
401.6300048828125 441.7999877929688 8.340000152587891
401.25 443.6499938964844 6.75
401.3999938964844 442.8500061035156 7.670000076293945
402.0799865722656 440.0199890136719 8.539999961853027
401.5 441.7099914550781 11.39999961853027
402.0599975585938 440.510009765625 6.489999771118164
401.739990234375 441.2900085449219 8.520000457763672
402.1799926757812 439.6799926757812 7.679999828338623
401.5700073242188 442.2799987792969 7.880000114440918
401.8900146484375 440.5199890136719 9.909999847412109
401.6199951171875 441.6099853515625 9.369999885559082
402.1000061035156 440.1499938964844 7.090000152587891
401.9200134277344 440.5899963378906 8.390000343322754
401.5 441.9299926757812 10.30000019073486
401.0400085449219 441.7799987792969 7.78000020980835
400.8200073242188 442.9800109863281 6.28000020980835
401.3599853515625 440.7000122070312 6.460000038146973
400.9800109863281 441.4599914550781 10.27000045776367
400.9100036621094 441.9100036621094 9.689999580383301
401.239990234375 441.260009765625 6.360000133514404
401.010009765625 441.5299987792969 8.670000076293945
401.260009765625 440.7300109863281 8.300000190734863
401.25 440.260009765625 10.39000034332275
401.8200073242188 438.8299865722656 6.429999828338623
400.9299926757812 442.2200012207031 7.510000228881836
401.1499938964844 440.8500061035156 10.17000007629395
401.6799926757812 439.4599914550781 6.389999866485596
401.3099975585938 439.8800048828125 10.96000003814697
401.4299926757812 440.2000122070312 6.809999942779541
401.3299865722656 440.3900146484375 8.909999847412109
399.8999938964844 443.0400085449219 9.079999923706055
400.3500061035156 441.8699951171875 5.920000076293945
400.2999877929688 441.7200012207031 7.190000057220459
400.4700012207031 441.3200073242188 6.099999904632568
400.2999877929688 441.510009765625 8.279999732971191
400.1799926757812 442.3099975585938 7.079999923706055
400.4400024414062 440.7000122070312 9.460000038146973
400.3999938964844 440.4200134277344 12.14000034332275
400.9200134277344 439.3099975585938 7.329999923706055
400.5799865722656 439.8699951171875 10.69999980926514
400.3099975585938 441.0899963378906 10.56999969482422
400.8500061035156 439.6700134277344 6.659999847412109
400.2999877929688 440.8399963378906 11.52999973297119
400.6900024414062 439.4400024414062 11.10000038146973
400.5400085449219 440.3399963378906 10.14000034332275
400.6799926757812 440.2900085449219 6.53000020980835
401.010009765625 438.8599853515625 7.840000152587891
400.3900146484375 441.0599975585938 8.699999809265137
400.760009765625 439.4700012207031 9.550000190734863
400.8699951171875 438.7699890136719 10.8100004196167
399.3500061035156 442.6000061035156 8.779999732971191
399.25 442.9100036621094 9.729999542236328
399.489990234375 441.8900146484375 10.09000015258789
399.5199890136719 441.9599914550781 8.800000190734863
399.3800048828125 442.8399963378906 7.860000133514404
399.5 442.2300109863281 7.760000228881836
399.8699951171875 441.1499938964844 6.5
399.7900085449219 441.0400085449219 7.860000133514404
399.2300109863281 443.1199951171875 8.75
399.6499938964844 441.4700012207031 8.960000038146973
399.9299926757812 440.2900085449219 9.050000190734863
399.6199951171875 441.0700073242188 11.22000026702881
399.6099853515625 440.8500061035156 12.43000030517578
399.989990234375 439.8599853515625 9.729999542236328
399.8099975585938 440.760009765625 8.75
400.1799926757812 438.9500122070312 10.36999988555908
400.1600036621094 439.3900146484375 8.460000038146973
400.1300048828125 439.3299865722656 9.850000381469727
399.3299865722656 442.4500122070312 10.03999996185303
399.8900146484375 439.9100036621094 11.42000007629395
400.3800048828125 438.4200134277344 8.939999580383301
400.25 438.9599914550781 8.720000267028809
399.9299926757812 440.5499877929688 8.159999847412109
399.7000122070312 441.1700134277344 9.850000381469727
399.8200073242188 440.3900146484375 11.06999969482422
398.8599853515625 442.510009765625 7.670000076293945
398.7799987792969 442.9800109863281 7.510000228881836
399.1400146484375 441.5499877929688 6.880000114440918
398.6499938964844 443.3699951171875 8.439999580383301
398.9800109863281 441.8699951171875 9.340000152587891
398.9800109863281 442.2000122070312 6.840000152587891
398.8699951171875 442.3200073242188 8.970000267028809
399.1400146484375 441.1300048828125 9
399.4400024414062 440.1300048828125 8.010000228881836
399.010009765625 441.4599914550781 9.970000267028809
399.5499877929688 439.5899963378906 8.270000457763672
399.5 439.5599975585938 10.01000022888184
399.3399963378906 439.7099914550781 11.89000034332275
399.7000122070312 438.9700012207031 8.350000381469727
399.5799865722656 439.1400146484375 10.47000026702881
399.8299865722656 438.4400024414062 8.520000457763672
399.2300109863281 440.6700134277344 9.420000076293945
399.6099853515625 439.2099914550781 9.039999961853027
399.6799926757812 438.8299865722656 9.529999732971191
399.3500061035156 440.5700073242188 7.599999904632568
399.1799926757812 441.3299865722656 7.869999885559082
399.3500061035156 440.1300048828125 9.779999732971191
398.7099914550781 442.9200134277344 8.800000190734863
398.739990234375 442.4599914550781 11
399.9200134277344 438 8.869999885559082
398.3500061035156 442.3699951171875 6.869999885559082
398.4800109863281 441.5899963378906 7.940000057220459
398.489990234375 441.8099975585938 6.929999828338623
398.4400024414062 441.4700012207031 9.210000038146973
398.2699890136719 442.1799926757812 9.510000228881836
398.7900085449219 440.2699890136719 7.75
399.0299987792969 439 9.189999580383301
398.7699890136719 439.9500122070312 10.11999988555908
398.6199951171875 440.3999938964844 11.30000019073486
398.8200073242188 439.5499877929688 10.68000030517578
399.260009765625 438 9.770000457763672
399.3599853515625 437.9800109863281 8.069999694824219
398.6000061035156 440.6700134277344 10.32999992370605
398.510009765625 441.1000061035156 9.890000343322754
397.6900024414062 441.8599853515625 8.020000457763672
397.7999877929688 441.5599975585938 7.21999979019165
398.1499938964844 439.8699951171875 7.820000171661377
397.9100036621094 440.3699951171875 10.78999996185303
397.8399963378906 440.75 10.15999984741211
397.7000122070312 441.3200073242188 10.02999973297119
397.0199890136719 441.8299865722656 7.289999961853027
397.5899963378906 439.2799987792969 8.529999732971191
397.5 439.260009765625 8.359999656677246
396.9800109863281 441.3900146484375 8.760000228881836
398.0799865722656 439.4500122070312 8.300000190734863
397.9800109863281 440.1900024414062 10.80000019073486
397.8399963378906 440.6900024414062 10.28999996185303
397.6900024414062 441.2699890136719 10.89000034332275
398.1799926757812 438.9700012207031 7.920000076293945
397.7200012207031 441.2300109863281 10.09000015258789
397.5299987792969 441.5499877929688 7.179999828338623
398.239990234375 439.0299987792969 8.869999885559082
399.260009765625 437.6400146484375 8.130000114440918
399.1400146484375 438.1900024414062 8.050000190734863
399.0199890136719 438.7999877929688 9.430000305175781
398.6499938964844 440.5 11.60999965667725
398.25 441.9400024414062 9.319999694824219
398.3299865722656 441.4500122070312 9.300000190734863
398.7799987792969 439.9299926757812 10.84000015258789
398.3500061035156 441.3399963378906 8.270000457763672
398.2200012207031 441.7900085449219 7.03000020980835
398.510009765625 440.8900146484375 9.949999809265137
398.3500061035156 441.4700012207031 10.14999961853027
399.75 438.3999938964844 7.570000171661377
399.5400085449219 439.7000122070312 11.90999984741211
399.3900146484375 440.1000061035156 9.800000190734863
399.4700012207031 439.5 8.649999618530273
399.2699890136719 440.8099975585938 12.10000038146973
399.6099853515625 438.9500122070312 8.939999580383301
399.6000061035156 438.8699951171875 7.75
399.2000122070312 440.6199951171875 9.340000152587891
398.9700012207031 441.7000122070312 10.01000022888184
398.9299926757812 441.6799926757812 9.189999580383301
399.7300109863281 438.4299926757812 8.640000343322754
399.3299865722656 439.9700012207031 7.889999866485596
399.5899963378906 438.7999877929688 6.769999980926514
399.1000061035156 441.1300048828125 9.930000305175781
398.8099975585938 442.1700134277344 9.010000228881836
399.0899963378906 441.0700073242188 9.020000457763672
398.7099914550781 442.8800048828125 11.22000026702881
398.8200073242188 442.3299865722656 11.06999969482422
398.6400146484375 442.6000061035156 6.78000020980835
398.6600036621094 442.6700134277344 8
398.9500122070312 441.5299987792969 6.730000019073486
398.5299987792969 443.2200012207031 8.460000038146973
398.8200073242188 442.0799865722656 6.909999847412109
399.1799926757812 440.5199890136719 7.639999866485596
400.3999938964844 438.0799865722656 7.289999961853027
400.2900085449219 438.8500061035156 10.47000026702881
400.2799987792969 438.7200012207031 8.760000228881836
400.2999877929688 438.6499938964844 7.28000020980835
400.1700134277344 439.2900085449219 9.899999618530273
400.4599914550781 438.2099914550781 9.340000152587891
400.1799926757812 439.1400146484375 7.21999979019165
399.9200134277344 440.3900146484375 10.81999969482422
400.4400024414062 438.239990234375 10.1899995803833
400.0599975585938 439.9100036621094 11.40999984741211
400.0299987792969 439.6400146484375 7.139999866485596
399.8200073242188 440.9800109863281 12.46000003814697
399.7999877929688 440.9100036621094 11.27999973297119
400.0700073242188 439.8299865722656 9.720000267028809
399.9299926757812 440.239990234375 8.399999618530273
400.1900024414062 439.3900146484375 11.52999973297119
399.760009765625 440.6700134277344 7.599999904632568
399.9700012207031 440.4800109863281 12.23999977111816
399.5199890136719 441.8599853515625 9.369999885559082
400.1499938964844 439.2200012207031 8.439999580383301
399.489990234375 441.7000122070312 6.920000076293945
399.8999938964844 440.2799987792969 9.090000152587891
399.6700134277344 441.3500061035156 9.119999885559082
399.3500061035156 442.3200073242188 7.71999979019165
399.8099975585938 440.8299865722656 9.960000038146973
399.1400146484375 443.3500061035156 7.829999923706055
399.1099853515625 443.4100036621094 8.880000114440918
399.3999938964844 442.3599853515625 8.970000267028809
399.3900146484375 442.4200134277344 9.829999923706055
399.2699890136719 442.8699951171875 8.670000076293945
400.8900146484375 438.7900085449219 6.550000190734863
400.9400024414062 439.0599975585938 10.43000030517578
400.6000061035156 439.8599853515625 6.71999979019165
400.9100036621094 438.8900146484375 7.690000057220459
400.6499938964844 440.25 12.3100004196167
400.3599853515625 440.9400024414062 6.429999828338623
400.739990234375 439.3599853515625 7.440000057220459
400.7900085449219 439.5599975585938 10.97000026702881
400.3800048828125 441.0299987792969 8.470000267028809
400.2099914550781 441.5799865722656 8.199999809265137
400.5400085449219 440.7300109863281 11.84000015258789
400.510009765625 440.6499938964844 10.86999988555908
400.6600036621094 440.1099853515625 10.39999961853027
400.5 440.4100036621094 6.539999961853027
399.8500061035156 443.2799987792969 9.279999732971191
399.9500122070312 442.6900024414062 8.899999618530273
400.0700073242188 442.0799865722656 7.440000057220459
400.2000122070312 441.4599914550781 6.869999885559082
400.489990234375 440.6099853515625 9.579999923706055
400.7699890136719 439.3099975585938 6.650000095367432
