480.8699951171875 176.1999969482422 7.900000095367432
480.9500122070312 176.9199981689453 6.849999904632568
482.3500061035156 176.5899963378906 6.519999980926514
481.7999877929688 176.75 6.53000020980835
481.4800109863281 176.7700042724609 7.369999885559082
481.3500061035156 177.5 7.300000190734863
482.2000122070312 177.2899932861328 6.78000020980835
482.8399963378906 177.1199951171875 6.840000152587891
482.3399963378906 177.2799987792969 8.300000190734863
481.8200073242188 177.3800048828125 7.860000133514404
480.6700134277344 177.6799926757812 7.260000228881836
481.2000122070312 178.1100006103516 6.809999942779541
482.0499877929688 177.8999938964844 6.28000020980835
481.2799987792969 178.1000061035156 8.449999809265137
482.5 177.8099975585938 6.730000019073486
481.760009765625 178.6300048828125 8.220000267028809
482.3800048828125 178.4799957275391 6.559999942779541
482.5899963378906 179.1300048828125 6.739999771118164
483.1300048828125 179.3600006103516 6.860000133514404
482.2300109863281 178.7899932861328 6.570000171661377
481.9500122070312 178.1799926757812 6.5
481.8200073242188 178.25 8.170000076293945
481.6600036621094 177.6600036621094 6.300000190734863
482.7699890136719 177.3800048828125 6.599999904632568
481.5499877929688 177.7200012207031 7.809999942779541
482.0899963378906 177.6000061035156 8.100000381469727
481.0700073242188 177.8500061035156 7.079999923706055
482.2300109863281 177.5299987792969 6.690000057220459
481.9599914550781 176.8999938964844 6.900000095367432
481.3500061035156 177.0700073242188 6.800000190734863
481.8299865722656 176.9600067138672 8.369999885559082
482.5 176.8000030517578 6.610000133514404
481.5599975585938 176.2899932861328 6.96999979019165
480.9599914550781 176.4299926757812 7.650000095367432
481.7900085449219 175.5099945068359 7.920000076293945
481.3999938964844 176.0800018310547 7.010000228881836
480.8900146484375 176.1900024414062 7.71999979019165
481.8599853515625 175.9900054931641 6.639999866485596
480.8999938964844 176.8099975585938 7.519999980926514
482.0199890136719 176.5299987792969 6.840000152587891
481.5 176.6799926757812 7.380000114440918
482.3699951171875 177.1300048828125 8.810000419616699
481.9800109863281 177.2899932861328 6.840000152587891
481.5799865722656 177.3500061035156 7.71999979019165
482.5400085449219 177.1199951171875 6.769999980926514
482.2099914550781 177.1799926757812 8
480.9200134277344 177.5200042724609 7.349999904632568
481.4500122070312 178.1699981689453 6.289999961853027
482.0700073242188 178.0399932861328 6.289999961853027
481.3399963378906 178.1799926757812 8.680000305175781
481.7900085449219 178.0899963378906 8.069999694824219
482.1099853515625 178.7200012207031 6.630000114440918
482.7999877929688 179.0800018310547 6.789999961853027
480.6799926757812 175.8600006103516 8.479999542236328
481.0499877929688 176.4799957275391 7.559999942779541
481.4500122070312 176.3699951171875 7.039999961853027
481.5599975585938 176.9400024414062 7.039999961853027
482.1300048828125 176.75 6.659999847412109
481.6600036621094 177.5500030517578 6.739999771118164
481.2900085449219 177.6499938964844 7.449999809265137
481.6199951171875 177.6000061035156 8.069999694824219
481.6799926757812 178.2599945068359 6.429999828338623
481.7900085449219 178.2400054931641 8.180000305175781
482.8900146484375 179.2700042724609 6.860000133514404
481.3900146484375 175.9199981689453 6.980000019073486
481.6300048828125 176.6699981689453 7.019999980926514
482.3299865722656 176.8500061035156 6.789999961853027
480.7799987792969 176.4900054931641 7.550000190734863
482.6000061035156 177.5200042724609 6.630000114440918
481.6600036621094 177.3000030517578 7.28000020980835
480.8399963378906 177.0700073242188 7.800000190734863
481.2900085449219 177.1799926757812 6.590000152587891
482.1099853515625 177.4100036621094 8.100000381469727
482.1300048828125 178.0099945068359 6.5
481.4400024414062 177.8300018310547 8.359999656677246
481.2200012207031 177.8000030517578 7.300000190734863
480.5499877929688 177.6100006103516 7.230000019073486
481.5499877929688 177.8399963378906 6.320000171661377
482.2699890136719 178.75 6.559999942779541
481.3599853515625 176.5 7.199999809265137
481.989990234375 176.6999969482422 6.739999771118164
482.5700073242188 176.8000030517578 6.590000152587891
480.739990234375 176.3600006103516 7.840000152587891
481.6099853515625 177.25 6.579999923706055
480.9800109863281 177.0899963378906 7.769999980926514
482.0599975585938 177.3399963378906 8.029999732971191
482.1700134277344 177.3999938964844 6.849999904632568
482.7799987792969 177.5200042724609 6.539999961853027
481.1300048828125 177.1300048828125 6.579999923706055
481.5799865722656 177.2100067138672 7.340000152587891
482.6400146484375 177.5 8.010000228881836
480.7000122070312 177.6199951171875 7.329999923706055
481.2799987792969 177.7400054931641 7.409999847412109
481.7999877929688 177.8399963378906 8.170000076293945
481.9599914550781 177.9199981689453 6.289999961853027
482.1700134277344 178.6300048828125 6.539999961853027
481.3599853515625 175.8800048828125 7.78000020980835
481.6900024414062 175.9499969482422 6.75
481.0499877929688 176.4700012207031 7.53000020980835
481.5299987792969 176.5500030517578 7.070000171661377
482.6499938964844 176.8500061035156 6.610000133514404
482.0400085449219 176.6699981689453 6.730000019073486
482.260009765625 177.4600067138672 6.639999866485596
481.7799987792969 177.3200073242188 7.199999809265137
481.9200134277344 177.3899993896484 7.929999828338623
480.760009765625 177.0599975585938 7.710000038146973
481.1400146484375 177.1600036621094 6.900000095367432
482.8999938964844 177.5899963378906 6.579999923706055
481.3500061035156 178.0399932861328 6.329999923706055
481.25 178.0200042724609 8.770000457763672
481.9599914550781 178.1999969482422 6.420000076293945
480.3900146484375 177.8200073242188 7.579999923706055
481.7000122070312 178.1600036621094 8.159999847412109
480.9599914550781 177.9600067138672 7.289999961853027
482.25 178.9499969482422 6.510000228881836
482.8999938964844 179.1499938964844 6.809999942779541
481.6300048828125 175.7400054931641 6.920000076293945
481.1499938964844 176.3999938964844 7.630000114440918
481.6300048828125 176.5299987792969 7.070000171661377
482.1199951171875 176.6499938964844 6.699999809265137
482.7300109863281 176.8500061035156 6.449999809265137
481.0400085449219 177.0599975585938 7.690000057220459
482.5899963378906 177.4600067138672 6.539999961853027
481.4299926757812 177.1900024414062 6.940000057220459
481.989990234375 177.3399963378906 6.670000076293945
481.7999877929688 177.2799987792969 7.800000190734863
481.4200134277344 177.7400054931641 8.489999771118164
481.7999877929688 177.8999938964844 6.340000152587891
481.5299987792969 177.7799987792969 7.309999942779541
480.9100036621094 177.6699981689453 7.449999809265137
481.8800048828125 178.5700073242188 6.559999942779541
480.7200012207031 177.8300018310547 7.260000228881836
481.1199951171875 176.8200073242188 7.449999809265137
481.3900146484375 177.9499969482422 8.25
481.489990234375 178.3000030517578 6.190000057220459
481.3800048828125 177.9799957275391 6.889999866485596
480.9700012207031 176.2799987792969 7.760000228881836
481.9100036621094 177.2799987792969 7.760000228881836
482.1000061035156 177.9600067138672 6.239999771118164
482.2999877929688 178.7899932861328 6.409999847412109
481.9599914550781 177.4299926757812 6.650000095367432
481.5700073242188 175.8800048828125 7.920000076293945
483.0899963378906 179.3999938964844 6.78000020980835
482.4800109863281 177.0399932861328 6.579999923706055
482.6499938964844 177.7899932861328 6.460000038146973
482.7200012207031 177.1000061035156 6.510000228881836
482.8200073242188 177.6699981689453 6.570000171661377
482.2999877929688 177.8999938964844 6.360000133514404
482.1099853515625 177.1399993896484 7.989999771118164
481.7799987792969 175.7899932861328 7.070000171661377
482.4800109863281 178.6199951171875 6.519999980926514
482.0400085449219 176.8699951171875 6.860000133514404
482.1600036621094 177.4799957275391 6.809999942779541
481.9500122070312 176.4400024414062 7.25
481.5599975585938 177.9199981689453 6.300000190734863
481.2099914550781 176.3899993896484 7.550000190734863
481.5 177.5500030517578 7.309999942779541
481.3200073242188 176.8999938964844 7.079999923706055
481.7000122070312 178.3399963378906 8.180000305175781
480.8900146484375 178.0099945068359 7.449999809265137
480.7300109863281 177.4400024414062 7.5
482.5 176.4100036621094 6.639999866485596
482.6199951171875 176.9700012207031 6.760000228881836
482.739990234375 177.5500030517578 6.610000133514404
481.8800048828125 176.7100067138672 6.710000038146973
482.4500122070312 179.0599975585938 6.650000095367432
482.0199890136719 177.2799987792969 6.869999885559082
482.2000122070312 177.8699951171875 6.369999885559082
481.9700012207031 177.25 8.189999580383301
482.3500061035156 178.4600067138672 6.5
481.0899963378906 176.4499969482422 7.510000228881836
481.260009765625 177.0299987792969 6.929999828338623
481.5199890136719 178.1199951171875 8.170000076293945
481.3599853515625 177.5899963378906 7.309999942779541
480.8099975585938 177.9299926757812 7.269999980926514
483.0299987792969 176.7200012207031 6.409999847412109
482.6300048828125 177.5599975585938 6.559999942779541
482.4299926757812 176.8500061035156 6.820000171661377
482.2799987792969 176.3399963378906 6.710000038146973
482.1400146484375 178.5099945068359 6.519999980926514
481.8800048828125 177.4299926757812 7.960000038146973
481.989990234375 177.9900054931641 6.340000152587891
481.6199951171875 176.4799957275391 6.980000019073486
481.489990234375 175.8800048828125 6.800000190734863
481.7799987792969 177.1000061035156 7.079999923706055
481.3599853515625 178.0700073242188 8.630000114440918
481.3800048828125 178.1100006103516 6.53000020980835
481.1600036621094 177.3800048828125 6.940000057220459
480.9700012207031 176.5200042724609 7.639999866485596
481.2999877929688 177.7799987792969 7.590000152587891
480.6499938964844 177.5299987792969 7.210000038146973
480.8599853515625 176.7700042724609 7.429999828338623
481.2200012207031 177.6799926757812 6.980000019073486
481.5 176.4799957275391 7.460000038146973
481.1000061035156 178.2799987792969 6.679999828338623
481.6199951171875 178.4700012207031 6.409999847412109
481.7200012207031 177.8099975585938 8.020000457763672
481.8399963378906 177.6900024414062 6.389999866485596
481.8900146484375 177.1900024414062 8.239999771118164
482.0799865722656 176.5500030517578 6.989999771118164
481.8900146484375 177.2799987792969 6.900000095367432
482.5400085449219 177.5099945068359 6.610000133514404
483.0299987792969 176.9400024414062 6.389999866485596
482.8900146484375 177.5800018310547 6.610000133514404
482.5599975585938 178.7799987792969 6.659999847412109
482.3200073242188 177.2899932861328 6.78000020980835
482.489990234375 176.6399993896484 6.610000133514404
482.1700134277344 177.7899932861328 6.25
482 178.4100036621094 6.460000038146973
482.0499877929688 175.9799957275391 6.809999942779541
481.5899963378906 178.0500030517578 8.069999694824219
481.7799987792969 177.3800048828125 7.659999847412109
481.4700012207031 178.2100067138672 6.340000152587891
481.8999938964844 176.6499938964844 7.070000171661377
481.9100036621094 177.0399932861328 8.619999885559082
481.6000061035156 177.7299957275391 6.639999866485596
481.3099975585938 176.4900054931641 7.480000019073486
481.1799926757812 176.9400024414062 7.019999980926514
481.4500122070312 175.6900024414062 6.639999866485596
481.4400024414062 175.9400024414062 7.710000038146973
481.0299987792969 177.6600036621094 7.260000228881836
480.7200012207031 175.9199981689453 8.420000076293945
482.510009765625 179.0599975585938 6.730000019073486
482.7799987792969 177.9100036621094 6.630000114440918
482.9400024414062 177.3500061035156 6.489999771118164
482.2699890136719 177.6600036621094 6.650000095367432
482.1900024414062 177.5599975585938 8.229999542236328
482.1099853515625 178.1699981689453 6.420000076293945
482.3999938964844 177.0200042724609 6.900000095367432
481.9500122070312 178.8000030517578 6.610000133514404
481.9800109863281 176.0200042724609 6.78000020980835
481.5 177.7299957275391 8.119999885559082
481.3399963378906 178.2799987792969 8.75
481.8399963378906 176.5899963378906 6.760000228881836
481.5599975585938 177.7700042724609 7.400000095367432
481.6900024414062 177.1699981689453 6.949999809265137
481.5499877929688 177.7899932861328 6.510000228881836
480.7200012207031 177.9799957275391 7.429999828338623
480.8900146484375 177.4900054931641 6.300000190734863
481.1499938964844 176.2899932861328 7.449999809265137
480.8800048828125 177.3999938964844 7.309999942779541
481.0199890136719 176.8200073242188 7.389999866485596
482.760009765625 179.1999969482422 6.809999942779541
482.6000061035156 177.0099945068359 6.900000095367432
482.239990234375 178.3500061035156 6.5
482.4599914550781 177.6499938964844 6.769999980926514
482.1499938964844 178.8999938964844 6.690000057220459
481.6799926757812 178.0299987792969 6.420000076293945
481.7000122070312 178.1100006103516 8.220000267028809
482.0199890136719 176.7100067138672 6.619999885559082
481.9100036621094 177.2599945068359 6.900000095367432
481.8500061035156 177.4900054931641 7.989999771118164
481.6400146484375 175.8200073242188 6.710000038146973
481.489990234375 176.4199981689453 6.909999847412109
481.3500061035156 177.0299987792969 7.019999980926514
481.3299865722656 177.2200012207031 6.559999942779541
481.239990234375 177.5800018310547 7.25
480.9800109863281 176 7.409999847412109
480.8200073242188 176.5 7.809999942779541
480.5 177.8000030517578 7.539999961853027
