395.1799926757812 198.25 6.829999923706055
394.4700012207031 197.7799987792969 3.779999971389771
398.1199951171875 196.8200073242188 7.059999942779541
395.2999877929688 197.5800018310547 6.329999923706055
396.4299926757812 197.2299957275391 8.159999847412109
396.0499877929688 197.3399963378906 7.630000114440918
394.4200134277344 197.8000030517578 5.369999885559082
394.9100036621094 197.6900024414062 5.849999904632568
397.3200073242188 197.0200042724609 7.480000019073486
395.6300048828125 197.4799957275391 7.050000190734863
394.9500122070312 197.6799926757812 4.010000228881836
393.9800109863281 197.1300048828125 4.599999904632568
397.1499938964844 196.3000030517578 7.510000228881836
396.6700134277344 196.4199981689453 7.230000019073486
395.5899963378906 196.6999969482422 6.940000057220459
397.6499938964844 196.1900024414062 6.260000228881836
396.010009765625 196.6100006103516 7.360000133514404
394.4299926757812 197.0299987792969 5.139999866485596
395.25 196.7899932861328 6.329999923706055
398.6499938964844 195.9400024414062 5.409999847412109
394.8399963378906 196.9400024414062 5.619999885559082
395.6799926757812 195.9299926757812 6.369999885559082
395.2099914550781 196.0299987792969 5.949999809265137
396.3699951171875 195.7400054931641 6.150000095367432
394.0400085449219 196.3600006103516 4.179999828338623
397.1499938964844 195.5899963378906 5.820000171661377
394.6000061035156 196.2299957275391 5.889999866485596
394.5499877929688 196.2299957275391 4.480000019073486
393.8800048828125 195.6999969482422 4.53000020980835
395.4599914550781 195.3000030517578 5.349999904632568
394.760009765625 195.4600067138672 5.460000038146973
396.3599853515625 195.1000061035156 4.75
396.8299865722656 194.9499969482422 4.96999979019165
394.4100036621094 195.5899963378906 4.71999979019165
394.260009765625 195.0700073242188 4.809999942779541
395.3800048828125 194.75 5.179999828338623
395.7099914550781 195.25 5.150000095367432
394.6400146484375 195.5599975585938 5.440000057220459
397.3699951171875 194.8399963378906 5
395.1900024414062 195.3999938964844 5.46999979019165
394.1300048828125 195.6499938964844 4.71999979019165
396.2999877929688 195.0899963378906 4.78000020980835
394.6600036621094 195.5299987792969 4.75
396.8599853515625 195 4.980000019073486
396.2099914550781 195.8699951171875 6.119999885559082
395.6600036621094 196.0399932861328 6.380000114440918
397.25 195.6000061035156 5.679999828338623
394.239990234375 196.3399963378906 4.460000038146973
397.9200134277344 195.4499969482422 5.019999980926514
394.6499938964844 196.2899932861328 6.010000228881836
396.7200012207031 195.7299957275391 6.039999961853027
394.7699890136719 196.1999969482422 4.5
395.1900024414062 196.1300048828125 5.940000057220459
397.2699890136719 196.3999938964844 7.039999961853027
397.9299926757812 196.25 5.809999942779541
396.7200012207031 196.5399932861328 7.309999942779541
395.7099914550781 196.8000030517578 6.829999923706055
394.2799987792969 197.1600036621094 4.949999809265137
394.739990234375 197.0500030517578 5.5
395.239990234375 196.9100036621094 6.099999904632568
398.5299987792969 196.1100006103516 5.289999961853027
396.1799926757812 196.7100067138672 7.590000152587891
399.0199890136719 196.6600036621094 5.130000114440918
397.7900085449219 197 6.909999847412109
394.739990234375 197.75 5.699999809265137
398.3500061035156 196.8800048828125 6.75
396.6000061035156 197.3000030517578 7.840000152587891
395.1900024414062 197.6399993896484 6.349999904632568
394.6400146484375 197.7899932861328 6.739999771118164
398.5499877929688 196.8000030517578 5.050000190734863
396.1000061035156 197.4299926757812 7.659999847412109
395.6499938964844 197.5599975585938 7.090000152587891
397.1900024414062 197.1399993896484 7.46999979019165
394.8999938964844 197.6900024414062 3.920000076293945
398.4400024414062 197.4600067138672 6.420000076293945
396.2999877929688 197.9700012207031 6.559999942779541
398.6600036621094 197.3600006103516 4.199999809265137
399.0799865722656 197.2599945068359 5.099999904632568
395.3999938964844 198.1999969482422 5
394.7699890136719 198.3899993896484 5.829999923706055
396.760009765625 197.8899993896484 6.989999771118164
397.8699951171875 197.6100006103516 6.590000152587891
395.2999877929688 198.2200012207031 5.96999979019165
397.3399963378906 197.7700042724609 7.300000190734863
398.5499877929688 197.3999938964844 5.539999961853027
398.5599975585938 198.1300048828125 5.630000114440918
397.3999938964844 198.4199981689453 6.940000057220459
398.1199951171875 198.2599945068359 5.539999961853027
396.3800048828125 198.7100067138672 6.079999923706055
395.4599914550781 198.8699951171875 4.590000152587891
395.9500122070312 198.8000030517578 5.429999828338623
396.8999938964844 198.5500030517578 6.130000114440918
397.4800109863281 198.3899993896484 6.110000133514404
395.0299987792969 199.0200042724609 4.230000019073486
398.010009765625 198.2599945068359 6.340000152587891
395.3699951171875 198.9100036621094 5.570000171661377
397.9500122070312 198.3200073242188 7.349999904632568
398.2000122070312 199.0200042724609 5.96999979019165
397.7099914550781 199.0899963378906 4.940000057220459
395.6900024414062 199.5899963378906 4.150000095367432
396.5599975585938 199.4199981689453 5.610000133514404
397.239990234375 199.25 4.690000057220459
396.1300048828125 199.5200042724609 5.260000228881836
395.8999938964844 199.5599975585938 5.269999980926514
396.4800109863281 199.4100036621094 5.559999942779541
396.8500061035156 199.3399963378906 4.590000152587891
398.2799987792969 198.9400024414062 5.960000038146973
397.7000122070312 199.1100006103516 5.940000057220459
397.4700012207031 199.1799926757812 4.800000190734863
398 199.0399932861328 4.480000019073486
397.0799865722656 198.5 6.760000228881836
397.4500122070312 198.3600006103516 6.090000152587891
396.3299865722656 198.6900024414062 6.070000171661377
398.1000061035156 198.2100067138672 6.320000171661377
397.7099914550781 198.3300018310547 7.239999771118164
398.5 198.1399993896484 5.570000171661377
395.6799926757812 198.8300018310547 5.46999979019165
396.1499938964844 198.0500030517578 6.309999942779541
395.6400146484375 198.1499938964844 6.769999980926514
396.8599853515625 197.8300018310547 7.340000152587891
394.3299865722656 198.4799957275391 5.840000152587891
396.4100036621094 197.9199981689453 7.599999904632568
394.8599853515625 198.3300018310547 5.809999942779541
397.8599853515625 197.5899963378906 6.559999942779541
398.3900146484375 197.4600067138672 6.369999885559082
398.510009765625 197.4700012207031 4.25
397.4200134277344 197.6999969482422 7.099999904632568
398.2099914550781 197.5099945068359 5.510000228881836
398.6900024414062 197.3800048828125 5.190000057220459
394.760009765625 197.5899963378906 6.630000114440918
394.489990234375 197.6900024414062 5.21999979019165
397.1000061035156 196.9900054931641 7.380000114440918
396.6499938964844 197.1100006103516 7.769999980926514
398.2799987792969 196.7200012207031 5.079999923706055
395.25 197.4600067138672 6.320000171661377
398.7699890136719 196.6000061035156 4.949999809265137
397.760009765625 196.8800048828125 5.03000020980835
397.5 196.9100036621094 6.690000057220459
398.0799865722656 196.7799987792969 6.579999923706055
396.1199951171875 197.2299957275391 7.96999979019165
394.4700012207031 196.8899993896484 4.610000133514404
396.2099914550781 196.4199981689453 7.369999885559082
394.6700134277344 196.8699951171875 5.619999885559082
393.989990234375 197.0200042724609 4.869999885559082
397.1099853515625 196.2400054931641 6.440000057220459
396.6499938964844 196.3099975585938 6.96999979019165
395.5299987792969 196.6100006103516 6.760000228881836
397.6700134277344 196.1000061035156 6.079999923706055
398.5400085449219 195.8699951171875 5.059999942779541
398.0599975585938 195.9799957275391 5.340000152587891
395.1300048828125 196.0299987792969 5.989999771118164
394.3200073242188 196.2400054931641 4.559999942779541
396.75 195.6100006103516 5.769999980926514
396.1900024414062 195.7100067138672 6.119999885559082
397.1799926757812 195.5099945068359 5.360000133514404
395.739990234375 195.8699951171875 6.25
394.6300048828125 196.1100006103516 6.110000133514404
397.7000122070312 195.3500061035156 5.130000114440918
395.1799926757812 195.3200073242188 5.320000171661377
396.1700134277344 195.1000061035156 4.610000133514404
396.760009765625 194.9400024414062 4.800000190734863
395.6700134277344 195.2299957275391 4.940000057220459
393.9599914550781 195.6499938964844 4.820000171661377
394.6600036621094 195.4499969482422 5.619999885559082
394.489990234375 195.5200042724609 4.78000020980835
398.25 198.8600006103516 4.28000020980835
398.3500061035156 198.8600006103516 5.829999923706055
397.760009765625 199.0099945068359 6.010000228881836
396.8500061035156 199.2299957275391 5.480000019073486
397.0199890136719 199.1900024414062 4.480000019073486
396.1000061035156 199.4600067138672 5.300000190734863
397.7900085449219 199.0200042724609 4.809999942779541
398.3200073242188 198.1699981689453 4.239999771118164
398.2799987792969 198.1900024414062 5.570000171661377
398.8500061035156 198.0599975585938 5.389999866485596
396.6199951171875 198.6199951171875 6.159999847412109
397.1300048828125 198.4900054931641 5.929999828338623
397.9599914550781 198.3000030517578 6.289999961853027
397.010009765625 198.5599975585938 6.949999809265137
395.6400146484375 198.8600006103516 5.570000171661377
399.0700073242188 197.3600006103516 3.970000028610229
398.489990234375 197.5399932861328 5.460000038146973
397.3500061035156 197.8500061035156 7.269999980926514
396.6099853515625 198.0700073242188 7
398.2900085449219 197.6399993896484 6.369999885559082
394.6799926757812 198.5500030517578 5.96999979019165
398.4800109863281 197.5099945068359 4.21999979019165
395.7699890136719 198.2799987792969 6.760000228881836
397.760009765625 197.7400054931641 6.690000057220459
398.8999938964844 196.7200012207031 4.849999904632568
398.4299926757812 196.8800048828125 6.409999847412109
395.6000061035156 197.6399993896484 7.349999904632568
398.4500122070312 196.8800048828125 5.099999904632568
397.4400024414062 197.1699981689453 7.079999923706055
395.1300048828125 197.75 6.440000057220459
397.7799987792969 197.0099945068359 5.199999809265137
396.989990234375 197.25 7.510000228881836
398.010009765625 196.9900054931641 6.800000190734863
396.5400085449219 197.4199981689453 7.909999847412109
398.0799865722656 196.1900024414062 5.559999942779541
394.6799926757812 197.1100006103516 5.639999866485596
397.3399963378906 196.3899993896484 6.760000228881836
398.5899963378906 196.0899963378906 5.190000057220459
397.6799926757812 196.3300018310547 6.21999979019165
396.3599853515625 196.6900024414062 7.610000133514404
396.8699951171875 196.5599975585938 7.309999942779541
395.3800048828125 196.9100036621094 7.070000171661377
397.3800048828125 195.6900024414062 5.380000114440918
398.4400024414062 195.4299926757812 4.849999904632568
397.0199890136719 195.7899932861328 6.03000020980835
395.010009765625 196.3099975585938 6.03000020980835
395.7999877929688 196.1199951171875 6.320000171661377
397.8200073242188 195.5500030517578 4.960000038146973
396.3999938964844 195.9700012207031 6.050000190734863
395.4400024414062 196.1900024414062 6.840000152587891
397.2200012207031 195.1199951171875 4.670000076293945
395.9299926757812 195.4600067138672 4.869999885559082
394.6099853515625 195.8399963378906 6.159999847412109
394.9299926757812 195.7200012207031 5.630000114440918
396.3900146484375 195.3800048828125 5.809999942779541
395.5899963378906 195.5500030517578 5.579999923706055
396.7200012207031 195.2400054931641 5.079999923706055
396.8200073242188 194.5599975585938 4.659999847412109
395.6000061035156 194.8399963378906 4.989999771118164
394.1700134277344 195.25 4.75
395.0299987792969 195.0299987792969 5.230000019073486
395.0799865722656 199.0800018310547 4.039999961853027
395.8299865722656 199.3000030517578 5.260000228881836
395.6400146484375 199.2400054931641 4.260000228881836
396.3800048828125 199.3899993896484 5.550000190734863
395.2000122070312 198.3500061035156 5.039999961853027
397.7099914550781 198.9400024414062 5.130000114440918
397.9500122070312 199.0200042724609 5.989999771118164
396.0899963378906 198.5700073242188 5.949999809265137
394.8500061035156 198.3000030517578 5.889999866485596
395.7099914550781 198.4799957275391 5.400000095367432
394.3500061035156 198.1399993896484 5.590000152587891
394.3699951171875 198.1300048828125 3.880000114440918
397.4100036621094 198.8999938964844 5.800000190734863
394.9400024414062 198.2599945068359 4.150000095367432
396.6799926757812 198.7400054931641 6.179999828338623
394.1099853515625 197.4400024414062 4.610000133514404
396.9599914550781 198.1699981689453 6.730000019073486
395.260009765625 197.75 6.369999885559082
396.3900146484375 198.0200042724609 6.610000133514404
397.3399963378906 198.2400054931641 7.230000019073486
395.7699890136719 197.8600006103516 6.769999980926514
394.8900146484375 197.6399993896484 5.880000114440918
397.739990234375 198.3200073242188 6.230000019073486
394.9200134277344 197.6000061035156 4.090000152587891
398.2200012207031 197.7899932861328 6.639999866485596
396.4299926757812 197.3999938964844 8
395.9599914550781 197.2799987792969 7.590000152587891
397.3999938964844 197.5899963378906 7.199999809265137
395.6400146484375 197.1600036621094 6.929999828338623
394.4700012207031 197.5500030517578 5.21999979019165
394.8800048828125 197 5.659999847412109
394.1499938964844 196.8000030517578 4.380000114440918
394.5 196.8899993896484 4.960000038146973
395.2900085449219 197.0700073242188 6.150000095367432
395.260009765625 196.3699951171875 6.230000019073486
398.0899963378906 197.0500030517578 6.730000019073486
397.2200012207031 196.8800048828125 7.400000095367432
394.1199951171875 196.0899963378906 4.389999866485596
394.7000122070312 196.2299957275391 5.980000019073486
396.0400085449219 196.5599975585938 7.460000038146973
394.75 196.25 4.409999847412109
396.5400085449219 196.7200012207031 7.71999979019165
395.6400146484375 196.4700012207031 6.739999771118164
397.7200012207031 196.1900024414062 6.239999771118164
397.1300048828125 196.0399932861328 6.170000076293945
398.75 196.4400024414062 5.340000152587891
396.5899963378906 195.8999938964844 6.010000228881836
394.6000061035156 195.4299926757812 4.659999847412109
395.4400024414062 195.6499938964844 5.570000171661377
395.8999938964844 195.7400054931641 6.150000095367432
394.010009765625 195.2599945068359 4.679999828338623
398.1600036621094 196.2799987792969 5.119999885559082
394.739990234375 194.8300018310547 4.539999961853027
397.4800109863281 195.4600067138672 5.440000057220459
398.1900024414062 195.6600036621094 5.039999961853027
395.1300048828125 194.8999938964844 5.130000114440918
396.9200134277344 195.3200073242188 5.179999828338623
396.4700012207031 195.25 4.940000057220459
397.760009765625 195.5700073242188 6.159999847412109
395.8099975585938 195.0700073242188 4.889999866485596
396.9299926757812 194.7799987792969 4.900000095367432
396.3399963378906 194.6000061035156 4.829999923706055
395.2300109863281 199.0800018310547 4.190000057220459
395.6600036621094 199.1499938964844 5.159999847412109
396.239990234375 199.3099975585938 5.320000171661377
395.7799987792969 199.1999969482422 4.110000133514404
396.7300109863281 199.3999938964844 5.710000038146973
394.5400085449219 198.1300048828125 5.699999809265137
395.2099914550781 198.3000030517578 4.949999809265137
397.1900024414062 198.7899932861328 6.210000038146973
394.6900024414062 198.1799926757812 4.059999942779541
395.6400146484375 198.3999938964844 5.460000038146973
397.7300109863281 198.9199981689453 5.96999979019165
395.5400085449219 198.3800048828125 6.889999866485596
396.1499938964844 198.5500030517578 5.96999979019165
395.0899963378906 198.2899932861328 5.96999979019165
397.3099975585938 198.8399963378906 4.949999809265137
397.7900085449219 198.2799987792969 6.179999828338623
397.6499938964844 198.25 7.300000190734863
398.3399963378906 198.4299926757812 5.519999980926514
394.6900024414062 197.5299987792969 5.190000057220459
394.7799987792969 197.5500030517578 3.869999885559082
395.0799865722656 197.5899963378906 6.369999885559082
395.6499938964844 197.7400054931641 6.809999942779541
396.6700134277344 197.9900054931641 6.889999866485596
396.0799865722656 197.8300018310547 7.599999904632568
396.2200012207031 197.8800048828125 6.25
397.1700134277344 198.1100006103516 6.860000133514404
394.1400146484375 197.3999938964844 4.869999885559082
395.1700134277344 196.8999938964844 6.119999885559082
396.0599975585938 197.1199951171875 7.800000190734863
396.5899963378906 197.2299957275391 8.060000419616699
394.75 196.8399963378906 5.449999809265137
394.260009765625 196.7100067138672 4.369999885559082
397.8200073242188 197.5700073242188 6.71999979019165
397.1600036621094 197.3999938964844 7.539999961853027
398.3099975585938 197.7100067138672 6.550000190734863
395.6600036621094 197.0500030517578 6.71999979019165
398.4500122070312 197.7799987792969 5.440000057220459
394.3200073242188 195.9199981689453 4.699999809265137
396.7699890136719 196.5200042724609 7.21999979019165
395.3200073242188 196.1600036621094 6.050000190734863
397.2900085449219 196.6499938964844 7.190000057220459
398.3900146484375 196.9700012207031 6.630000114440918
395.7699890136719 196.2799987792969 6.71999979019165
396.2799987792969 196.4199981689453 7.340000152587891
394.7300109863281 196.0099945068359 5.980000019073486
397.8200073242188 196.7899932861328 6.960000038146973
398.5700073242188 197 5.079999923706055
395.3599853515625 195.4600067138672 5.449999809265137
394.8099975585938 195.3399963378906 5.460000038146973
395.8399963378906 195.5800018310547 5.809999942779541
396.3299865722656 195.6999969482422 6.050000190734863
397.9700012207031 196.1199951171875 5.769999980926514
394.3500061035156 195.2200012207031 4.739999771118164
396.8900146484375 195.8500061035156 6.090000152587891
397.4700012207031 195.9799957275391 6.019999980926514
398.5799865722656 196.2799987792969 5.239999771118164
396.0799865722656 194.9400024414062 4.75
396.5599975585938 195.0800018310547 4.96999979019165
397.0499877929688 195.2200012207031 5.070000171661377
395.5 194.8200073242188 4.900000095367432
398.1600036621094 195.4799957275391 4.989999771118164
397.7099914550781 199.5500030517578 4.869999885559082
395.6300048828125 199.0899963378906 5.539999961853027
396.1700134277344 199.1799926757812 5.289999961853027
395.4400024414062 199 4.570000171661377
396.760009765625 199.3500061035156 5.610000133514404
394.7999877929688 198.8200073242188 4.199999809265137
397.0899963378906 199.4199981689453 4.519999980926514
394.4599914550781 198.1399993896484 5.760000228881836
398.0400085449219 199.0200042724609 4.28000020980835
397.7999877929688 198.9499969482422 5.940000057220459
396.7300109863281 198.6999969482422 6.130000114440918
396.1700134277344 198.5599975585938 6.03000020980835
395.2900085449219 198.3600006103516 7
395.489990234375 198.3899993896484 5.239999771118164
394.7099914550781 198.1799926757812 4.210000038146973
394.989990234375 198.2700042724609 5.679999828338623
395.75 198.5 6.5
397.0199890136719 198.7899932861328 5.150000095367432
397.7300109863281 198.2799987792969 6.159999847412109
396.0400085449219 197.8999938964844 6.28000020980835
395.6300048828125 197.7799987792969 6.840000152587891
398.1199951171875 198.3899993896484 5.409999847412109
397.3800048828125 198.1999969482422 7.159999847412109
396.7300109863281 198.0399932861328 6.860000133514404
394.1000061035156 197.4100036621094 5.150000095367432
394.9700012207031 197.6100006103516 6.429999828338623
396.8200073242188 198.0399932861328 4.519999980926514
396.3299865722656 197.9799957275391 7.489999771118164
397.2900085449219 197.4400024414062 7.309999942779541
395.5599975585938 197.0399932861328 6.769999980926514
398.2099914550781 197.6799926757812 6.460000038146973
396.3399963378906 197.2299957275391 8.140000343322754
398.489990234375 197.75 5.409999847412109
397.7200012207031 197.5399932861328 6.679999828338623
396.8500061035156 197.3399963378906 7.809999942779541
394.7300109863281 196.7899932861328 5.619999885559082
398.1600036621094 196.9900054931641 6.570000171661377
396.6799926757812 196.6399993896484 7.480000019073486
396.0599975585938 196.4900054931641 7.409999847412109
397.1900024414062 196.7599945068359 7.269999980926514
398.4299926757812 197.0599975585938 5.059999942779541
397.6700134277344 196.8600006103516 6.920000076293945
394.6799926757812 196.1300048828125 6.03000020980835
395.2999877929688 196.2899932861328 6.449999809265137
398.8099975585938 197.1000061035156 4.289999961853027
398.7900085449219 196.4799957275391 4.940000057220459
397.9299926757812 196.2799987792969 5.75
397.4400024414062 196.1900024414062 6.28000020980835
394.3699951171875 195.4199981689453 4.760000228881836
396.8999938964844 196.0299987792969 6.21999979019165
396.25 195.9100036621094 6.110000133514404
395.0599975585938 195.5800018310547 5.409999847412109
394.5299987792969 195.4400024414062 5.670000076293945
398.2900085449219 196.3600006103516 5.130000114440918
395.739990234375 195.75 6.099999904632568
398.1400146484375 195.6499938964844 5
397.5799865722656 195.4900054931641 5.230000019073486
395.8099975585938 195.0500030517578 4.820000171661377
396.3800048828125 195.2100067138672 4.860000133514404
396.9700012207031 195.3699951171875 5.139999866485596
395.3800048828125 194.9799957275391 5.199999809265137
397.6400146484375 199.6000061035156 4.849999904632568
395.8599853515625 199.1699981689453 5.25
396.7099914550781 199.3399963378906 5.5
396.7699890136719 199.3600006103516 4.46999979019165
394.8999938964844 198.3000030517578 5.789999961853027
397.1900024414062 198.8500061035156 5.019999980926514
397.6799926757812 198.9499969482422 5.96999979019165
396.3999938964844 198.6399993896484 6.070000171661377
395.1900024414062 198.3800048828125 5.03000020980835
396.9400024414062 198.8000030517578 5.820000171661377
397.8200073242188 199 4.820000171661377
395.510009765625 198.3999938964844 6.960000038146973
395.7900085449219 198.5200042724609 6.230000019073486
396.8900146484375 198.7700042724609 4.5
396.4299926757812 197.9400024414062 7.130000114440918
397.7200012207031 198.2599945068359 6.880000114440918
396.989990234375 198.0700073242188 6.78000020980835
398.0599975585938 198.3399963378906 6.25
395.6000061035156 197.7299957275391 6.769999980926514
396.6300048828125 198.0200042724609 4.739999771118164
398.2200012207031 198.4299926757812 5.380000114440918
398.3500061035156 198.4499969482422 4.210000038146973
396.1099853515625 197.8600006103516 7.75
396 197.8699951171875 6.309999942779541
394.8699951171875 197.5500030517578 6.630000114440918
397.2999877929688 197.5500030517578 7.369999885559082
397.7200012207031 197.6900024414062 6.920000076293945
398.3500061035156 197.8800048828125 4.159999847412109
396.7999877929688 197.4100036621094 7.760000228881836
398.9299926757812 197.9600067138672 5.309999942779541
396.2699890136719 197.2799987792969 8.119999885559082
398.2900085449219 197.8200073242188 5.420000076293945
394.7099914550781 196.3899993896484 6.099999904632568
396.3399963378906 196.7599945068359 7.889999866485596
397.3900146484375 197.0399932861328 7.289999961853027
397.6300048828125 197.1100006103516 5.010000228881836
396.760009765625 196.8699951171875 7.510000228881836
398.4200134277344 197.3200073242188 5.349999904632568
398.5299987792969 197.3500061035156 4.21999979019165
398.2799987792969 197.2899932861328 6.269999980926514
397.75 197.1300048828125 6.690000057220459
396.1199951171875 196.1300048828125 7.070000171661377
394.8800048828125 195.8399963378906 5.980000019073486
397.6900024414062 196.5399932861328 6.230000019073486
396.7799987792969 196.2899932861328 7.159999847412109
397.2699890136719 196.4400024414062 6.710000038146973
398.4400024414062 196.7299957275391 5.099999904632568
398.9700012207031 196.8500061035156 4.849999904632568
394.2300109863281 195.7299957275391 4.739999771118164
397.8800048828125 196.6000061035156 5.159999847412109
395.760009765625 196.0800018310547 6.349999904632568
398.0599975585938 196.6100006103516 7.010000228881836
394.7999877929688 195.1499938964844 5.579999923706055
396.4700012207031 195.5399932861328 6.019999980926514
398.75 196.1300048828125 5.199999809265137
397.75 195.8399963378906 5.989999771118164
397.0400085449219 195.6900024414062 5.940000057220459
395.4100036621094 195.2700042724609 5.360000133514404
398.0899963378906 195.9199981689453 5.230000019073486
397.2099914550781 195.1499938964844 4.78000020980835
398.0700073242188 195.3300018310547 5.050000190734863
395.9100036621094 194.8200073242188 4.75
396.6799926757812 194.9900054931641 5.070000171661377
394.1900024414062 197.4900054931641 4.639999866485596
394.0199890136719 196.9600067138672 4.789999961853027
394.3800048828125 198.2599945068359 5.639999866485596
395.3900146484375 199.3200073242188 4.199999809265137
395.2799987792969 198.8800048828125 4.550000190734863
395.1600036621094 198.3999938964844 5.010000228881836
394.7900085449219 196.8699951171875 5.579999923706055
394.6600036621094 196.3800048828125 5.980000019073486
395.0599975585938 198.0700073242188 5.869999885559082
394.9800109863281 197.6699981689453 6.53000020980835
394.5299987792969 195.8399963378906 6.099999904632568
394.5700073242188 196.0299987792969 4.650000095367432
394.4500122070312 195.5299987792969 4.739999771118164
395.8999938964844 198.6100006103516 5.489999771118164
396.1600036621094 199.6499938964844 4.960000038146973
395.5899963378906 197.3899993896484 7.150000095367432
395.7000122070312 197.7899932861328 6.739999771118164
395.8099975585938 198.2400054931641 6.289999961853027
395.4400024414062 196.7299957275391 6.900000095367432
395.0799865722656 195.2200012207031 5.389999866485596
395.25 195.9799957275391 6.039999961853027
396.0499877929688 199.1499938964844 5.25
396.7099914550781 199.4299926757812 5.570000171661377
396.4599914550781 198.4299926757812 6.019999980926514
396.3399963378906 197.9400024414062 6.170000076293945
396.1799926757812 197.2599945068359 7.949999809265137
396.5799865722656 198.8999938964844 5.579999923706055
396.3999938964844 198.1900024414062 7.130000114440918
395.989990234375 196.4199981689453 6.940000057220459
395.5799865722656 194.8300018310547 5.369999885559082
395.75 195.6499938964844 6
396.0299987792969 196.5800018310547 7.650000095367432
396.6600036621094 199.1600036621094 4.380000114440918
396.3099975585938 197.7200012207031 7.519999980926514
397.4100036621094 199.4700012207031 4.630000114440918
397.2300109863281 198.8399963378906 4.599999904632568
396.7699890136719 196.8500061035156 7.619999885559082
396.5199890136719 195.8600006103516 5.960000038146973
397.010009765625 197.8300018310547 7.269999980926514
396.8699951171875 197.3699951171875 7.659999847412109
397.1799926757812 198.6499938964844 6.059999942779541
396.2999877929688 194.9900054931641 4.820000171661377
397.1300048828125 198.3699951171875 5.039999961853027
396.3500061035156 195.2799987792969 6.079999923706055
397.0700073242188 198.25 6.769999980926514
396.5599975585938 196.1000061035156 7
397.9700012207031 198.8800048828125 5.980000019073486
397.8599853515625 198.4100036621094 6.389999866485596
397.5299987792969 197 7.460000038146973
397.3299865722656 196.2799987792969 6.940000057220459
397.489990234375 196.8300018310547 6.739999771118164
397.0899963378906 195.2799987792969 5.139999866485596
397.1300048828125 195.4700012207031 6.039999961853027
397.7699890136719 198.0599975585938 7.21999979019165
397.2799987792969 196.0399932861328 5.949999809265137
396.9400024414062 194.6499938964844 4.960000038146973
397.760009765625 197.9100036621094 6.71999979019165
398.010009765625 199.1100006103516 4.630000114440918
397.6300048828125 197.4299926757812 6.800000190734863
398.2300109863281 197.0800018310547 5.309999942779541
398.2999877929688 197.3500061035156 6.380000114440918
398.1000061035156 196.4700012207031 7.059999942779541
397.8200073242188 195.4299926757812 5.260000228881836
398.1900024414062 196.8800048828125 6.630000114440918
398.0199890136719 196.1199951171875 5.639999866485596
397.8999938964844 195.6900024414062 6.170000076293945
398.0799865722656 196.4900054931641 5.079999923706055
398.4100036621094 197.6999969482422 5.460000038146973
398.5499877929688 198.2899932861328 5.489999771118164
398.4100036621094 197.9100036621094 3.930000066757202
398.6300048828125 196.3200073242188 5.230000019073486
398.760009765625 196.8399963378906 5.059999942779541
398.489990234375 195.6600036621094 5.170000076293945
398.3299865722656 195.3899993896484 5
398.4599914550781 195.9100036621094 5.170000076293945
398.5899963378906 196.4299926757812 5.159999847412109
398.8699951171875 197.5299987792969 4.260000228881836
398.7000122070312 197 5.079999923706055
397.9500122070312 196.6300048828125 6.960000038146973
397.7200012207031 195.6000061035156 5.230000019073486
398.260009765625 197.75 5.440000057220459
398.260009765625 197.6799926757812 6.480000019073486
398.4100036621094 198.25 5.550000190734863
398.3900146484375 198.2299957275391 6.630000114440918
397.8399963378906 196.1399993896484 6.019999980926514
398 196.6999969482422 5.03000020980835
398.1300048828125 197.1900024414062 6.559999942779541
397.0700073242188 195.8000030517578 5.989999771118164
396.8399963378906 194.7599945068359 4.920000076293945
397.739990234375 198.4299926757812 6.199999809265137
397 195.3000030517578 5.059999942779541
397.6099853515625 197.8600006103516 6.989999771118164
397.2999877929688 196.8200073242188 7.21999979019165
397.2200012207031 196.2899932861328 6.480000019073486
397.7099914550781 198.3699951171875 7.389999866485596
397.8800048828125 198.9700012207031 5.960000038146973
397.4500122070312 197.3099975585938 7.079999923706055
396.2900085449219 195.1000061035156 4.769999980926514
396.1400146484375 194.5899963378906 4.769999980926514
396.4100036621094 195.5700073242188 5.949999809265137
397.2000122070312 198.75 6.179999828338623
397.0299987792969 198.2100067138672 6.679999828338623
396.6300048828125 196.6300048828125 7.380000114440918
397.2300109863281 198.8000030517578 5
397.3399963378906 199.3000030517578 4.840000152587891
396.5499877929688 196.1399993896484 5.860000133514404
396.8800048828125 197.7100067138672 7.480000019073486
396.739990234375 197.1900024414062 7.630000114440918
396.489990234375 196.0800018310547 6.920000076293945
396.1199951171875 196.8399963378906 7.639999866485596
395.6799926757812 194.8300018310547 4.889999866485596
395.7699890136719 195.3399963378906 5.050000190734863
396.7300109863281 199.0399932861328 5.610000133514404
396.3999938964844 197.8500061035156 7.539999961853027
396.260009765625 197.3300018310547 7.96999979019165
396.0299987792969 196.3099975585938 6.980000019073486
396.5499877929688 198.4499969482422 6.03000020980835
395.8900146484375 195.8500061035156 6.150000095367432
395.8500061035156 198.2200012207031 6.570000171661377
395.5899963378906 197.1900024414062 6.639999866485596
395.3299865722656 196.1199951171875 6.039999961853027
396.1600036621094 199.3000030517578 5.300000190734863
396.010009765625 198.7799987792969 5.5
395.2099914550781 195.5899963378906 5.489999771118164
395.4400024414062 196.6799926757812 6.789999961853027
395.7300109863281 197.6999969482422 6.960000038146973
394.3699951171875 194.8899993896484 4.730000019073486
394.4800109863281 195.3899993896484 4.800000190734863
394.7099914550781 196.4199981689453 5.980000019073486
394.6400146484375 195.9400024414062 4.610000133514404
395 197.4799957275391 6.349999904632568
395.2799987792969 198.5800018310547 4.929999828338623
394.5799865722656 195.8800048828125 6.010000228881836
394.8800048828125 196.9700012207031 5.590000152587891
395.0899963378906 197.9499969482422 6.239999771118164
395.4400024414062 199.1300048828125 4.449999809265137
394.739990234375 196.5 4.630000114440918
394.0700073242188 196.3300018310547 4.570000171661377
394.4599914550781 197.8800048828125 5.550000190734863
394.489990234375 197.9600067138672 3.769999980926514
394.3200073242188 197.4400024414062 5.119999885559082
394.6000061035156 198.4400024414062 5.769999980926514
394.2099914550781 196.8699951171875 4.539999961853027
393.9100036621094 195.7899932861328 4.739999771118164
394.4400024414062 197.9799957275391 5.610000133514404
394.5700073242188 198.5599975585938 5.900000095367432
393.9100036621094 195.9700012207031 4.75
394.3500061035156 197.5599975585938 5.230000019073486
394.239990234375 197.1300048828125 4.710000038146973
394.1000061035156 196.6799926757812 4.360000133514404
395.2699890136719 198.7400054931641 4.53000020980835
394.7699890136719 196.6499938964844 5.539999961853027
395.1600036621094 198.1799926757812 6.199999809265137
394.8599853515625 197.1999969482422 5.590000152587891
394.9800109863281 197.4600067138672 6.429999828338623
394.5499877929688 195.9299926757812 5.889999866485596
394.3800048828125 195.1300048828125 4.659999847412109
395.4100036621094 199.3800048828125 4.340000152587891
395 197.6399993896484 4.25
394.510009765625 195.6799926757812 4.710000038146973
394.6499938964844 196.3999938964844 4.460000038146973
396 199.4700012207031 5.380000114440918
395.0599975585938 195.7799987792969 5.739999771118164
394.9700012207031 195.3600006103516 5.369999885559082
394.8599853515625 195.0399932861328 4.420000076293945
395.4299926757812 197.2100067138672 6.579999923706055
395.7099914550781 198.3699951171875 6.869999885559082
395.8399963378906 198.8500061035156 5.389999866485596
395.5700073242188 197.6900024414062 6.989999771118164
396.5299987792969 199.1600036621094 5.690000057220459
395.5499877929688 195.1399993896484 5.21999979019165
396.3699951171875 198.4400024414062 6.050000190734863
395.7799987792969 195.9900054931641 6.260000228881836
395.4800109863281 194.8999938964844 4.159999847412109
395.8699951171875 196.4700012207031 6.71999979019165
395.989990234375 196.7899932861328 7.360000133514404
396.1099853515625 197.2200012207031 7.909999847412109
396.260009765625 198.0099945068359 7.369999885559082
395.6499938964844 195.5899963378906 5.630000114440918
396.8800048828125 197.8000030517578 7.380000114440918
397.1000061035156 198.5700073242188 6.889999866485596
396.489990234375 196.2200012207031 6.670000076293945
396.7200012207031 197.0200042724609 7.639999866485596
396.1900024414062 195.1799926757812 4.670000076293945
396.3999938964844 195.9100036621094 5.989999771118164
396.2900085449219 195.3699951171875 5.809999942779541
396.5799865722656 196.6199951171875 7.320000171661377
397.8399963378906 199.1499938964844 6.159999847412109
397.1199951171875 196.1399993896484 6.380000114440918
397.2099914550781 196.4600067138672 7.21999979019165
397.510009765625 197.6600036621094 7.139999866485596
396.9100036621094 195.3899993896484 5.059999942779541
397.7200012207031 198.5800018310547 6.139999866485596
397.2999877929688 196.9700012207031 7.440000057220459
397.6099853515625 198.1799926757812 7.309999942779541
396.9500122070312 195.6699981689453 5.929999828338623
396.7799987792969 194.8899993896484 4.730000019073486
398.1700134277344 198.3200073242188 6.409999847412109
398.010009765625 197.7400054931641 6.480000019073486
397.4200134277344 195.4900054931641 4.46999979019165
397.510009765625 195.7299957275391 5.539999961853027
397.3999938964844 195.2400054931641 5.079999923706055
397.6199951171875 196.0700073242188 6.150000095367432
397.8299865722656 196.9900054931641 6.860000133514404
397.2699890136719 194.7799987792969 4.829999923706055
397.760009765625 196.5899963378906 6.420000076293945
398.7099914550781 197.8800048828125 5.539999961853027
398.260009765625 196.1900024414062 5.199999809265137
398.4500122070312 196.8600006103516 5.150000095367432
398.5700073242188 197.3399963378906 5.420000076293945
398.4599914550781 196.9400024414062 6.590000152587891
398.1300048828125 195.6799926757812 4.949999809265137
398.8800048828125 195.9799957275391 5.21999979019165
398.760009765625 197.7400054931641 4.269999980926514
398.5400085449219 198.4199981689453 5.519999980926514
398.739990234375 197.7299957275391 5.519999980926514
398 197.9100036621094 6.460000038146973
397.7999877929688 199.0299987792969 4.78000020980835
398.239990234375 196.8099975585938 7.090000152587891
397.7699890136719 198.9600067138672 5.889999866485596
398.4299926757812 196.4799957275391 5.099999904632568
398.5499877929688 195.9199981689453 5.46999979019165
397.260009765625 198.3800048828125 5.519999980926514
397.2300109863281 198.3600006103516 6.71999979019165
397.2900085449219 197.9199981689453 7.28000020980835
397.5 197.1000061035156 7
397.8699951171875 198.6000061035156 6.389999866485596
398.1499938964844 197.2700042724609 6.510000228881836
397.1600036621094 198.7599945068359 6.199999809265137
397.8699951171875 195.8999938964844 6.210000038146973
397.5499877929688 197.3800048828125 4.960000038146973
397.6499938964844 196.4600067138672 7.28000020980835
396.2799987792969 199.2599945068359 5.349999904632568
396.4700012207031 198.1000061035156 6.920000076293945
396.510009765625 198.2700042724609 6
396.4200134277344 198.7100067138672 5.570000171661377
396.6499938964844 197.1999969482422 7.889999866485596
396.3099975585938 198.9299926757812 6.059999942779541
396.6199951171875 197.5500030517578 7.199999809265137
396.8999938964844 196.25 7.440000057220459
396.1099853515625 196.7299957275391 7.650000095367432
395.8800048828125 197.6699981689453 6.769999980926514
397.2099914550781 198.7899932861328 4.929999828338623
395.9500122070312 197.3200073242188 7.519999980926514
397.1099853515625 199.1699981689453 4.400000095367432
395.1600036621094 198.25 5.929999828338623
395.25 197.8800048828125 6.409999847412109
395.7300109863281 195.7899932861328 6.480000019073486
395.0899963378906 198.8000030517578 4.380000114440918
395.5199890136719 196.7299957275391 6.860000133514404
395.3800048828125 197.2200012207031 6.539999961853027
395.2799987792969 197.8699951171875 5.25
395.6600036621094 199.0500030517578 4.130000114440918
395.7799987792969 198.4400024414062 5.53000020980835
395.7000122070312 198.8899993896484 5.110000133514404
395.7900085449219 198.1000061035156 6.340000152587891
394.5899963378906 198.2700042724609 4.03000020980835
394.7200012207031 197.6600036621094 4.050000190734863
394.6000061035156 197.8399963378906 5.769999980926514
394.6400146484375 197.5800018310547 6.639999866485596
394.7300109863281 197.5099945068359 5.159999847412109
395.989990234375 197.7700042724609 4.360000133514404
395.1600036621094 195.6999969482422 5.769999980926514
394.7999877929688 197.0200042724609 5.559999942779541
394.4700012207031 198.5299987792969 5.599999904632568
394.9299926757812 196.4600067138672 5.869999885559082
394.3200073242188 196.1900024414062 4.579999923706055
394.4500122070312 195.3000030517578 5.559999942779541
394.0799865722656 196.9499969482422 4.699999809265137
394.4700012207031 195.5399932861328 4.75
393.989990234375 197.4799957275391 4.46999979019165
393.9800109863281 196.0299987792969 4.570000171661377
394.1099853515625 195.5200042724609 4.760000228881836
395.0299987792969 194.9299926757812 5.320000171661377
394.5899963378906 196.7299957275391 5.670000076293945
394.3200073242188 197.5500030517578 4.619999885559082
394.4299926757812 197.1600036621094 5.130000114440918
394.6799926757812 196.25 6.039999961853027
394.6000061035156 196.3899993896484 4.510000228881836
394.8599853515625 195.4600067138672 5.5
395.739990234375 195.1100006103516 5.010000228881836
395.1099853515625 197.7599945068359 6.409999847412109
395.510009765625 196.1499938964844 6.53000020980835
394.9100036621094 198.3200073242188 4.119999885559082
395.260009765625 197.1499938964844 6.199999809265137
394.7699890136719 198.8999938964844 4.019999980926514
395.0199890136719 198.1399993896484 5.730000019073486
395.6300048828125 198.4199981689453 5.539999961853027
396.510009765625 194.8800048828125 4.940000057220459
395.6499938964844 198.1799926757812 4.699999809265137
396.2999877929688 195.7200012207031 6.070000171661377
395.7300109863281 198.1900024414062 6.610000133514404
395.8299865722656 197.6799926757812 6.840000152587891
395.9800109863281 197.2899932861328 7.539999961853027
395.510009765625 198.7599945068359 4.800000190734863
395.4200134277344 199.1600036621094 4.210000038146973
396.0899963378906 196.6999969482422 7.579999923706055
397.0499877929688 195.1900024414062 5.079999923706055
396.6300048828125 197.0500030517578 7.880000114440918
396.8099975585938 196.3200073242188 7.309999942779541
396.1600036621094 198.6900024414062 5.579999923706055
396.3200073242188 198.2200012207031 5.980000019073486
396.5199890136719 197.5500030517578 7.630000114440918
395.9299926757812 199.4400024414062 4.010000228881836
396.8399963378906 196 6.059999942779541
396.0199890136719 199.2299957275391 5.269999980926514
396.3900146484375 197.8899993896484 6.860000133514404
397.3999938964844 196.7299957275391 7.489999771118164
397.1099853515625 197.8800048828125 7.309999942779541
396.6900024414062 199.2700042724609 4.28000020980835
397.4100036621094 196.5200042724609 6.610000133514404
396.7900085449219 199.0500030517578 5.5
397.5700073242188 195.7899932861328 6.050000190734863
397.260009765625 197.2700042724609 7.360000133514404
396.8699951171875 198.6699981689453 6.170000076293945
397.0199890136719 198.2599945068359 6.71999979019165
398.1799926757812 196.4700012207031 5.170000076293945
397.489990234375 199.2299957275391 4.900000095367432
398.3200073242188 195.9100036621094 5.150000095367432
398.1300048828125 196.8399963378906 6.78000020980835
398.0199890136719 197.3399963378906 6.420000076293945
397.8599853515625 197.9100036621094 6.420000076293945
397.8599853515625 198.1300048828125 7.210000038146973
397.75 198.3800048828125 6.28000020980835
397.6199951171875 198.8899993896484 5.869999885559082
398.9599914550781 196.2200012207031 5.28000020980835
398.7000122070312 197.1600036621094 4.329999923706055
398.6700134277344 197.4299926757812 5.46999979019165
398.5199890136719 198.0399932861328 5.579999923706055
398.8599853515625 196.7799987792969 5.139999866485596
398.3900146484375 198.5299987792969 5.400000095367432
398.2000122070312 198.9499969482422 6
398.5899963378906 197.3600006103516 5.289999961853027
398.8399963378906 196.3500061035156 5.320000171661377
398.7200012207031 196.8699951171875 5.019999980926514
398.4400024414062 197.8099975585938 6.659999847412109
398.4599914550781 197.8600006103516 5.440000057220459
398.6300048828125 197.3699951171875 4.25
398.3500061035156 198.4299926757812 5.550000190734863
397.6300048828125 198.5599975585938 6.159999847412109
397.5400085449219 199.0800018310547 6.010000228881836
397.739990234375 197.9600067138672 7.019999980926514
398.3399963378906 195.9100036621094 5.119999885559082
397.9100036621094 197.5200042724609 6.550000190734863
398 196.9299926757812 6.840000152587891
397.5299987792969 199.1300048828125 4.920000076293945
398.2000122070312 196.4700012207031 5.099999904632568
396.7900085449219 199.2100067138672 5.630000114440918
396.8800048828125 198.5899963378906 6.260000228881836
397.239990234375 196.9400024414062 7.480000019073486
397.3900146484375 196.4499969482422 6.639999866485596
397.1400146484375 197.4700012207031 7.519999980926514
396.8200073242188 199.25 4.389999866485596
397.5299987792969 195.9799957275391 6.079999923706055
397.6799926757812 195.5099945068359 5.159999847412109
396.989990234375 198.0099945068359 7.440000057220459
396.989990234375 198.0399932861328 6.71999979019165
396.3900146484375 197.6300048828125 7.739999771118164
396.1000061035156 199.3300018310547 5.300000190734863
396.510009765625 197.1100006103516 8.020000457763672
396.989990234375 195.5599975585938 5.590000152587891
396.6900024414062 196.6300048828125 7.28000020980835
397.1600036621094 195.1100006103516 5.010000228881836
396.8500061035156 196.1100006103516 6.25
396.1700134277344 198.75 6.170000076293945
395.5799865722656 198.8300018310547 5.480000019073486
396.239990234375 196.1799926757812 5.440000057220459
395.6499938964844 198.2899932861328 6.710000038146973
396.6499938964844 194.6300048828125 4.739999771118164
395.9200134277344 197.1199951171875 7.610000133514404
396.0299987792969 196.6199951171875 7.449999809265137
396.5 195.1799926757812 5
396.3200073242188 195.6799926757812 6.010000228881836
395.4599914550781 199.4199981689453 4.210000038146973
396.2099914550781 196.1600036621094 6.539999961853027
395.7799987792969 197.6699981689453 7.03000020980835
395.010009765625 198.4100036621094 5.170000076293945
395.25 197.2899932861328 6.150000095367432
395.1000061035156 197.8300018310547 6.409999847412109
395.8200073242188 195.1999969482422 4.920000076293945
395.6799926757812 195.7100067138672 5.889999866485596
395.3500061035156 196.75 6.909999847412109
395.510009765625 196.25 6.570000171661377
395.0199890136719 198.3399963378906 5.960000038146973
394.3800048828125 197.9100036621094 5.519999980926514
394.6900024414062 196.7899932861328 5.400000095367432
394.5400085449219 197.3200073242188 5.210000038146973
394.7999877929688 196.25 5.96999979019165
394.8999938964844 195.7899932861328 5.610000133514404
395.0700073242188 195.25 5.239999771118164
394 196.9900054931641 4.710000038146973
394.3999938964844 195.4199981689453 4.739999771118164
394.1199951171875 196.4700012207031 4.420000076293945
394.2300109863281 196 4.690000057220459
393.739990234375 195.4299926757812 4.829999923706055
393.8099975585938 195.5399932861328 4.829999923706055
394.6199951171875 195.1199951171875 4.360000133514404
394.5199890136719 195.6399993896484 4.760000228881836
394.6199951171875 195.3099975585938 5.590000152587891
394.1799926757812 196.8500061035156 4.599999904632568
394.5199890136719 195.8000030517578 6.03000020980835
394.0899963378906 197.3200073242188 5.099999904632568
394.3299865722656 196.2599945068359 4.590000152587891
395.1099853515625 195.7799987792969 5.699999809265137
395.25 195.3000030517578 5.25
394.7799987792969 197.0299987792969 5.610000133514404
394.6600036621094 197.7599945068359 6.789999961853027
395 196.2299957275391 6
394.510009765625 198.1300048828125 5.78000020980835
394.7900085449219 197.2799987792969 6.460000038146973
394.6600036621094 197.6399993896484 5.420000076293945
395.3599853515625 194.7799987792969 5.090000152587891
395.239990234375 195.0700073242188 4.300000190734863
395.7000122070312 195.7299957275391 5.909999847412109
395.75 195.4400024414062 4.949999809265137
395.5299987792969 196.6300048828125 6.860000133514404
395.6099853515625 196.1699981689453 6.460000038146973
395.2900085449219 197.3999938964844 6.360000133514404
395.1799926757812 197.9299926757812 6.460000038146973
395.8800048828125 194.9499969482422 4.619999885559082
394.9299926757812 198.75 5.849999904632568
396.4100036621094 195.4199981689453 5.010000228881836
396.1400146484375 196.8300018310547 7.75
395.7000122070312 198.3600006103516 6.929999828338623
396.5499877929688 194.9100036621094 4.840000152587891
396.2699890136719 196.1499938964844 6.389999866485596
395.3900146484375 199.2899932861328 4.260000228881836
395.5499877929688 198.8300018310547 5.579999923706055
396.3500061035156 195.6799926757812 5.980000019073486
395.9400024414062 197.4900054931641 7.639999866485596
397.239990234375 194.9400024414062 4.840000152587891
396.9700012207031 196.2400054931641 6.579999923706055
396.5700073242188 197.8399963378906 6.989999771118164
396.6900024414062 197.5099945068359 7.840000152587891
397.1199951171875 195.4600067138672 5.210000038146973
397.1000061035156 195.8200073242188 6.019999980926514
396.1099853515625 199.5299987792969 5.46999979019165
396.4500122070312 198.3399963378906 7.260000228881836
396.8999938964844 196.5899963378906 7.199999809265137
396.3299865722656 198.6900024414062 6.150000095367432
396.8099975585938 197.0800018310547 7.46999979019165
397.739990234375 195.7599945068359 5.809999942779541
397.760009765625 195.4900054931641 4.800000190734863
397.6499938964844 196.1900024414062 6.239999771118164
397.5700073242188 196.6300048828125 6.630000114440918
397.4299926757812 197.0899963378906 7.25
396.7999877929688 199.3600006103516 5.730000019073486
397.2999877929688 197.6199951171875 7.329999923706055
