498.4700012207031 463 11.67000007629395
497.9500122070312 463.1099853515625 11.09000015258789
498.8299865722656 462.8599853515625 13.97000026702881
497.8999938964844 463.1600036621094 9.489999771118164
498.4200134277344 463.010009765625 9.890000343322754
497.3200073242188 463.3200073242188 9.270000457763672
499.2699890136719 462.7300109863281 14.38000011444092
499.7799987792969 462.6600036621094 13.09000015258789
498.1400146484375 463.8399963378906 8.090000152587891
498.7799987792969 463.6199951171875 9.930000305175781
497.1799926757812 464.0499877929688 10.72000026702881
498.2000122070312 463.760009765625 13.18000030517578
499.2999877929688 463.510009765625 11.88000011444092
499.6499938964844 463.4100036621094 12.81999969482422
498.9200134277344 463.5700073242188 11.25
498.4200134277344 463.7300109863281 9.149999618530273
499.2699890136719 463.489990234375 13.81999969482422
498.7099914550781 463.6099853515625 13.35000038146973
498.4800109863281 463.7200012207031 10.6899995803833
497.7099914550781 463.8800048828125 11.0600004196167
498.6300048828125 464.3599853515625 7.880000114440918
499.5599975585938 464.1499938964844 9.090000152587891
498.8200073242188 464.3299865722656 9.329999923706055
498.9400024414062 464.260009765625 10.69999980926514
499.4500122070312 464.1099853515625 12.59000015258789
499.7099914550781 464.0700073242188 11.86999988555908
499.0199890136719 464.8299865722656 9.390000343322754
498.8900146484375 464.6099853515625 7.440000057220459
499.1700134277344 464.5700073242188 9.680000305175781
499.5299987792969 464.510009765625 12.02000045776367
498.7099914550781 464.6600036621094 9.140000343322754
499.5899963378906 463.760009765625 12.55000019073486
499.1600036621094 463.8200073242188 10.77000045776367
498.9200134277344 463.9200134277344 13.36999988555908
498.7999877929688 463.8900146484375 8.680000305175781
498.3299865722656 464.010009765625 8.239999771118164
499.75 463.0599975585938 13.81999969482422
498.6099853515625 463.989990234375 10.86999988555908
499.8099975585938 463.0199890136719 13.01000022888184
498.6499938964844 463.3299865722656 13.28999996185303
499.9700012207031 463 11.73999977111816
497.739990234375 463.5299987792969 10.98999977111816
498.1099853515625 463.489990234375 13.35999965667725
497.4200134277344 463.6099853515625 8.189999580383301
499.1600036621094 463.1900024414062 13.72999954223633
498.4400024414062 463.3500061035156 9.659999847412109
497.8399963378906 463.489990234375 9.810000419616699
498.3699951171875 463.3599853515625 10.46000003814697
498.7300109863281 462.7699890136719 14
498.3200073242188 462.8599853515625 12.52999973297119
498.8200073242188 462.7200012207031 13.17000007629395
500.0299987792969 462.4200134277344 13.19999980926514
498.0299987792969 462.9100036621094 9.930000305175781
497.8299865722656 462.9700012207031 12.25
499.5899963378906 462.5 11.48999977111816
497.510009765625 463.0400085449219 9.619999885559082
499.3200073242188 462.6099853515625 14.18000030517578
496.989990234375 463.1400146484375 9.420000076293945
497.9299926757812 462.9400024414062 10.92000007629395
497.4400024414062 463.0499877929688 10.63000011444092
498.1099853515625 462.2000122070312 12.25
498.6700134277344 462.0700073242188 12.61999988555908
499.2300109863281 461.9100036621094 12.22000026702881
499.8599853515625 461.7799987792969 12.22999954223633
499.9200134277344 461.75 11.23999977111816
498.5799865722656 462.0299987792969 7.670000076293945
497.2900085449219 462.3800048828125 8.279999732971191
498.4200134277344 462.1099853515625 9.380000114440918
498.2699890136719 462.1400146484375 10.68000030517578
496.760009765625 462.510009765625 8.399999618530273
498.7200012207031 462.0299987792969 11.85999965667725
497.6600036621094 462.3299865722656 10.94999980926514
499.2999877929688 461.1400146484375 12.55000019073486
498.1099853515625 461.4299926757812 12.92000007629395
498.6000061035156 461.2999877929688 13.28999996185303
497.7900085449219 461.4599914550781 10.19999980926514
498 461.3900146484375 8.270000457763672
497.0700073242188 461.6700134277344 12.10000038146973
498.3800048828125 461.3500061035156 10.4399995803833
497.2900085449219 461.5899963378906 10.03999996185303
498.760009765625 461.2699890136719 11.88000011444092
496.7699890136719 461.739990234375 9.239999771118164
497.6499938964844 461.5299987792969 11.64999961853027
497.5799865722656 461.5499877929688 12.38000011444092
499.8500061035156 460.9800109863281 12.60000038146973
498.8399963378906 460.5499877929688 13.31999969482422
499.9200134277344 460.9700012207031 11.72000026702881
499.1099853515625 460.4500122070312 10.5600004196167
498.010009765625 460.7200012207031 10.27000045776367
498.2699890136719 460.6000061035156 7.639999866485596
498.989990234375 460.4800109863281 11.42000007629395
496.9100036621094 460.9800109863281 9.260000228881836
499.739990234375 460.260009765625 10.07999992370605
497.239990234375 460.9400024414062 11.92000007629395
498.2699890136719 460.6499938964844 13.28999996185303
499.5799865722656 460.3099975585938 11.52000045776367
496.6400146484375 461.0599975585938 12.09000015258789
498.3999938964844 460.6300048828125 11.90999984741211
498.8999938964844 460.489990234375 12.56999969482422
497.9100036621094 460.7699890136719 11.65999984741211
498.7200012207031 459.8699951171875 10.21000003814697
499.7999877929688 459.6400146484375 11.40999984741211
498.510009765625 459.9400024414062 12.35999965667725
498.1300048828125 460.0400085449219 10.14999961853027
496.8699951171875 460.3500061035156 11.8100004196167
499.25 459.7300109863281 10.4399995803833
497.8900146484375 460.0799865722656 7.510000228881836
497.2799987792969 460.2099914550781 7.400000095367432
498.489990234375 459.2300109863281 10.13000011444092
498.260009765625 459.5499877929688 10.17000007629395
499.4200134277344 459.260009765625 9.890000343322754
499.739990234375 459.1900024414062 11.5600004196167
499.5799865722656 459.260009765625 7.610000133514404
498.8399963378906 459.4299926757812 10.11999988555908
497.25 460.4700012207031 11.78999996185303
496.7300109863281 460.6000061035156 12.06999969482422
498.1000061035156 460.3599853515625 6.769999980926514
498.7099914550781 460.1600036621094 10.32999992370605
499.489990234375 459.9400024414062 11.27999973297119
498.5499877929688 460.1400146484375 12.47999954223633
499.9700012207031 459.8699951171875 7.610000133514404
499.3599853515625 460.010009765625 10.34000015258789
498.9299926757812 460.6600036621094 12.27000045776367
498.1000061035156 460.239990234375 13.36999988555908
498.6300048828125 460.7200012207031 10.61999988555908
499.7900085449219 460.4400024414062 10.19999980926514
499.2300109863281 460.6000061035156 10.71000003814697
500 460.3800048828125 11.4399995803833
499.3999938964844 460.5599975585938 11.63000011444092
497.4100036621094 461.0499877929688 10.23999977111816
497.1199951171875 461.1199951171875 12.02999973297119
497.6900024414062 460.9500122070312 11.88000011444092
498.4700012207031 460.7699890136719 13.23999977111816
497.489990234375 461.6900024414062 12.30000019073486
496.9400024414062 461.8200073242188 12.10999965667725
497.0899963378906 461.8200073242188 10.10000038146973
497.9100036621094 461.5700073242188 11.35999965667725
497.7000122070312 461.6499938964844 10.14000034332275
498.8900146484375 461.3299865722656 13.44999980926514
499.760009765625 461.1099853515625 11.71000003814697
499.510009765625 461.1900024414062 10.32999992370605
500.0299987792969 461.0700073242188 10.02000045776367
499.3099975585938 461.239990234375 12.47000026702881
498.2099914550781 461.510009765625 12.89999961853027
497.9500122070312 460.8900146484375 13.34000015258789
497.1400146484375 462.5599975585938 11.11999988555908
496.8800048828125 462.6099853515625 9.649999618530273
497.7699890136719 462.3699951171875 11.01000022888184
498.0499877929688 462.2999877929688 12.40999984741211
496.6700134277344 462.7099914550781 8.569999694824219
499.1199951171875 462.0499877929688 12.07999992370605
499.9800109863281 461.8399963378906 9.970000267028809
498.5 462.9100036621094 12.51000022888184
499.489990234375 462.6600036621094 11.5
499.6400146484375 461.9100036621094 11.52000045776367
499.1000061035156 462.760009765625 12.51000022888184
499.8299865722656 462.6000061035156 10.03999996185303
498.5700073242188 462.1499938964844 12.42000007629395
499.7799987792969 461.8699951171875 12.28999996185303
499.7900085449219 462.5599975585938 13.07999992370605
499.4299926757812 462.6799926757812 14.09000015258789
498.8200073242188 462.8200073242188 14.02999973297119
497.6099853515625 463.1300048828125 10.72999954223633
497.4200134277344 463.2000122070312 9.670000076293945
497.9400024414062 463.0199890136719 12.56999969482422
499.3699951171875 462.0199890136719 10.22000026702881
497.5199890136719 463.8099975585938 11
499.1900024414062 463.3299865722656 13.55000019073486
499.8099975585938 463.2099914550781 13.68000030517578
499.5799865722656 463.2699890136719 12.60999965667725
498.5499877929688 463.4800109863281 13.38000011444092
499.4299926757812 463.9700012207031 12.77999973297119
498.9599914550781 464.1400146484375 10.22999954223633
499.2999877929688 464.0400085449219 11.89000034332275
499.6000061035156 464 10.48999977111816
499.9299926757812 463.8800048828125 9.100000381469727
499.9700012207031 463.8500061035156 12.56999969482422
499.0700073242188 464.0899963378906 10.77999973297119
499.8099975585938 463.9100036621094 11.85999965667725
498.4700012207031 464.239990234375 10.85000038146973
499.2799987792969 464.7999877929688 9.569999694824219
498.6400146484375 459.1900024414062 10.10999965667725
499.6700134277344 459.5199890136719 7.659999847412109
499.9100036621094 459.4400024414062 9.800000190734863
498.0299987792969 459.9500122070312 10.22000026702881
498.3699951171875 459.8800048828125 12.28999996185303
498.7200012207031 459.75 10.1899995803833
498.7699890136719 459.7999877929688 11.77999973297119
498.8900146484375 460.3900146484375 10.56999969482422
498.9200134277344 460.3999938964844 12.10999965667725
497.6199951171875 460.6700134277344 7.820000171661377
497.3900146484375 460.760009765625 10.23999977111816
498.6400146484375 460.4800109863281 12.89000034332275
498.0799865722656 460.6199951171875 10.27000045776367
496.9500122070312 460.8999938964844 12.14999961853027
499.4400024414062 460.2699890136719 10.1899995803833
498.4800109863281 461.2000122070312 7.949999809265137
499.3999938964844 460.3099975585938 11.64000034332275
499.5599975585938 460.9299926757812 10.28999996185303
499.9599914550781 460.1300048828125 11.32999992370605
499.5299987792969 460.989990234375 11.60000038146973
497.1199951171875 461.5799865722656 12.44999980926514
499.6700134277344 460.1400146484375 7.670000076293945
499.9500122070312 460.1400146484375 9.699999809265137
498.1199951171875 461.3699951171875 13.11999988555908
499.9200134277344 462.1300048828125 11.22000026702881
499.9400024414062 462.1099853515625 9.899999618530273
499.5499877929688 462.2099914550781 10.40999984741211
499.1000061035156 462.3099975585938 9.550000190734863
499 461.7999877929688 12.27000045776367
499.6199951171875 461.6000061035156 12.23999977111816
498.4500122070312 461.8999938964844 11
499.7099914550781 461.5700073242188 10.92000007629395
497.1099853515625 462.260009765625 11.11999988555908
498.8900146484375 461.1600036621094 13.35000038146973
499.5700073242188 462.8500061035156 9.130000114440918
498.8299865722656 462.3800048828125 11.97000026702881
500.0199890136719 462.8099975585938 11.5600004196167
497.75 462.6499938964844 11.13000011444092
499.4400024414062 462.25 13.22999954223633
498.8800048828125 462.3800048828125 13.57999992370605
498.6000061035156 462.4400024414062 11.47000026702881
499.3599853515625 463.7099914550781 12.89999961853027
499.4500122070312 463.6499938964844 10.02999973297119
499.2799987792969 463.010009765625 12.86999988555908
499.8699951171875 463.5400085449219 10.97000026702881
499.8599853515625 463.5700073242188 12.52999973297119
499.2300109863281 463.0400085449219 14.14999961853027
498.5400085449219 463.1700134277344 14.3100004196167
498.7900085449219 463.0899963378906 10.22000026702881
499.5299987792969 462.2200012207031 11.85000038146973
498.9599914550781 463.8200073242188 13.55000019073486
497.0199890136719 462.8399963378906 9.600000381469727
499.6799926757812 462.9100036621094 13.68000030517578
499.5700073242188 462.8900146484375 11.97999954223633
498.7999877929688 464.4500122070312 7.510000228881836
499.1600036621094 464.4200134277344 9.630000114440918
497.7300109863281 464.0799865722656 10.96000003814697
499.5 464.3099975585938 9.060000419616699
499.0400085449219 459.2200012207031 10.05000019073486
499.9200134277344 459.4100036621094 7.650000095367432
499.3800048828125 459.2999877929688 7.380000114440918
499.8599853515625 459.489990234375 11.40999984741211
499.5499877929688 459.3800048828125 10.48999977111816
499.1199951171875 459.8200073242188 10.46000003814697
499.0700073242188 459.760009765625 7.139999866485596
498.5799865722656 459.7300109863281 11.94999980926514
499.5799865722656 459.8999938964844 7.550000190734863
499.4200134277344 459.9500122070312 11.25
498.6000061035156 459.7200012207031 10.0600004196167
498.1400146484375 460.2200012207031 11.60000038146973
498.9400024414062 460.3699951171875 7.889999866485596
498.6900024414062 460.3599853515625 10.1899995803833
498.3299865722656 460.2200012207031 7.650000095367432
497.7200012207031 460.0599975585938 7.519999980926514
498.0499877929688 460.2099914550781 10.18000030517578
498.25 460.2999877929688 13.13000011444092
499.4500122070312 460.5499877929688 10.06999969482422
499.510009765625 460.5799865722656 11.64999961853027
499.8299865722656 461.3900146484375 12.60000038146973
498.2799987792969 461.0499877929688 13.31999969482422
498.2000122070312 461.010009765625 11.9399995803833
497.6199951171875 460.8500061035156 11.85000038146973
499.2300109863281 461.2699890136719 12.56999969482422
496.9500122070312 460.6900024414062 11.8100004196167
496.6099853515625 460.5799865722656 9.229999542236328
497.2200012207031 460.6799926757812 7.630000114440918
497.7999877929688 460.8399963378906 7.889999866485596
497.5899963378906 460.8200073242188 10.22000026702881
496.9800109863281 460.6799926757812 9.970000267028809
498.8699951171875 461.1600036621094 13.55000019073486
497.5400085449219 461.5299987792969 12.36999988555908
497.9599914550781 461.6099853515625 12.94999980926514
499.6900024414062 462.0199890136719 10.25
498.0199890136719 461.6300048828125 11.10999965667725
497.0299987792969 461.3599853515625 12.0600004196167
498.5700073242188 461.739990234375 11.36999988555908
497.2099914550781 461.3900146484375 7.860000133514404
497.1799926757812 461.3800048828125 9.789999961853027
498.9700012207031 461.8800048828125 12.06999969482422
497.6700134277344 461.5 10.30000019073486
499.6900024414062 462.0299987792969 11.84000015258789
499.8900146484375 462.7300109863281 13.21000003814697
499.0199890136719 462.5499877929688 12.0600004196167
499.4700012207031 462.6799926757812 14.40999984741211
498.1400146484375 462.2799987792969 11.0600004196167
498.4800109863281 462.3599853515625 11.88000011444092
498.9700012207031 462.5 10.52000045776367
497.7000122070312 462.1300048828125 8.789999961853027
498.2000122070312 462.239990234375 7.460000038146973
498.3999938964844 462.3599853515625 10.35000038146973
497.6799926757812 462.1600036621094 10.68000030517578
498.9599914550781 462.5400085449219 13.94999980926514
498.8200073242188 462.4500122070312 9.340000152587891
497.6199951171875 462.0899963378906 7.360000133514404
496.9200134277344 461.9700012207031 9.170000076293945
499.8999938964844 462.739990234375 11.36999988555908
497.1900024414062 462.0400085449219 10.15999984741211
498.2000122070312 462.260009765625 9.329999923706055
499.5 463.3099975585938 12.77000045776367
498.6799926757812 463.1000061035156 11.61999988555908
499.1000061035156 463.25 13.88000011444092
497.6799926757812 462.8599853515625 10.75
498.5199890136719 463.0400085449219 10.17000007629395
498.1300048828125 462.989990234375 11.19999980926514
497.75 462.8699951171875 12.25
496.7699890136719 462.6199951171875 9.600000381469727
497.2000122070312 462.6900024414062 8.470000267028809
498.2999877929688 463.0199890136719 12.63000011444092
497.5299987792969 462.7900085449219 9.420000076293945
498.7200012207031 463.1199951171875 13.15999984741211
496.5799865722656 462.5199890136719 8.279999732971191
499.2699890136719 463.9800109863281 11.8100004196167
498.6499938964844 463.8999938964844 13.39999961853027
497.6700134277344 463.6000061035156 10.97999954223633
498.7699890136719 463.8800048828125 9.689999580383301
497.0199890136719 463.3999938964844 9.149999618530273
499.7900085449219 464.0899963378906 10.44999980926514
499.6000061035156 464.0799865722656 12.60999965667725
498.2000122070312 463.6900024414062 7.960000038146973
498.1700134277344 463.6900024414062 9.630000114440918
498.4700012207031 463.7999877929688 10.46000003814697
498.5499877929688 464.4400024414062 9.149999618530273
498.3999938964844 464.3800048828125 7.760000228881836
498.6199951171875 464.5 10.80000019073486
499 464.5799865722656 9.649999618530273
498.6600036621094 464.3900146484375 10.78999996185303
498.9800109863281 464.5199890136719 7.46999979019165
497.5400085449219 464.1300048828125 10.9399995803833
499.3200073242188 464.5700073242188 9.560000419616699
498.3900146484375 464.3900146484375 7.829999923706055
498.7999877929688 464.4700012207031 9.220000267028809
497.6499938964844 463.6099853515625 10.97000026702881
498.5499877929688 463.8299865722656 8.010000228881836
497.2799987792969 463.5 9.220000267028809
499.3299865722656 463.9599914550781 11.85000038146973
498.3099975585938 463.7699890136719 10.15999984741211
499.4599914550781 464.010009765625 10.51000022888184
499.5799865722656 464.1000061035156 8.930000305175781
499.2099914550781 463.9299926757812 12.94999980926514
499.8399963378906 464.0799865722656 12.61999988555908
498.8999938964844 463.8999938964844 10.80000019073486
498.6400146484375 463.7799987792969 13.35999965667725
498.3999938964844 463.8200073242188 9.199999809265137
498 463.0499877929688 11.0600004196167
498.0899963378906 463.0799865722656 9.770000457763672
499.4299926757812 463.3500061035156 13.86999988555908
498.8599853515625 463.1900024414062 13.28999996185303
499.5199890136719 463.3599853515625 12.89999961853027
498.5599975585938 463.1600036621094 10.68000030517578
498.3999938964844 463.1199951171875 12.53999996185303
498.7900085449219 463.2000122070312 14.27999973297119
497.0400085449219 462.8200073242188 9.590000152587891
497.5899963378906 462.9599914550781 9.649999618530273
497.4700012207031 462.8900146484375 10.61999988555908
497.1600036621094 462.8699951171875 8.439999580383301
497.1900024414062 462.0799865722656 10.15999984741211
497.3699951171875 462.1700134277344 8.260000228881836
497.8399963378906 462.2799987792969 8.930000305175781
498.1400146484375 462.3099975585938 12.21000003814697
498.2999877929688 462.3599853515625 10.98999977111816
497.6600036621094 462.2099914550781 10.67000007629395
498.3999938964844 462.3699951171875 9.680000305175781
498.3599853515625 462.3699951171875 10.39999961853027
499.1600036621094 462.5 13.53999996185303
499.7799987792969 462.6600036621094 13.02000045776367
497.0199890136719 462.010009765625 12.06999969482422
498.7999877929688 462.4700012207031 11.75
499.9599914550781 462.7300109863281 11.44999980926514
498.5700073242188 462.3999938964844 13.64999961853027
498.6000061035156 462.4400024414062 7.639999866485596
499.3500061035156 462.5899963378906 11.89999961853027
499.0899963378906 462.510009765625 14.17000007629395
497.9200134277344 461.6000061035156 11.34000015258789
496.7099914550781 461.2999877929688 11.98999977111816
498.9299926757812 461.8500061035156 11.80000019073486
496.9299926757812 461.3599853515625 10.02000045776367
498.4500122070312 461.7000122070312 11.28999996185303
498 461.6199951171875 10.28999996185303
499.7099914550781 462.0400085449219 10.02999973297119
499.5299987792969 461.9599914550781 11.82999992370605
498.3099975585938 461.6700134277344 12.93000030517578
497.25 461.4299926757812 12.3100004196167
499.2099914550781 461.9500122070312 8.979999542236328
497.3599853515625 460.8599853515625 11.94999980926514
498.4299926757812 461.1099853515625 13.35999965667725
499.6700134277344 461.4200134277344 12.31999969482422
498.9599914550781 461.25 13.52000045776367
497.9299926757812 461 12.01000022888184
499.7900085449219 461.510009765625 10.94999980926514
497.0400085449219 460.8099975585938 9.340000152587891
496.7699890136719 460.7200012207031 12.09000015258789
496.9500122070312 460.8099975585938 10.17000007629395
497.489990234375 460.3399963378906 7.449999809265137
497.0899963378906 460.2000122070312 11.85000038146973
497.989990234375 460.4100036621094 13.39999961853027
498.5599975585938 460.6199951171875 7.659999847412109
498.6000061035156 460.5599975585938 13.06999969482422
498.239990234375 460.489990234375 11.34000015258789
499.8900146484375 460.8699951171875 11.77000045776367
499.260009765625 460.7099914550781 12.5
499.3599853515625 460.7699890136719 11.64000034332275
498.0400085449219 460.4700012207031 7.579999923706055
498.3099975585938 460.5 10.31999969482422
497.8099975585938 460.3999938964844 10.22999954223633
498.8599853515625 459.9299926757812 12.35000038146973
498.3800048828125 459.8099975585938 11.92000007629395
499.0799865722656 460 10.51000022888184
499.5299987792969 460.1000061035156 11.36999988555908
499.6799926757812 460.1099853515625 10.17000007629395
498.9599914550781 459.9700012207031 11.27000045776367
499.4100036621094 460.1199951171875 7.21999979019165
499.6799926757812 459.4800109863281 11.48999977111816
498.6400146484375 459.2300109863281 10.13000011444092
499.2699890136719 459.4100036621094 9.829999923706055
499.8099975585938 459.510009765625 10.13000011444092
499.5499877929688 459.5 7.46999979019165
499.75 458.9400024414062 7.539999961853027
499.9700012207031 459.6400146484375 11.30000019073486
499.510009765625 459.5599975585938 11.59000015258789
499.9100036621094 459.5700073242188 7.650000095367432
499.3099975585938 459.4700012207031 10.60999965667725
498.6300048828125 459.3200073242188 10.18000030517578
499.1900024414062 459.4299926757812 10.01000022888184
499.9599914550781 460.3099975585938 9.789999961853027
498.6799926757812 460.0199890136719 12.02999973297119
499.0799865722656 460.1099853515625 11.22999954223633
498.3500061035156 459.9100036621094 10.22000026702881
498.9299926757812 460.0899963378906 10.5
498.2999877929688 459.9500122070312 13.22999954223633
498.0799865722656 459.8699951171875 12.02000045776367
499.7099914550781 460.2699890136719 11.4399995803833
499.010009765625 460.7799987792969 12.47999954223633
499.7999877929688 460.9100036621094 10.14000034332275
498.510009765625 460.6600036621094 13.14999961853027
498.6799926757812 460.6300048828125 10.61999988555908
497.4599914550781 460.3299865722656 10.32999992370605
498.010009765625 460.5299987792969 13.39999961853027
499.489990234375 460.8800048828125 11.64999961853027
497.1199951171875 460.260009765625 11.8100004196167
499.4800109863281 461.510009765625 10.90999984741211
498.760009765625 461.3800048828125 13.42000007629395
499.1799926757812 461.4500122070312 12.28999996185303
498.2000122070312 461.239990234375 13.31999969482422
497.3699951171875 461 11.97999954223633
499.9500122070312 461.6000061035156 10.28999996185303
496.8099975585938 460.8800048828125 12.17000007629395
499.6900024414062 461.5700073242188 12.25
499.2999877929688 462.239990234375 12.0600004196167
498.6600036621094 462.0499877929688 11.6899995803833
497.8500061035156 461.8399963378906 10.60999965667725
498.1499938964844 461.9599914550781 12.43000030517578
499.4800109863281 462.2300109863281 9.960000038146973
496.9800109863281 461.6400146484375 12.30000019073486
497.5400085449219 461.8200073242188 12.23999977111816
499.8200073242188 462.3599853515625 11.61999988555908
498.9700012207031 462.1600036621094 13.5
497.1300048828125 461.6799926757812 10.01000022888184
499.6799926757812 463 13.0600004196167
498.4299926757812 462.6799926757812 12.27000045776367
500.010009765625 463.0700073242188 11.65999984741211
499.5499877929688 462.9599914550781 12.32999992370605
499.3200073242188 462.9299926757812 14.06999969482422
497.6400146484375 462.4700012207031 11.09000015258789
497.1099853515625 462.3299865722656 8.350000381469727
498.7799987792969 462.8099975585938 14.03999996185303
496.8900146484375 462.2799987792969 10.36999988555908
498.1700134277344 462.6000061035156 10.85999965667725
498.2999877929688 463.2900085449219 13.52000045776367
498.8800048828125 463.4400024414062 13.55000019073486
499.3999938964844 463.5599975585938 12.86999988555908
496.989990234375 462.9200134277344 9.640000343322754
497.8099975585938 463.1300048828125 10.80000019073486
497.5899963378906 463.0899963378906 9.569999694824219
499.8699951171875 463.6700134277344 12.46000003814697
498.0799865722656 463.25 12.42000007629395
499.6099853515625 464.239990234375 10.21000003814697
498.6099853515625 464.0299987792969 10.9399995803833
499.9700012207031 464.3099975585938 9
497.5299987792969 463.7000122070312 8.159999847412109
497.4700012207031 463.760009765625 11.01000022888184
499.3599853515625 464.2200012207031 11.97000026702881
499.3599853515625 464.1700134277344 8.939999580383301
499.010009765625 464.1199951171875 10.27000045776367
498.760009765625 464.739990234375 7.519999980926514
499.1199951171875 464.8500061035156 9.539999961853027
498.8699951171875 459.1499938964844 10.18000030517578
499.8500061035156 459.4200134277344 7.630000114440918
498.3900146484375 459.7999877929688 10.27999973297119
498.5299987792969 459.7999877929688 12.02999973297119
499.6400146484375 460.1000061035156 10.14999961853027
498.7699890136719 460.5400085449219 12.53999996185303
498.4599914550781 460.4500122070312 13.31999969482422
498.4400024414062 460.4800109863281 10.36999988555908
499.6199951171875 460.7799987792969 11.46000003814697
499.3500061035156 460.6900024414062 12.38000011444092
499.7900085449219 460.8200073242188 10.1899995803833
499.5599975585938 461.2699890136719 12.3100004196167
498.6900024414062 461.1199951171875 8.930000305175781
497.2699890136719 460.7200012207031 11.92000007629395
499.6600036621094 461.3099975585938 11.07999992370605
498.7300109863281 461.0899963378906 11.92000007629395
499.0499877929688 461.1799926757812 12.63000011444092
498.6700134277344 461.0700073242188 13.27000045776367
498.2300109863281 461.010009765625 8.010000228881836
499.9700012207031 461.4200134277344 10.27000045776367
496.8399963378906 461.2200012207031 12.11999988555908
497.9700012207031 461.4800109863281 13.0600004196167
499.9400024414062 461.989990234375 11.42000007629395
498.6300048828125 461.6700134277344 11.47999954223633
499 461.75 12.31999969482422
499.4700012207031 461.9100036621094 10.39000034332275
500 462.0199890136719 9.930000305175781
499.239990234375 461.8500061035156 11.32999992370605
499.6400146484375 461.9200134277344 12.14999961853027
497.5299987792969 461.4200134277344 12.18000030517578
499.2699890136719 462.5199890136719 14.14999961853027
499 462.4299926757812 13.47999954223633
496.9800109863281 462 12.27000045776367
498.489990234375 462.3299865722656 12.43000030517578
498.9400024414062 462.4800109863281 11.92000007629395
499.0400085449219 462.5299987792969 7.599999904632568
499.3200073242188 462.5599975585938 9.729999542236328
499.5199890136719 462.5899963378906 11.53999996185303
497.510009765625 462.1400146484375 10.34000015258789
499.5599975585938 462.6600036621094 8.670000076293945
499.3900146484375 463.1900024414062 12.97999954223633
499.7099914550781 463.25 13.59000015258789
499.9700012207031 463.3299865722656 11.18000030517578
498.6900024414062 463.0499877929688 8.460000038146973
498.6499938964844 462.989990234375 14.35000038146973
499.8099975585938 463.2799987792969 12.27999973297119
499.1900024414062 463.1000061035156 13.90999984741211
499.0599975585938 463.1000061035156 10.64000034332275
499.0799865722656 463.1199951171875 12.3100004196167
498.4500122070312 463.5499877929688 13.40999984741211
497.8999938964844 463.4500122070312 10.86999988555908
499.1300048828125 463.7000122070312 13.44999980926514
498.0799865722656 463.4800109863281 9.659999847412109
497.1600036621094 463.2900085449219 9.289999961853027
499.5499877929688 463.7900085449219 12.80000019073486
499.7999877929688 463.8900146484375 11.80000019073486
498.5899963378906 463.6199951171875 10.76000022888184
499.7999877929688 463.8900146484375 10.25
499.9400024414062 463.9599914550781 9.060000419616699
499.5 464.4800109863281 9.390000343322754
498.739990234375 464.260009765625 10.82999992370605
498.760009765625 464.3399963378906 7.820000171661377
499.3699951171875 464.3999938964844 12.11999988555908
499.5700073242188 459.6099853515625 11.43000030517578
499.6499938964844 459.7999877929688 10.07999992370605
499.9800109863281 461.2300109863281 12.6899995803833
499.7300109863281 460.2300109863281 11.40999984741211
499.8200073242188 460.4500122070312 10.03999996185303
499.9800109863281 461.1000061035156 10.05000019073486
498.8800048828125 459.5199890136719 10.14000034332275
499.0499877929688 460.1900024414062 10.47000026702881
499.7099914550781 462.8299865722656 13.03999996185303
499.3900146484375 461.6499938964844 11.10999965667725
499.5299987792969 461.9599914550781 10.10999965667725
499.1600036621094 460.8200073242188 12.47999954223633
499.8999938964844 463.4700012207031 10.84000015258789
498.9700012207031 459.8699951171875 11.28999996185303
499.3200073242188 461.3999938964844 12.19999980926514
499.1300048828125 460.4599914550781 11.46000003814697
499.9700012207031 463.9200134277344 12.46000003814697
499.6199951171875 462.4299926757812 11.73999977111816
499.75 463.0899963378906 11.82999992370605
499.989990234375 463.8800048828125 10.35000038146973
498.510009765625 460.7999877929688 13.15999984741211
498.6799926757812 461.489990234375 13.30000019073486
498.3900146484375 460.2000122070312 13.27999973297119
498.2900085449219 459.8200073242188 12.09000015258789
499.4299926757812 464.2099914550781 10.27000045776367
498.7699890136719 461.6799926757812 11.85000038146973
499.4100036621094 464.0700073242188 9.810000419616699
499.1900024414062 463.3599853515625 13.51000022888184
499.4100036621094 463.9700012207031 7.409999847412109
498.6099853515625 461.1799926757812 12.27000045776367
499.0899963378906 462.9800109863281 14.15999984741211
499.2799987792969 463.760009765625 12.85000038146973
499.5299987792969 464.4299926757812 8.890000343322754
499.3599853515625 464.0700073242188 11.81999969482422
497.9700012207031 460.6499938964844 11.90999984741211
498.0799865722656 461.1499938964844 13.48999977111816
498.5700073242188 463.1400146484375 14.14000034332275
498.1700134277344 461.4299926757812 10.43000030517578
498.1600036621094 461.4299926757812 12.43000030517578
498.6600036621094 463.4299926757812 10.77000045776367
498.4400024414062 462.5199890136719 12.06999969482422
498.8099975585938 464.0400085449219 10.77999973297119
498.6600036621094 463.5299987792969 13.30000019073486
498.3200073242188 462.0499877929688 12.36999988555908
498.8999938964844 464.2999877929688 9.470000267028809
498.5700073242188 462.989990234375 11.47000026702881
498.3500061035156 462.1499938964844 10.88000011444092
498.260009765625 461.739990234375 11.34000015258789
498.9700012207031 464.3399963378906 7.510000228881836
497.2799987792969 460.3699951171875 11.97000026702881
499.0799865722656 464.8500061035156 9.329999923706055
497.6199951171875 461.6499938964844 10.10999965667725
497.5 461.1199951171875 10.15999984741211
497.9200134277344 462.9400024414062 12.36999988555908
497.5499877929688 461.5299987792969 11.47000026702881
497.4599914550781 461.0499877929688 12.03999996185303
497.989990234375 463.1400146484375 11.09000015258789
497.8599853515625 462.5700073242188 11.06999969482422
498.3099975585938 464.1700134277344 8.279999732971191
497.8900146484375 462.7900085449219 9.779999732971191
498.0599975585938 463.4400024414062 9.909999847412109
498.1600036621094 463.6000061035156 8.359999656677246
497 461.8800048828125 12.01000022888184
497.0400085449219 461.8999938964844 10.17000007629395
498.4200134277344 464.5700073242188 7.599999904632568
497.3999938964844 463.3699951171875 10.88000011444092
497.2200012207031 462.7000122070312 8.470000267028809
497.5400085449219 464.010009765625 10.92000007629395
497.4400024414062 463.4500122070312 9.090000152587891
496.8800048828125 461.2999877929688 10.14000034332275
497.2999877929688 463.010009765625 9.659999847412109
497.2300109863281 462.6799926757812 10.48999977111816
496.8200073242188 461.2699890136719 12.10999965667725
496.6700134277344 462.9299926757812 8.369999885559082
499.8599853515625 462.7300109863281 13.01000022888184
500.0199890136719 463.239990234375 12.5
499.7000122070312 462.1000061035156 11.76000022888184
499.5799865722656 461.5899963378906 12.27999973297119
499.6199951171875 462.0299987792969 7.849999904632568
499.6600036621094 462.0700073242188 8.890000343322754
499.260009765625 460.4200134277344 10.36999988555908
499.5 461.5700073242188 9.649999618530273
499.4800109863281 461.0599975585938 12.60999965667725
499.1499938964844 459.8699951171875 11.05000019073486
498.9700012207031 459.2799987792969 10.15999984741211
499.4299926757812 461.0199890136719 11.71000003814697
499.2999877929688 460.4500122070312 11.47999954223633
499.9800109863281 463.1900024414062 11.40999984741211
499.8200073242188 462.7000122070312 11.47999954223633
499.5599975585938 461.5599975585938 11.25
499.6300048828125 459.3099975585938 7.599999904632568
499.75 459.4299926757812 11.55000019073486
499.8299865722656 459.9599914550781 9.800000190734863
499.1600036621094 462.6499938964844 14.10999965667725
498.9500122070312 462.010009765625 11.75
499.3900146484375 463.7099914550781 12.85999965667725
498.7200012207031 460.9400024414062 13.1899995803833
500.010009765625 460.5799865722656 9.880000114440918
498.3500061035156 459.7200012207031 11.85999965667725
499.260009765625 463.1799926757812 13.77999973297119
499.8599853515625 459.989990234375 11.34000015258789
498.8399963378906 461.4500122070312 13.35000038146973
498.8299865722656 461.4700012207031 12.27000045776367
499.489990234375 464.2999877929688 12
498.8599853515625 461.9400024414062 7.96999979019165
498.5400085449219 460.3299865722656 13.23999977111816
498.8500061035156 464.6099853515625 9.239999771118164
498.7799987792969 464.6000061035156 7.550000190734863
498.5499877929688 460.3299865722656 12.57999992370605
498.6300048828125 463.5299987792969 13.35000038146973
498.6099853515625 463.4700012207031 10.73999977111816
498.7099914550781 464.0400085449219 10.84000015258789
498.5499877929688 462.9800109863281 14.18000030517578
498.3699951171875 462.4100036621094 12.14999961853027
498.2000122070312 461.8299865722656 11.11999988555908
498.2900085449219 462.3800048828125 10.38000011444092
497.8599853515625 460.6700134277344 10.10000038146973
498.4700012207031 462.9500122070312 12.60999965667725
497.7999877929688 460.6199951171875 7.619999885559082
498.1700134277344 461.7999877929688 9.850000381469727
497.6600036621094 460.0799865722656 7.329999923706055
498.3399963378906 462.3900146484375 11.0600004196167
498.2699890136719 462.3399963378906 9.399999618530273
497.8999938964844 460.7000122070312 11.65999984741211
498.1199951171875 461.3399963378906 13.01000022888184
497.2999877929688 463.7000122070312 10.97000026702881
497.1400146484375 463.1099853515625 9.510000228881836
496.9800109863281 462.5299987792969 8.430000305175781
497.260009765625 463.6700134277344 9.310000419616699
497.010009765625 462.5400085449219 9.680000305175781
496.6900024414062 460.9599914550781 12.13000011444092
496.8200073242188 461.510009765625 12.09000015258789
496.8900146484375 462.0299987792969 10.21000003814697
497.1400146484375 463.1300048828125 8.229999542236328
498.0400085449219 463.8599853515625 9.689999580383301
497.6700134277344 462.2200012207031 10.69999980926514
497.8599853515625 463.2999877929688 8
497.5700073242188 461.6600036621094 12.22999954223633
497.9599914550781 463.3500061035156 11.0600004196167
497.4299926757812 461.1400146484375 12.06999969482422
497.4700012207031 461.6199951171875 10.06999969482422
497.239990234375 460.5400085449219 11.84000015258789
497.9200134277344 463.3299865722656 9.640000343322754
498.010009765625 463.8399963378906 7.849999904632568
497.7999877929688 462.7900085449219 10.85000038146973
499.6199951171875 459.510009765625 7.519999980926514
499.5499877929688 459.4800109863281 10.01000022888184
499.8800048828125 460.8399963378906 11.78999996185303
499.7699890136719 460.3800048828125 11.5600004196167
499.9700012207031 461.25 12.52000045776367
499.739990234375 460.1499938964844 9.859999656677246
499.7300109863281 460.1400146484375 7.559999942779541
500 461.2999877929688 10.06999969482422
499.1499938964844 461.0199890136719 12.43000030517578
499.3900146484375 461.8599853515625 11.4399995803833
499.3299865722656 461.6400146484375 12.27000045776367
499.8699951171875 460.75 10
499.5400085449219 462.4700012207031 11.59000015258789
499.6700134277344 463.1199951171875 13.73999977111816
499.1000061035156 460.739990234375 11.22000026702881
499.5700073242188 462.739990234375 12.88000011444092
499.6700134277344 463.010009765625 11.76000022888184
499.9100036621094 464.0199890136719 12.65999984741211
499.0599975585938 460.3500061035156 10.52999973297119
499.5299987792969 462.239990234375 10.14999961853027
499.7900085449219 463.4400024414062 12.55000019073486
499.489990234375 462.2999877929688 12.25
499.0400085449219 460.3900146484375 12.52999973297119
499.6099853515625 459.7200012207031 11.39999961853027
499.4299926757812 464.6000061035156 12.0600004196167
498.760009765625 459.2200012207031 10.0600004196167
498.8900146484375 459.75 10.22000026702881
498.9800109863281 459.9700012207031 9.430000305175781
499.0199890136719 459.9800109863281 7.159999847412109
498.3599853515625 460.260009765625 10.21000003814697
498.5799865722656 461.239990234375 13.28999996185303
498.5 460.7099914550781 8.489999771118164
498.260009765625 459.8500061035156 11.90999984741211
498.8599853515625 462.260009765625 11.76000022888184
498.4200134277344 460.3200073242188 7.46999979019165
498.2000122070312 459.6700134277344 10.06999969482422
498.4100036621094 460.6400146484375 13.3100004196167
499.1499938964844 463.5499877929688 13.63000011444092
499.2099914550781 463.739990234375 12.86999988555908
498.3099975585938 460.2699890136719 12.60000038146973
498.7200012207031 461.6799926757812 11.60000038146973
497.9599914550781 460.5799865722656 7.639999866485596
498.8500061035156 462.3599853515625 13.4399995803833
498.9500122070312 462.739990234375 12
497.8099975585938 460.0400085449219 7.329999923706055
498 461.1400146484375 12.22999954223633
498.0199890136719 461.0899963378906 10.28999996185303
497.9200134277344 460.5599975585938 10.05000019073486
498.260009765625 462.1600036621094 10.89000034332275
498.1099853515625 461.3299865722656 9.510000228881836
498.6400146484375 463.4700012207031 8.189999580383301
498.5299987792969 463.3299865722656 13.35999965667725
497.9200134277344 460.7999877929688 11.4399995803833
498.739990234375 464.0400085449219 10.68000030517578
498.0799865722656 461.0799865722656 8.079999923706055
498.3299865722656 462.3699951171875 12.35000038146973
498.3800048828125 462.4299926757812 9.789999961853027
498.4200134277344 462.6900024414062 11.22999954223633
498.1400146484375 461.6099853515625 10.44999980926514
498.489990234375 463.0499877929688 9.880000114440918
498.0899963378906 461.5400085449219 13.17000007629395
498.4599914550781 462.9400024414062 12.61999988555908
497.1799926757812 460.2999877929688 9.75
497.2200012207031 460.2999877929688 7.420000076293945
497.4299926757812 461.4599914550781 12.23999977111816
497.7999877929688 462.7900085449219 9.340000152587891
497.5899963378906 461.9400024414062 10.43000030517578
497.3399963378906 460.9700012207031 11.89000034332275
497.3500061035156 460.8399963378906 7.699999809265137
497.1600036621094 460.4400024414062 11.82999992370605
497.3299865722656 460.8399963378906 10.15999984741211
497.4500122070312 461.4800109863281 9.989999771118164
497.8299865722656 462.9800109863281 10.93000030517578
497.7099914550781 462.4299926757812 10.89000034332275
498.1700134277344 464.3099975585938 8.390000343322754
497.9599914550781 463.3599853515625 9.520000457763672
497.7000122070312 462.3599853515625 8.850000381469727
496.9599914550781 462.2900085449219 10.32999992370605
497.1000061035156 462.7799987792969 8.5
497.1400146484375 463.0799865722656 9.539999961853027
496.9299926757812 462.2200012207031 8.159999847412109
497.3399963378906 463.8999938964844 11.01000022888184
497.9599914550781 463.5599975585938 11.07999992370605
496.9800109863281 462.4800109863281 9.550000190734863
496.8900146484375 461.9299926757812 9.199999809265137
498.2699890136719 463.2799987792969 12.98999977111816
498.5700073242188 464.3999938964844 10.94999980926514
498.4400024414062 463.8699951171875 10.48999977111816
498.2699890136719 463.3599853515625 10.0600004196167
497.6300048828125 460.8999938964844 11.89000034332275
498.1799926757812 462.8800048828125 12.26000022888184
497.5199890136719 460.3999938964844 10.02000045776367
497.6799926757812 460.9500122070312 10.26000022888184
498.1700134277344 462.8099975585938 11.10999965667725
497.7900085449219 461.4100036621094 8.189999580383301
498 462.239990234375 10.77000045776367
497.510009765625 460.239990234375 7.460000038146973
497.7699890136719 461.4100036621094 12.31999969482422
497.6600036621094 460.7900085449219 7.829999923706055
496.9500122070312 461.3099975585938 12.05000019073486
497.5 463.4200134277344 10.85999965667725
497.1900024414062 462.0499877929688 8.020000457763672
496.8399963378906 460.6199951171875 9.229999542236328
497.3599853515625 462.8399963378906 9.25
497.2999877929688 462.5700073242188 8.489999771118164
496.9400024414062 461.0599975585938 9.829999923706055
497.0799865722656 461.6700134277344 10.05000019073486
497.0899963378906 461.7799987792969 12.46000003814697
497.5799865722656 463.510009765625 8.020000457763672
499.7000122070312 463.8200073242188 12.52999973297119
499.4400024414062 463 14.02999973297119
499.1499938964844 461.75 12.19999980926514
499.3800048828125 462.5400085449219 12.14000034332275
498.6700134277344 459.7200012207031 11.89000034332275
498.9200134277344 460.7699890136719 12.71000003814697
498.75 460.2200012207031 12.30000019073486
498.9299926757812 460.6499938964844 7.440000057220459
496.8099975585938 460.6700134277344 11.89000034332275
498.7300109863281 459.9100036621094 10.11999988555908
498.510009765625 459.2099914550781 10.05000019073486
498.8200073242188 460.3800048828125 10.60000038146973
499.2300109863281 461.9599914550781 9.079999923706055
499.4800109863281 462.9500122070312 12.77000045776367
498.9700012207031 461.1199951171875 13.42000007629395
498.9800109863281 463.3800048828125 14.25
498.8399963378906 462.75 14.02000045776367
498.2099914550781 460.239990234375 13.14999961853027
498.4700012207031 461.4400024414062 13.64000034332275
498.8699951171875 462.8099975585938 12.52999973297119
498.7699890136719 462.4299926757812 11.73999977111816
498.3900146484375 460.8999938964844 11.92000007629395
498.260009765625 460.5199890136719 11.39999961853027
498.239990234375 460.3699951171875 7.610000133514404
498.9700012207031 460.9200134277344 11
498.239990234375 460.4100036621094 10.22000026702881
498.6400146484375 462.010009765625 12.51000022888184
498.3699951171875 460.9400024414062 13.18000030517578
498.1799926757812 460.0799865722656 6.71999979019165
498.9500122070312 463.1600036621094 13.28999996185303
499.6900024414062 461.1300048828125 12.3100004196167
498.3999938964844 460.8299865722656 7.989999771118164
499.4700012207031 460.2099914550781 11.36999988555908
499.7799987792969 461.5 10.38000011444092
499.8699951171875 461.75 11.18000030517578
499.6099853515625 460.8299865722656 10.27000045776367
498.510009765625 461.2699890136719 8.630000114440918
499.3299865722656 459.5599975585938 9.829999923706055
499.3299865722656 459.6199951171875 7.019999980926514
499.5799865722656 460.5599975585938 8
499.4500122070312 460.2200012207031 10.10999965667725
499.4400024414062 460.1000061035156 7.570000171661377
499.6000061035156 460.7699890136719 11.6899995803833
499.9100036621094 464.3800048828125 10.22000026702881
499.9100036621094 464.1799926757812 11.77000045776367
499.9500122070312 463.8599853515625 12.5600004196167
499.4299926757812 464 10.42000007629395
499.6000061035156 463.3200073242188 10.40999984741211
499.2900085449219 464.4200134277344 11.88000011444092
499.760009765625 462.4700012207031 11.69999980926514
499.989990234375 461.4200134277344 12.5600004196167
499.6000061035156 462.8800048828125 13.02999973297119
499.4599914550781 463.7799987792969 11.86999988555908
499.4700012207031 464.1600036621094 8.810000419616699
500 461.6700134277344 11.19999980926514
499.3500061035156 464.4200134277344 9.619999885559082
499.4700012207031 463.4500122070312 12.84000015258789
499.510009765625 463.1300048828125 13.85000038146973
498.8200073242188 464.3399963378906 9.109999656677246
499 463.4700012207031 10.11999988555908
499.3800048828125 462.25 8.090000152587891
498.8099975585938 464.5199890136719 7.539999961853027
498.8800048828125 463.7200012207031 11
498.7799987792969 464.239990234375 10.77999973297119
499.760009765625 460.1099853515625 11.39000034332275
499.9100036621094 459.489990234375 11.46000003814697
498.7699890136719 463.8200073242188 13.3100004196167
498.8699951171875 463.3800048828125 14.0600004196167
498.9400024414062 463.2000122070312 13.44999980926514
499.3500061035156 461.6300048828125 12.27999973297119
499.4299926757812 461.4400024414062 11.61999988555908
499.0299987792969 462.8200073242188 14.13000011444092
499.4700012207031 461.1099853515625 12.63000011444092
499.5799865722656 460.7999877929688 11.60999965667725
499.2799987792969 462.4500122070312 8.800000190734863
499.8099975585938 460.239990234375 9.819999694824219
499 463.3099975585938 11.56999969482422
498.3099975585938 463.7799987792969 8.319999694824219
498.3399963378906 463.239990234375 10.92000007629395
498.6600036621094 462.2799987792969 7.699999809265137
498.4500122070312 462.9500122070312 9.960000038146973
498.5400085449219 462.1799926757812 11.53999996185303
498.2999877929688 463.0400085449219 12.35000038146973
498.6799926757812 461.3699951171875 13.27000045776367
498.8299865722656 460.7699890136719 13.25
498.510009765625 462.3599853515625 12.15999984741211
498.8699951171875 461.1700134277344 10.38000011444092
498.6900024414062 461.5599975585938 11.81999969482422
498.1700134277344 464.2999877929688 8.159999847412109
498.7699890136719 461.1199951171875 12.35999965667725
498.5499877929688 462.5599975585938 8.770000457763672
498.2999877929688 460.5899963378906 11.61999988555908
498.25 460.5400085449219 13.36999988555908
498.4100036621094 460.1099853515625 11.9399995803833
498.1199951171875 461.1700134277344 13.43000030517578
499.0700073242188 460.1300048828125 11.10000038146973
499.1799926757812 459.9400024414062 10.39000034332275
498.9599914550781 460.6300048828125 10.80000019073486
498.4800109863281 460.1799926757812 10.15999984741211
498.3099975585938 463.5499877929688 9.859999656677246
497.6400146484375 463.8299865722656 7.900000095367432
497.7699890136719 463.2900085449219 8.100000381469727
497.6000061035156 463.510009765625 10.93000030517578
497.7699890136719 462.8699951171875 10.8100004196167
497.75 463.1400146484375 9.550000190734863
497.9299926757812 462.2200012207031 10.80000019073486
497.4599914550781 464.1000061035156 10.92000007629395
498.1600036621094 461.489990234375 10.31999969482422
498.260009765625 461.010009765625 10.84000015258789
498.0499877929688 461.4800109863281 12.44999980926514
498.1099853515625 461.8299865722656 9.369999885559082
497.25 462.9200134277344 8.279999732971191
498.0400085449219 461.7200012207031 11.22000026702881
497.3800048828125 462.3500061035156 8.529999732971191
