128.5200042724609 459.2300109863281 10.14999961853027
130.3500061035156 458.7699890136719 9.260000228881836
127.9599990844727 459.3599853515625 9.920000076293945
127.8600006103516 459.3500061035156 10.65999984741211
127.4199981689453 459.4700012207031 10.14999961853027
129.6600036621094 459.6499938964844 10.25
128.3600006103516 459.9599914550781 11.63000011444092
128.7200012207031 459.8900146484375 12.43000030517578
129.9400024414062 459.6000061035156 8.75
128.9199981689453 459.8599853515625 11.55000019073486
127.8899993896484 460.0700073242188 11.28999996185303
130.4799957275391 459.5 9.090000152587891
128.6199951171875 459.9299926757812 10.02000045776367
127.5 460.1900024414062 10.48999977111816
127.0899963378906 460.3200073242188 9.550000190734863
127.129997253418 460.9700012207031 9.779999732971191
128.4900054931641 460.6700134277344 8.170000076293945
128.2700042724609 460.6600036621094 12.35999965667725
127.4300003051758 460.8599853515625 11.11999988555908
129.6999969482422 460.3299865722656 10.8100004196167
128.7899932861328 460.5400085449219 12.51000022888184
127.8899993896484 460.7799987792969 11.72000026702881
128.0599975585938 460.7300109863281 10.59000015258789
127.5199966430664 461.4500122070312 11.0600004196167
129.3000030517578 460.989990234375 10.02000045776367
127.9400024414062 461.3399963378906 11.84000015258789
129.3500061035156 460.9500122070312 12.61999988555908
129.5500030517578 460.9100036621094 11.53999996185303
128.1900024414062 461.2900085449219 10.1899995803833
128.8899993896484 461.1099853515625 9.439999580383301
128.8300018310547 461.0599975585938 12.56999969482422
128.3600006103516 461.2099914550781 12.1899995803833
127.620002746582 461.3900146484375 10.3100004196167
128.4299926757812 461.8099975585938 11.72000026702881
128.9700012207031 461.6799926757812 11.63000011444092
129.5299987792969 461.5799865722656 11.64000034332275
128.1100006103516 461.9400024414062 10.75
128.6999969482422 461.7699890136719 10.28999996185303
128.7299957275391 462.4700012207031 10.97999954223633
128.6000061035156 462.3800048828125 11.15999984741211
129.0700073242188 462.25 10.46000003814697
129.6199951171875 461.5299987792969 11.32999992370605
129.8300018310547 461.4100036621094 8.899999618530273
128.6000061035156 461.7999877929688 11.77999973297119
129.2100067138672 461.6499938964844 12.32999992370605
127.9899978637695 461.9200134277344 11.69999980926514
129.0599975585938 461.6499938964844 11.40999984741211
129.4400024414062 461.5700073242188 9.909999847412109
130.2700042724609 460.6000061035156 8.979999542236328
129.7700042724609 460.7099914550781 9.229999542236328
128.6000061035156 461.0700073242188 12.52000045776367
129.5099945068359 460.8099975585938 11.35999965667725
129.0899963378906 460.9599914550781 12.47999954223633
128.7599945068359 461.0199890136719 9.449999809265137
127.9899978637695 461.239990234375 12.27000045776367
128.4499969482422 461.0899963378906 11.25
127.7399978637695 461.25 10.17000007629395
127.4100036621094 461.3999938964844 11.35999965667725
130.6900024414062 459.7000122070312 8.800000190734863
129.7200012207031 459.9599914550781 9.939999580383301
129.2299957275391 460.1099853515625 10.14000034332275
129.3800048828125 460.0599975585938 11.1899995803833
129.0899963378906 460.1300048828125 8.979999542236328
128.4199981689453 460.3399963378906 12.44999980926514
127.1699981689453 460.6600036621094 11.14000034332275
127.5299987792969 460.5499877929688 10.03999996185303
130.1100006103516 459.8399963378906 8.600000381469727
127.0400009155273 460.6600036621094 9.989999771118164
128.8699951171875 460.2300109863281 12.02999973297119
127.7399978637695 460.489990234375 11.57999992370605
128.0399932861328 459.6700134277344 10.64000034332275
127.4499969482422 459.8399963378906 10.27999973297119
128.5399932861328 459.5299987792969 10.52000045776367
128.1499938964844 459.6600036621094 11.53999996185303
129.9600067138672 459.1900024414062 9.119999885559082
129.4100036621094 459.3200073242188 8.859999656677246
128.8200073242188 459.4700012207031 8.430000305175781
130.5200042724609 459.0199890136719 9.479999542236328
129.0800018310547 459.4299926757812 10.17000007629395
127.9199981689453 459.739990234375 11.84000015258789
128.3999938964844 459.6499938964844 11.5
128.6499938964844 459.6099853515625 9
129.1000061035156 459.5 9.970000267028809
127.4400024414062 459.9200134277344 10.59000015258789
128.0700073242188 459.7300109863281 10.6899995803833
128.6300048828125 459.5700073242188 10.56999969482422
130.5 459.1499938964844 8.909999847412109
129.0800018310547 459.489990234375 8.479999542236328
129.9799957275391 459.2799987792969 9.069999694824219
127.620002746582 460.5400085449219 11.55000019073486
129.1600036621094 460.1799926757812 10.94999980926514
130.0599975585938 459.9700012207031 8.560000419616699
129.5899963378906 460.0700073242188 10.28999996185303
129.8500061035156 460.0199890136719 9.5
128.5500030517578 460.3099975585938 12.26000022888184
128.9900054931641 460.1799926757812 11.96000003814697
129.0200042724609 460.2099914550781 8.960000038146973
127.3899993896484 461.2000122070312 12.03999996185303
129.7400054931641 460.6300048828125 9.939999580383301
128.3500061035156 460.9200134277344 12.71000003814697
129.5700073242188 460.6600036621094 11.26000022888184
128.3800048828125 460.9400024414062 11.38000011444092
129.8899993896484 460.6199951171875 8.939999580383301
128.9900054931641 460.7799987792969 12.84000015258789
129.2299957275391 460.7200012207031 11.86999988555908
128.3699951171875 461.6499938964844 12.05000019073486
129.4199981689453 461.3800048828125 11.4399995803833
129.8000030517578 461.3099975585938 10.80000019073486
129.5299987792969 461.3599853515625 8.810000419616699
129.2100067138672 461.4299926757812 12.51000022888184
129.4600067138672 461.3900146484375 10.05000019073486
130.0899963378906 461.2300109863281 8.630000114440918
129.2200012207031 461.4800109863281 9.409999847412109
128.8200073242188 461.5400085449219 11.5600004196167
129.1699981689453 462.239990234375 10.23999977111816
128.8200073242188 462.2799987792969 11.02000045776367
128.4100036621094 461.9400024414062 11.71000003814697
129.0800018310547 462.0700073242188 11.14000034332275
127.5100021362305 461.7000122070312 10.90999984741211
128.6699981689453 461.9599914550781 10.3100004196167
127.9300003051758 461.7799987792969 11.57999992370605
129.2400054931641 461.4200134277344 11.64000034332275
129.2400054931641 461.4100036621094 8.920000076293945
128.6000061035156 461.2699890136719 12.32999992370605
128.0599975585938 461.1600036621094 12.13000011444092
128.9400024414062 461.3299865722656 10.39000034332275
127.5699996948242 461.0400085449219 11.52000045776367
127.8199996948242 461.0799865722656 10.14999961853027
128.2200012207031 461.1600036621094 11.13000011444092
127.3000030517578 460.9299926757812 10.10000038146973
128.4199981689453 461.1900024414062 9.989999771118164
129.0500030517578 461.3800048828125 12.60999965667725
127.1600036621094 460.9299926757812 11.10000038146973
129.2200012207031 460.6700134277344 12.53999996185303
129.4299926757812 460.6900024414062 11.55000019073486
129.1000061035156 460.6400146484375 13.28999996185303
128.6499938964844 460.5499877929688 12.61999988555908
128.2700042724609 460.4500122070312 12.18000030517578
127.4899978637695 460.2099914550781 10.53999996185303
129.2400054931641 459.989990234375 11.5
127.879997253418 460.3299865722656 11.28999996185303
127.7600021362305 459.6099853515625 10.35999965667725
128.2100067138672 459.7300109863281 11.0600004196167
127.0500030517578 460.1099853515625 9.609999656677246
128.6600036621094 459.8500061035156 11.67000007629395
128.5700073242188 459.8099975585938 9.229999542236328
129.5 460.0599975585938 10.19999980926514
129.8600006103516 460.1300048828125 10.84000015258789
130.1199951171875 460.2000122070312 9.539999961853027
129.0099945068359 459.3699951171875 10.44999980926514
129.3200073242188 459.3900146484375 8.840000152587891
128.5899963378906 459.2300109863281 9.869999885559082
129.8699951171875 459.5400085449219 8.760000228881836
130.4100036621094 459.6499938964844 8.899999618530273
130.0399932861328 458.9500122070312 9.119999885559082
130.5 459.0799865722656 9.569999694824219
128.0099945068359 462.0299987792969 11.77999973297119
127.8600006103516 462 10.78999996185303
128.3500061035156 462.1199951171875 10.39000034332275
128.8600006103516 462.2200012207031 10.4399995803833
127.5199966430664 461.25 11.51000022888184
128.1199951171875 461.3599853515625 11.97999954223633
129.5 461.75 9.829999923706055
129.1199951171875 461.6099853515625 11.36999988555908
127.9300003051758 461.3299865722656 10.31999969482422
129.2200012207031 461.6300048828125 12.21000003814697
129.6100006103516 461.7699890136719 11.05000019073486
129.9400024414062 461.8399963378906 9.109999656677246
127.6999969482422 460.5199890136719 11.31999969482422
127.8300018310547 460.510009765625 12.17000007629395
128.3800048828125 460.6700134277344 12.55000019073486
128.4700012207031 460.6799926757812 13.56999969482422
129.75 461.0299987792969 11.01000022888184
128.5500030517578 460.7200012207031 9.720000267028809
129.0800018310547 460.8500061035156 9.819999694824219
129.5500030517578 461 9.640000343322754
129.3699951171875 460.8800048828125 12.36999988555908
130.0399932861328 461.1099853515625 8.800000190734863
128.9299926757812 460.7799987792969 12.84000015258789
128.25 459.9700012207031 11.72000026702881
129.7299957275391 460.2999877929688 10.51000022888184
129.3699951171875 460.2200012207031 11.36999988555908
127.5899963378906 459.7900085449219 10.28999996185303
127.75 459.7999877929688 11.85000038146973
128.8899993896484 460.0799865722656 12.10000038146973
130.1499938964844 460.4299926757812 9.109999656677246
129.1699981689453 460.1700134277344 9.859999656677246
129.7400054931641 459.6799926757812 10.10000038146973
129.1699981689453 459.5700073242188 10.15999984741211
130.0899963378906 459.8099975585938 8.579999923706055
128.7200012207031 459.4299926757812 10.52999973297119
129.5599975585938 459.6700134277344 8.630000114440918
128.1600036621094 459.2999877929688 10.14000034332275
129.0099945068359 459.5499877929688 8.539999961853027
130.3399963378906 459.1700134277344 9.319999694824219
129.7899932861328 459.0199890136719 9.060000419616699
130.6600036621094 458.7699890136719 9.699999809265137
129.6699981689453 459.0899963378906 9.060000419616699
130.2799987792969 459.2300109863281 8.989999771118164
129.2899932861328 459.6900024414062 10.22000026702881
129.3200073242188 459.7099914550781 8.739999771118164
129.9499969482422 459.8299865722656 8.590000152587891
129.0399932861328 459.6400146484375 11.21000003814697
128.75 459.5400085449219 8.859999656677246
128.2700042724609 459.4800109863281 10.81999969482422
128.6499938964844 459.5299987792969 10.27999973297119
129.8099975585938 459.7999877929688 9.859999656677246
130.0500030517578 460.510009765625 8.970000267028809
129.8399963378906 460.4700012207031 9.979999542236328
129.6399993896484 460.4100036621094 11.07999992370605
128.8200073242188 460.2699890136719 12.15999984741211
129.1499938964844 460.2999877929688 11.4399995803833
128.1600036621094 460.0799865722656 11.92000007629395
129.3399963378906 460.3399963378906 8.800000190734863
129.2100067138672 460.3200073242188 10.02000045776367
129.8200073242188 461.0400085449219 8.789999961853027
127.7699966430664 460.5199890136719 8.640000343322754
129.3099975585938 460.9299926757812 12.30000019073486
129.6000061035156 461 9.789999961853027
129.5500030517578 460.9800109863281 11.25
128.9400024414062 460.8500061035156 12.93000030517578
128.1499938964844 460.6900024414062 12.53999996185303
127.6399993896484 460.5400085449219 11.22999954223633
128.5599975585938 460.7900085449219 13.39999961853027
127.9300003051758 461.2200012207031 12.02999973297119
127.3300018310547 461.0700073242188 12.06999969482422
128.6999969482422 461.4299926757812 12.32999992370605
129.4100036621094 461.5700073242188 9.609999656677246
128.3699951171875 461.2900085449219 10.14000034332275
129.1199951171875 461.5299987792969 11.9399995803833
127.8199996948242 461.1499938964844 8.770000457763672
129.7799987792969 461.6600036621094 9.010000228881836
129.4600067138672 461.6000061035156 11.14000034332275
128.9100036621094 462.1799926757812 10.18000030517578
127.6600036621094 461.8800048828125 11.80000019073486
128.7200012207031 462.1099853515625 11.23999977111816
128.1900024414062 462 11.53999996185303
130.4199981689453 459.1799926757812 9.310000419616699
130.5299987792969 459.5400085449219 8.789999961853027
130.0200042724609 460.1000061035156 9.420000076293945
129.9400024414062 459.9100036621094 10.52000045776367
129.9700012207031 459.8299865722656 8.670000076293945
129.8099975585938 459.3999938964844 9.090000152587891
130.1399993896484 460.5400085449219 9.159999847412109
129.5800018310547 460.7300109863281 11.32999992370605
129.6999969482422 461.2200012207031 10.93000030517578
129.4100036621094 460.2099914550781 11.36999988555908
129.3399963378906 459.7999877929688 10.22000026702881
129.6199951171875 460.7999877929688 9.739999771118164
129.2700042724609 459.3200073242188 8.949999809265137
129.7400054931641 461.1000061035156 8.869999885559082
129.8699951171875 461.760009765625 9.029999732971191
129.3000030517578 459.6199951171875 11.48999977111816
129.1399993896484 461.5199890136719 11.5
128.8999938964844 460.7999877929688 12.80000019073486
129.1799926757812 461.739990234375 12.17000007629395
129.3200073242188 462.0199890136719 9.550000190734863
129.0299987792969 461.2699890136719 12.51000022888184
128.7200012207031 460.010009765625 12.14000034332275
129.2100067138672 461.5700073242188 8.380000114440918
129.2100067138672 461.6700134277344 10.30000019073486
129.2200012207031 461.9500122070312 11.11999988555908
128.0200042724609 459.9100036621094 11.72999954223633
128.2599945068359 460.8900146484375 11.22000026702881
128.4600067138672 461.7699890136719 11.92000007629395
128.3500061035156 461.2900085449219 12.30000019073486
128.5599975585938 462.0599975585938 11.21000003814697
128.6300048828125 462.2200012207031 9.800000190734863
128.1600036621094 460.4100036621094 9.789999961853027
128.1699981689453 460.75 12.47000026702881
127.3399963378906 459.8299865722656 10.78999996185303
127.7300033569336 461.2900085449219 10.10000038146973
127.8199996948242 461.760009765625 11.5
127.5299987792969 460.5599975585938 11.3100004196167
127.7200012207031 461.3200073242188 11.71000003814697
126.870002746582 460.6700134277344 9.979999542236328
127.5199966430664 460.4200134277344 10.96000003814697
127.7900009155273 461.489990234375 11.48999977111816
127.8600006103516 461.9599914550781 10.85000038146973
127.6600036621094 460.989990234375 11.68000030517578
128.4400024414062 461.8599853515625 11.6899995803833
128.3800048828125 461.739990234375 9.220000267028809
127.3300018310547 459.8500061035156 10.03999996185303
128.5299987792969 462.3800048828125 11.02000045776367
128.2400054931641 461.1900024414062 8.510000228881836
128.4299926757812 461.8200073242188 10.26000022888184
127.870002746582 459.6499938964844 10.61999988555908
128.0200042724609 460.2799987792969 11.4399995803833
128.3200073242188 461.3500061035156 12.05000019073486
128.0299987792969 460.2099914550781 9.939999580383301
127.9100036621094 459.7099914550781 11.78999996185303
128.1499938964844 460.8200073242188 12.26000022888184
128.6000061035156 460.010009765625 10.3100004196167
128.5099945068359 459.5499877929688 11.72999954223633
128.6399993896484 460.0700073242188 11.98999977111816
128.4799957275391 459.5199890136719 10.47000026702881
129.1199951171875 462.1099853515625 10.84000015258789
128.7700042724609 460.5400085449219 9.279999732971191
129.0200042724609 461.6900024414062 12.07999992370605
128.8899993896484 461.0299987792969 9.25
129.0200042724609 461.6099853515625 11.27000045776367
128.9100036621094 461.1499938964844 12.39999961853027
128.7799987792969 460.6900024414062 12.71000003814697
129.5800018310547 460.8699951171875 11.27000045776367
129.4199981689453 460.3699951171875 10.97000026702881
129.3000030517578 459.760009765625 10.28999996185303
129.7899932861328 461.9100036621094 9.079999923706055
129.6900024414062 461.3299865722656 8.720000267028809
129.3800048828125 460.2699890136719 8.880000114440918
129.2799987792969 459.7000122070312 8.640000343322754
129.6900024414062 461.4100036621094 11.11999988555908
129.6999969482422 461.3699951171875 9.560000419616699
130.0399932861328 459.9800109863281 9.239999771118164
129.8899993896484 459.4599914550781 8.829999923706055
129.7799987792969 458.9299926757812 9.069999694824219
130.4499969482422 459.2200012207031 9.119999885559082
130.6600036621094 458.9100036621094 9.579999923706055
130.1999969482422 459.9800109863281 8.869999885559082
130.0599975585938 459.3500061035156 8.930000305175781
129.5099945068359 459.7799987792969 8.619999885559082
129.4100036621094 459.2300109863281 8.680000305175781
129.4199981689453 459.4299926757812 9.909999847412109
129.6399993896484 460.3500061035156 10.69999980926514
129.5500030517578 459.9299926757812 10.11999988555908
129.7400054931641 460.7999877929688 11.22999954223633
129.7799987792969 460.7000122070312 9.260000228881836
128.7599945068359 459.5700073242188 10.22000026702881
128.8600006103516 459.9200134277344 11.28999996185303
128.9299926757812 460.239990234375 12.14000034332275
129.1699981689453 461.260009765625 12.60999965667725
129.25 461.5400085449219 11.5
128.8899993896484 459.9500122070312 8.840000152587891
129.0299987792969 460.7200012207031 12.48999977111816
128.75 459.510009765625 8.25
128.0299987792969 459.5899963378906 9.409999847412109
128.1100006103516 460.0799865722656 11.73999977111816
128.3500061035156 461.0400085449219 12.46000003814697
128.3600006103516 460.8999938964844 8.430000305175781
128.0700073242188 459.8500061035156 10.47999954223633
128.25 460.5499877929688 12.21000003814697
128.7299957275391 462.4599914550781 11.22999954223633
128.5599975585938 461.7000122070312 9.789999961853027
128.5099945068359 461.7099914550781 12.15999984741211
127.5 460.260009765625 10.31999969482422
127.5500030517578 460.5899963378906 11.02000045776367
127.379997253418 459.8099975585938 9.680000305175781
127.7699966430664 461.3900146484375 10.23999977111816
127.6500015258789 461.0799865722656 11.60000038146973
127.8300018310547 461.75 11.19999980926514
127.7900009155273 461.5700073242188 11.81999969482422
127.0999984741211 461.1600036621094 10.02000045776367
126.9300003051758 460.6400146484375 9.770000457763672
130.6600036621094 459.4400024414062 8.859999656677246
130.7200012207031 459.1300048828125 9.590000152587891
129.4199981689453 461.0299987792969 11.47999954223633
129.2799987792969 461.5400085449219 11.30000019073486
129.9799957275391 458.9700012207031 9.180000305175781
129.2700042724609 461.4200134277344 12.52999973297119
129.3099975585938 461.6199951171875 9.829999923706055
129.4499969482422 460.8099975585938 12.56999969482422
129.8500061035156 459.5199890136719 9.020000457763672
129.6600036621094 460.1499938964844 10.72999954223633
128.5899963378906 461.7799987792969 11.69999980926514
128.4799957275391 462.1600036621094 11.1899995803833
128.6300048828125 461.4200134277344 12.30000019073486
128.9400024414062 460.1900024414062 12.06999969482422
128.5299987792969 462.1700134277344 9.350000381469727
128.9700012207031 460.3999938964844 9.350000381469727
128.5899963378906 461.8999938964844 10.40999984741211
128.7400054931641 460.9200134277344 12.61999988555908
127.9499969482422 462.0599975585938 10.40999984741211
127.9800033569336 461.8399963378906 11.42000007629395
128.2899932861328 460.4100036621094 12.53999996185303
128.4499969482422 460.0400085449219 11.48999977111816
128.2200012207031 460.8500061035156 12.17000007629395
128.1199951171875 461.5700073242188 9.109999656677246
128.4600067138672 459.7099914550781 12.31999969482422
128.0700073242188 461.3900146484375 11.98999977111816
127.6399993896484 460.8800048828125 10.34000015258789
127.6900024414062 460.5700073242188 11.05000019073486
127.9000015258789 459.7799987792969 10.68000030517578
127.4899978637695 461.2699890136719 11.39000034332275
127.7799987792969 460.0700073242188 11.5
127.0800018310547 460.1799926757812 10.02000045776367
127 460.6000061035156 10.01000022888184
127.120002746582 460.0599975585938 10.10999965667725
127.9199981689453 460.1799926757812 11.19999980926514
128.0700073242188 459.5899963378906 10.5600004196167
127.5199966430664 461.75 10.97999954223633
127.8000030517578 460.75 11.84000015258789
127.7799987792969 460.75 11.19999980926514
127.6999969482422 461.25 11.64000034332275
127.7600021362305 460.7000122070312 10.44999980926514
128.8000030517578 459.4800109863281 10.14000034332275
128.6999969482422 459.9700012207031 10.14000034332275
128.1799926757812 462.1000061035156 10.52000045776367
128.3000030517578 461.6600036621094 11.89000034332275
128.4499969482422 461.1199951171875 12.35999965667725
128.6100006103516 460.6499938964844 12.89000034332275
128.4299926757812 461.0899963378906 11.23999977111816
128.8500061035156 459.5400085449219 10.98999977111816
128.7400054931641 460.0799865722656 11.97000026702881
128.5899963378906 460.7099914550781 13.60999965667725
128.3099975585938 461.5799865722656 10.27999973297119
128.8600006103516 462.0499877929688 10.38000011444092
128.8800048828125 462.1400146484375 11.28999996185303
129.0200042724609 461.6199951171875 11.78999996185303
129.2899932861328 460.5799865722656 11.90999984741211
129.1199951171875 461.1700134277344 12.55000019073486
129.0700073242188 461.0400085449219 9.850000381469727
129.3800048828125 459.9299926757812 10.1899995803833
129.1399993896484 461.1099853515625 11.35999965667725
129.3699951171875 460.0299987792969 11.47000026702881
129.4799957275391 459.3099975585938 8.850000381469727
129.2599945068359 460.5 10.52999973297119
130.3399963378906 458.7799987792969 9.300000190734863
130.2100067138672 459.2999877929688 9.210000038146973
129.9700012207031 460.4200134277344 10.46000003814697
129.9400024414062 460.3500061035156 9.149999618530273
129.6699981689453 461.4299926757812 9.75
130.0399932861328 459.8200073242188 8.600000381469727
129.8399963378906 460.9599914550781 10.76000022888184
129.8200073242188 460.9100036621094 9.109999656677246
130.0599975585938 459.8800048828125 9.890000343322754
129.5700073242188 461.9400024414062 10.17000007629395
129.6499938964844 461.3900146484375 8.859999656677246
129.6900024414062 461.510009765625 11.3100004196167
129.6799926757812 461.4700012207031 11.60000038146973
129.9900054931641 460.4800109863281 9.270000457763672
129.8600006103516 461.0700073242188 8.890000343322754
130.1300048828125 459.9599914550781 8.949999809265137
130.2799987792969 459.3200073242188 9.359999656677246
130.4199981689453 458.7799987792969 9.199999809265137
129.7299957275391 461.5499877929688 9.210000038146973
129.9100036621094 460.75 10.1899995803833
129.8000030517578 461.1300048828125 10.96000003814697
129.1199951171875 460.7900085449219 12.5600004196167
129.0599975585938 461.1600036621094 10.92000007629395
129.3699951171875 460 11.01000022888184
129.4499969482422 459.75 9.859999656677246
129.3300018310547 460.2300109863281 10.02000045776367
129.2799987792969 460.4800109863281 9.050000190734863
129.4299926757812 460.0700073242188 8.659999847412109
128.7799987792969 462.1300048828125 11.47000026702881
128.9299926757812 461.3900146484375 12.34000015258789
129.5599975585938 459.4100036621094 8.770000457763672
129.2400054931641 460.4299926757812 11.75
128.1600036621094 462.010009765625 11.89000034332275
128.2700042724609 461.75 10.63000011444092
128.6000061035156 460.260009765625 12.26000022888184
128.4600067138672 460.7000122070312 12.59000015258789
128.5399932861328 460.9599914550781 9.550000190734863
128.8300018310547 459.6900024414062 10.35999965667725
128.9199981689453 459.5499877929688 8.399999618530273
128.3399963378906 461.4200134277344 12.13000011444092
128.8399963378906 459.510009765625 10.98999977111816
128.4199981689453 461.0400085449219 11.22999954223633
128.6999969482422 459.8800048828125 11.57999992370605
128.1600036621094 462.3399963378906 10.63000011444092
128.2200012207031 459.5799865722656 10.5
128.1100006103516 459.9200134277344 11.4399995803833
128.3699951171875 459.1799926757812 9.880000114440918
127.8000030517578 461.3099975585938 10.32999992370605
127.9400024414062 461.0499877929688 9.229999542236328
128.3200073242188 459.3800048828125 9.069999694824219
127.9700012207031 460.489990234375 11.40999984741211
127.6999969482422 461.489990234375 11.80000019073486
127.6800003051758 461.6700134277344 10.98999977111816
127.8600006103516 460.9500122070312 11.77999973297119
127.3499984741211 460.6099853515625 10.11999988555908
127.2399978637695 461.1199951171875 10.25
127.5 460.0299987792969 10.35000038146973
127.3600006103516 460.4100036621094 11.02999973297119
127.629997253418 459.6000061035156 9.880000114440918
127.5899963378906 459.760009765625 9.220000267028809
127.4899978637695 460.3099975585938 9.319999694824219
127.2300033569336 460.8699951171875 11.35000038146973
128.1600036621094 459.4500122070312 9.970000267028809
128.0800018310547 459.8399963378906 10.59000015258789
128.1399993896484 459.4100036621094 8.829999923706055
127.2799987792969 460.6300048828125 10.1899995803833
127.4000015258789 460.1600036621094 9.869999885559082
127.8399963378906 460.6099853515625 9.210000038146973
127.2799987792969 460.8200073242188 11.11999988555908
128.7200012207031 459.6300048828125 10.17000007629395
128.75 459.6900024414062 11.25
128.5899963378906 460.489990234375 12.44999980926514
128.2299957275391 461.5799865722656 9.130000114440918
128.3200073242188 461.1700134277344 9.859999656677246
128.5399932861328 460.5499877929688 10.93000030517578
128.3000030517578 461.239990234375 8.550000190734863
128.3000030517578 461.7799987792969 12.60000038146973
128.0200042724609 460.1000061035156 11.47999954223633
127.7399978637695 461.2999877929688 11.82999992370605
128.5 460.5899963378906 9.659999847412109
128.4199981689453 461.0799865722656 11.30000019073486
127.7099990844727 461.2200012207031 10.68000030517578
128.4700012207031 461 12.76000022888184
128.7299957275391 459.8999938964844 12.11999988555908
127.9000015258789 460.6300048828125 11.73999977111816
129.3500061035156 459.9500122070312 8.460000038146973
129.0599975585938 461.0499877929688 9.079999923706055
129.2299957275391 460.4200134277344 8.869999885559082
129.3800048828125 460.0199890136719 10.97999954223633
129.4400024414062 459.8399963378906 10.01000022888184
129.1000061035156 461.0599975585938 10.27999973297119
128.9400024414062 461.8299865722656 10.28999996185303
129.25 460.4400024414062 10.18000030517578
129.3500061035156 460.3399963378906 11.55000019073486
129.2299957275391 460.7999877929688 12.10000038146973
129.1199951171875 461.2900085449219 12.55000019073486
129.5800018310547 459.1000061035156 8.729999542236328
130.1600036621094 459.1400146484375 8.930000305175781
129.9900054931641 459.8800048828125 8.779999732971191
129.7299957275391 461.3099975585938 11.28999996185303
129.8200073242188 460.7699890136719 11.03999996185303
129.8800048828125 460.510009765625 10.11999988555908
129.6399993896484 461.2000122070312 8.890000343322754
129.6799926757812 461.2900085449219 10.0600004196167
129.9100036621094 460.3299865722656 9.289999961853027
