418.0199890136719 198.8699951171875 7.289999961853027
420.7999877929688 198.1900024414062 6.809999942779541
420.2200012207031 198.3300018310547 7.159999847412109
418.5599975585938 198.7400054931641 7.340000152587891
419.0400085449219 198.6399993896484 7.710000038146973
420.7000122070312 198.1900024414062 7.710000038146973
420.3800048828125 198.2700042724609 5.659999847412109
421.2999877929688 197.3500061035156 6.71999979019165
423.4700012207031 196.75 5.75
421.9100036621094 197.1799926757812 5.769999980926514
420.760009765625 197.4900054931641 6.829999923706055
420.2900085449219 197.5899963378906 6.050000190734863
421.3999938964844 197.2799987792969 5.699999809265137
420.2300109863281 197.6199951171875 6.619999885559082
420.8900146484375 197.3999938964844 5.429999828338623
419.8200073242188 197.6699981689453 5.670000076293945
422.3900146484375 197.0500030517578 5.71999979019165
418.6000061035156 198.0399932861328 7
419.1000061035156 197.8800048828125 7.090000152587891
418.0700073242188 198.1300048828125 6.860000133514404
424.0299987792969 196.6300048828125 5.679999828338623
419.6600036621094 197.7599945068359 7.139999866485596
422.9200134277344 196.9199981689453 5.869999885559082
418.4400024414062 197.4400024414062 7.170000076293945
419.0700073242188 197.2799987792969 6.380000114440918
422.3599853515625 196.4400024414062 6.039999961853027
420.6199951171875 196.8600006103516 7.360000133514404
422.8999938964844 196.2899932861328 5.789999961853027
420.0599975585938 197 7.28000020980835
421.2999877929688 196.6600036621094 5.619999885559082
421.2099914550781 196.7299957275391 6.670000076293945
421.7999877929688 196.5700073242188 6.039999961853027
420.739990234375 196.8600006103516 6.389999866485596
419.510009765625 197.1399993896484 6.980000019073486
420.1799926757812 196.9700012207031 6.179999828338623
422.8200073242188 195.6100006103516 5.789999961853027
421.7799987792969 195.8899993896484 6.269999980926514
422.3200073242188 195.7200012207031 5.75
419.5499877929688 196.4600067138672 7.130000114440918
419.0199890136719 196.5599975585938 7
421.2200012207031 195.9900054931641 6.429999828338623
420.1199951171875 196.2899932861328 6.820000171661377
420.6300048828125 196.1699981689453 6.46999979019165
420.5599975585938 195.4199981689453 6.369999885559082
419.4200134277344 195.7599945068359 7.010000228881836
421.8299865722656 195.1000061035156 4.889999866485596
420.010009765625 195.5599975585938 6.239999771118164
421.1400146484375 195.2799987792969 6.050000190734863
418.8800048828125 195.8699951171875 6.860000133514404
420.7200012207031 195.3600006103516 4.889999866485596
421.2699890136719 195.2299957275391 5.099999904632568
420.5 194.7599945068359 6.550000190734863
421.2000122070312 202.0800018310547 6.460000038146973
423.989990234375 201.3999938964844 7.03000020980835
424.1099853515625 200.6900024414062 6.739999771118164
423.510009765625 200.8099975585938 6.730000019073486
425.0400085449219 200.4499969482422 6.059999942779541
423 200.9400024414062 7.010000228881836
424.6300048828125 200.5599975585938 6.5
421.3200073242188 201.3600006103516 6.960000038146973
419.7300109863281 201.8000030517578 7.210000038146973
420.75 201.5200042724609 6.949999809265137
420.3500061035156 201.6300048828125 7.28000020980835
419.3999938964844 201.1699981689453 7.389999866485596
421.0199890136719 200.7899932861328 7.110000133514404
421.9299926757812 200.5500030517578 6.320000171661377
421.6400146484375 200.6100006103516 7.559999942779541
424.1600036621094 199.9799957275391 6.5
424.6600036621094 199.8899993896484 6.159999847412109
419.9200134277344 201.0399932861328 7.059999942779541
423.1000061035156 200.2700042724609 6.730000019073486
423.6700134277344 200.1300048828125 6.75
420.4400024414062 200.9100036621094 6.829999923706055
422.5499877929688 200.3899993896484 6.650000095367432
420.7300109863281 200.2899932861328 7.920000076293945
420.0400085449219 200.4600067138672 6.869999885559082
420.489990234375 200.3699951171875 6.639999866485596
419.6600036621094 200.5399932861328 7.920000076293945
421.2200012207031 200.1399993896484 7.670000076293945
421.7200012207031 200.0399932861328 7.349999904632568
423.2699890136719 199.6699981689453 6.449999809265137
423.7699890136719 199.5 6.25
424.4100036621094 199.3699951171875 6.400000095367432
421.2900085449219 199.4799957275391 7.139999866485596
422.1400146484375 199.3000030517578 5.929999828338623
421.0499877929688 199.5800018310547 5.829999923706055
424.4200134277344 198.6900024414062 6.400000095367432
423.8800048828125 198.8500061035156 6.190000057220459
421.5700073242188 199.4100036621094 5.789999961853027
423.2900085449219 199 6.269999980926514
422.8200073242188 199.0800018310547 6.619999885559082
422.239990234375 199.2400054931641 6.519999980926514
420.3900146484375 199.6999969482422 8.100000381469727
419.75 199.8500061035156 7.53000020980835
419.1799926757812 200.0099945068359 7.659999847412109
420.25 199.7200012207031 7.320000171661377
420.8099975585938 199.6100006103516 7.480000019073486
425.0400085449219 197.8500061035156 6.090000152587891
422.8200073242188 198.4199981689453 5.920000076293945
423.3800048828125 198.3000030517578 5.96999979019165
424.5599975585938 198.0099945068359 6.130000114440918
423.9500122070312 198.1499938964844 5.940000057220459
423.5400085449219 198.2700042724609 6.670000076293945
418.4700012207031 199.5099945068359 6.309999942779541
419.1900024414062 199.3300018310547 7.309999942779541
418.2000122070312 199.5899963378906 7.889999866485596
417.9299926757812 199.6600036621094 6.349999904632568
418.75 199.4299926757812 7.699999809265137
419.6000061035156 199.2400054931641 6.360000133514404
420.2000122070312 199.0899963378906 6.849999904632568
420.8399963378906 198.9400024414062 7.210000038146973
421.3500061035156 198.7899932861328 6.929999828338623
421.8800048828125 198.6399993896484 6.809999942779541
419.7300109863281 199.1799926757812 7.110000133514404
422.3500061035156 198.5599975585938 6.360000133514404
418.3200073242188 198.9199981689453 7.480000019073486
419.9400024414062 198.5 7.059999942779541
420.3800048828125 198.4100036621094 6.53000020980835
421.5 198.1399993896484 6.800000190734863
420.5700073242188 198.3300018310547 7.679999828338623
422.4400024414062 197.8899993896484 6.110000133514404
421.1400146484375 198.1799926757812 7.800000190734863
422.1000061035156 197.9900054931641 7.079999923706055
419.3999938964844 198.6399993896484 7.269999980926514
418.8500061035156 198.8099975585938 7.400000095367432
423.5 197.6399993896484 5.940000057220459
420.9800109863281 198.25 6.809999942779541
424.0199890136719 197.5200042724609 5.599999904632568
422.9400024414062 197.7700042724609 5.829999923706055
418.3800048828125 198.3300018310547 7.010000228881836
418.8999938964844 198.1900024414062 6.940000057220459
420.4800109863281 197.7899932861328 6.690000057220459
421.0400085449219 197.6699981689453 6.769999980926514
420.2300109863281 197.8699951171875 5.400000095367432
421.3900146484375 197.5700073242188 5.420000076293945
421.75 197.4499969482422 7.420000076293945
422.010009765625 197.4299926757812 6.059999942779541
423.6300048828125 197.0299987792969 5.539999961853027
420.0799865722656 197.8899993896484 7.309999942779541
421.6300048828125 197.5399932861328 6.650000095367432
419.489990234375 198.0500030517578 7.159999847412109
423.1099853515625 197.1300048828125 5.809999942779541
422.5799865722656 197.3000030517578 5.849999904632568
423.1900024414062 196.3800048828125 5.619999885559082
418.510009765625 197.5399932861328 7.199999809265137
419.4299926757812 197.3200073242188 5.989999771118164
421.2200012207031 196.8999938964844 6.760000228881836
421 196.9400024414062 5.789999961853027
419.7000122070312 197.25 7.269999980926514
420.5899963378906 197.0200042724609 6.590000152587891
420.510009765625 197.0899963378906 5.96999979019165
422.1700134277344 196.6600036621094 5.96999979019165
420.0700073242188 197.1600036621094 6.440000057220459
422.6400146484375 196.5099945068359 5.96999979019165
420.2300109863281 197.1000061035156 7.340000152587891
421.4800109863281 196.8200073242188 5.619999885559082
420.7099914550781 196.1999969482422 6.5
421.7999877929688 195.9600067138672 6.25
421.239990234375 196.0800018310547 6.320000171661377
420.2099914550781 196.3699951171875 6.78000020980835
422.8299865722656 195.7100067138672 5.690000057220459
418.5700073242188 196.75 6.909999847412109
419.7099914550781 196.4700012207031 7.110000133514404
419.1199951171875 196.6100006103516 6.710000038146973
419.4299926757812 195.7799987792969 7.070000171661377
420.6499938964844 195.5 5.050000190734863
420.3399963378906 195.5599975585938 6.190000057220459
419.8900146484375 195.7100067138672 6.420000076293945
421.7200012207031 195.2299957275391 4.880000114440918
421.260009765625 195.3699951171875 5.349999904632568
418.8200073242188 195.9499969482422 6.659999847412109
420.9200134277344 195.4600067138672 6.320000171661377
420.9299926757812 194.8099975585938 5.239999771118164
419.9400024414062 195.0500030517578 6.050000190734863
420.5799865722656 194.8899993896484 6.460000038146973
420.989990234375 201.6900024414062 7.019999980926514
423.5599975585938 201.0200042724609 6.869999885559082
419.8099975585938 201.9900054931641 7.239999771118164
420.5700073242188 201.7899932861328 7.340000152587891
424.6300048828125 199.9900054931641 6.269999980926514
424.0899963378906 200.1300048828125 6.480000019073486
423.489990234375 200.2799987792969 6.590000152587891
420.8200073242188 200.9499969482422 6.53000020980835
420.3399963378906 201.1199951171875 6.880000114440918
422.9200134277344 200.4100036621094 6.75
421.2300109863281 200.8699951171875 7.380000114440918
423.9700012207031 199.4600067138672 6.159999847412109
423.4400024414062 199.5899963378906 6.519999980926514
421.4200134277344 200.1399993896484 7.650000095367432
419.4700012207031 200.6100006103516 7.760000228881836
420.2799987792969 200.4100036621094 6.71999979019165
418.9400024414062 200.7799987792969 8
420.8099975585938 200.2899932861328 7.809999942779541
422.8500061035156 199.7299957275391 6.610000133514404
423.1300048828125 199.0500030517578 5.489999771118164
424.2099914550781 198.7899932861328 6.269999980926514
422.5899963378906 199.1900024414062 7.050000190734863
423.5599975585938 198.9499969482422 6.369999885559082
421.2300109863281 199.5599975585938 7.03000020980835
421.2099914550781 199.5599975585938 5.670000076293945
422.9100036621094 199.1199951171875 6.360000133514404
420.3399963378906 199.7899932861328 6.610000133514404
422.1199951171875 199.3300018310547 6.050000190734863
419.4800109863281 200.0299987792969 7.659999847412109
420.2099914550781 199.8300018310547 7.769999980926514
423.2099914550781 198.3399963378906 6.860000133514404
422.3399963378906 198.5700073242188 6.309999942779541
421.9500122070312 198.6799926757812 6.860000133514404
423.5199890136719 198.2599945068359 6.110000133514404
421.3200073242188 198.8399963378906 6.920000076293945
419.9700012207031 199.1900024414062 6.880000114440918
420.5400085449219 199.0700073242188 6.610000133514404
424.2000122070312 198.1100006103516 6.25
419.3999938964844 199.3399963378906 7.099999904632568
419.989990234375 199.1600036621094 5.599999904632568
420.3599853515625 199.0500030517578 3.579999923706055
420.9200134277344 198.9900054931641 7.449999809265137
422.75 198.4499969482422 5.909999847412109
423.8399963378906 197.4600067138672 5.309999942779541
422.7999877929688 197.7299957275391 5.880000114440918
423.4800109863281 197.5800018310547 5.900000095367432
422.1799926757812 197.9299926757812 6.099999904632568
420.9800109863281 198.25 7.699999809265137
420.5299987792969 198.3300018310547 5.320000171661377
421.1300048828125 198.1499938964844 5.210000038146973
420.0599975585938 198.4900054931641 7.170000076293945
418.2300109863281 198.9600067138672 7.420000076293945
419.4299926757812 198.6300048828125 7.25
421.2200012207031 198.1999969482422 6.760000228881836
420.2699890136719 198.3899993896484 6.260000228881836
418.9400024414062 198.7799987792969 7.559999942779541
422.0899963378906 197.9700012207031 7.059999942779541
421.260009765625 197.5 6.75
421.25 197.5299987792969 5.340000152587891
418.75 198.1699981689453 6.96999979019165
420.5899963378906 197.6999969482422 6.730000019073486
419.5299987792969 198 7.159999847412109
420.0499877929688 197.8399963378906 5.53000020980835
418.1400146484375 198.3300018310547 7.070000171661377
420.0799865722656 197.8099975585938 7.050000190734863
423.8699951171875 196.8500061035156 5.449999809265137
423.4200134277344 196.9700012207031 5.760000228881836
422.1600036621094 197.2899932861328 5.880000114440918
422.8099975585938 197.1100006103516 5.789999961853027
420.9100036621094 197.0599975585938 7.349999904632568
421.0199890136719 197.0299987792969 6.099999904632568
422.3099975585938 196.6900024414062 5.940000057220459
418.9200134277344 197.5899963378906 7.139999866485596
419.5599975585938 197.3899993896484 5.849999904632568
421.510009765625 196.8999938964844 5.710000038146973
422.9400024414062 196.5599975585938 5.880000114440918
420.3599853515625 197.2400054931641 6.170000076293945
419.6600036621094 197.4199981689453 7.409999847412109
420.2300109863281 197.25 7.179999828338623
421.8200073242188 196.1999969482422 5.920000076293945
420.7000122070312 196.4900054931641 6.329999923706055
419.5799865722656 196.7700042724609 6.679999828338623
421.2999877929688 196.3200073242188 6.199999809265137
422.3999938964844 196.0299987792969 5.71999979019165
420.2099914550781 196.5899963378906 6.590000152587891
421.3399963378906 195.5800018310547 6.21999979019165
420.8599853515625 195.7400054931641 6.440000057220459
419.1099853515625 196.1699981689453 6.840000152587891
419.7699890136719 195.9900054931641 6.909999847412109
420.1700134277344 195.2100067138672 6.159999847412109
420.9500122070312 195.0299987792969 6.28000020980835
420.3500061035156 201.6699981689453 7.210000038146973
420.9800109863281 201.8399963378906 7.260000228881836
418.8699951171875 200.6900024414062 7.880000114440918
419.760009765625 200.9100036621094 7.190000057220459
421.1300048828125 201.1900024414062 7.019999980926514
420.5899963378906 201.1000061035156 6.769999980926514
421.4700012207031 200.7299957275391 7.400000095367432
422.8699951171875 201.0700073242188 6.949999809265137
420.8500061035156 200.5599975585938 7.429999828338623
423.5499877929688 201.2100067138672 6.829999923706055
419.8599853515625 200.3200073242188 6.760000228881836
418.2200012207031 199.9299926757812 6.269999980926514
420.5299987792969 200.5 6.78000020980835
419.4400024414062 200.2599945068359 7.71999979019165
423.5299987792969 200.5800018310547 6.829999923706055
421.9100036621094 200.2100067138672 6.239999771118164
421.2699890136719 200.0899963378906 7.71999979019165
422.5 200.3600006103516 6.460000038146973
420.2699890136719 199.8200073242188 7.130000114440918
419.3599853515625 199.6199951171875 7.75
418.6300048828125 199.4400024414062 6.389999866485596
423 200.4600067138672 6.559999942779541
420.489990234375 199.8600006103516 8.119999885559082
419.9100036621094 199.7400054931641 6.539999961853027
419.3200073242188 198.8300018310547 6.389999866485596
418.3999938964844 198.6199951171875 7.130000114440918
420.2200012207031 199.0299987792969 4.159999847412109
424.2300109863281 200.75 6.679999828338623
418.7699890136719 198.7299957275391 7.679999828338623
420.0199890136719 198.9499969482422 3.180000066757202
420.9100036621094 199.9600067138672 7.119999885559082
423.0700073242188 199.7599945068359 6.369999885559082
424.3699951171875 200.0800018310547 6.159999847412109
423.6099853515625 199.8899993896484 6.460000038146973
421.4800109863281 199.3500061035156 5.760000228881836
421.8900146484375 199.4799957275391 6.329999923706055
420.6099853515625 199.1399993896484 4.820000171661377
424.3800048828125 199.4499969482422 6.340000152587891
422.0599975585938 199.5099945068359 7.25
420.75 199.1999969482422 7.480000019073486
422.3500061035156 198.9499969482422 6.619999885559082
423.75 199.2799987792969 6.340000152587891
423.0700073242188 199.1100006103516 6.610000133514404
420.3299865722656 199.0899963378906 6.980000019073486
420.6799926757812 198.5500030517578 7.650000095367432
421.5400085449219 198.75 7.110000133514404
420.9700012207031 198.6199951171875 6.940000057220459
418.4200134277344 198 6.960000038146973
420.1900024414062 198.4600067138672 7.260000228881836
419.7900085449219 198.9700012207031 6.809999942779541
423.5799865722656 199.2400054931641 5.360000133514404
419.0599975585938 198.1799926757812 6.960000038146973
420.0199890136719 198.3999938964844 6.03000020980835
421.9800109863281 198.8399963378906 6.070000171661377
419.5199890136719 198.2599945068359 7.300000190734863
418.8699951171875 197.5700073242188 7.159999847412109
419.5599975585938 197.6900024414062 5.539999961853027
418.2900085449219 197.3999938964844 7.150000095367432
421.1499938964844 198.1000061035156 7.78000020980835
423.5899963378906 198.6699981689453 6.300000190734863
424.1600036621094 198.8300018310547 6.369999885559082
422.7200012207031 198.4900054931641 6.809999942779541
420.9299926757812 198.0599975585938 6.860000133514404
420.9500122070312 198.0399932861328 5.25
422.5400085449219 198.4100036621094 5.860000133514404
420.5499877929688 197.9600067138672 7.670000076293945
423.0799865722656 198.5700073242188 5.929999828338623
419.9500122070312 197.7899932861328 6.03000020980835
421.5499877929688 198.1799926757812 6.820000171661377
420.3299865722656 197.9199981689453 6.630000114440918
419.4100036621094 197.6699981689453 7.369999885559082
422.1799926757812 198.3399963378906 6.710000038146973
420.010009765625 197.8099975585938 7.519999980926514
423.4700012207031 198.0500030517578 6.420000076293945
421.3999938964844 197.5599975585938 6.75
421.9200134277344 197.6699981689453 5.5
420.7999877929688 197.3899993896484 6.71999979019165
421.8599853515625 197.6399993896484 7.25
421.3399963378906 197.5200042724609 5.480000019073486
422.7799987792969 197.8999938964844 6.449999809265137
419.9400024414062 197.1799926757812 7.210000038146973
420.260009765625 197.2799987792969 6.340000152587891
419.3900146484375 197.0800018310547 6.940000057220459
424.1600036621094 198.2200012207031 6.309999942779541
419.9200134277344 197.1799926757812 5.710000038146973
422.3500061035156 197.7700042724609 6.059999942779541
419.1300048828125 196.9700012207031 6.139999866485596
424.6199951171875 197.5800018310547 6.260000228881836
424.239990234375 197.5 5.809999942779541
423.6300048828125 197.3500061035156 5.760000228881836
423.1000061035156 197.2400054931641 5.690000057220459
420.3999938964844 196.5800018310547 6.099999904632568
422.3099975585938 197.0500030517578 5.940000057220459
419.3599853515625 196.3399963378906 7.099999904632568
421.3299865722656 196.8200073242188 6.78000020980835
421.8200073242188 196.9199981689453 5.730000019073486
418.8800048828125 196.2200012207031 6.829999923706055
421.0700073242188 196.7599945068359 5.920000076293945
420.8599853515625 196.0599975585938 6.369999885559082
422.9500122070312 196.5200042724609 6
423.760009765625 196.7200012207031 5.559999942779541
421.6900024414062 196.2400054931641 6.059999942779541
422.2699890136719 196.3899993896484 6.079999923706055
420.2699890136719 195.9100036621094 6.230000019073486
421.3500061035156 196.1300048828125 5.179999828338623
419.3599853515625 195.6900024414062 7.019999980926514
421.010009765625 195.4199981689453 6.039999961853027
419.8099975585938 195.1300048828125 5.980000019073486
421.4800109863281 195.5599975585938 6.360000133514404
420.7999877929688 195.3300018310547 5.019999980926514
422.3599853515625 195.7299957275391 5.75
420.2000122070312 201.7400054931641 7.28000020980835
420.8099975585938 201.8999938964844 7
419.6900024414062 201.6100006103516 7.230000019073486
419.1300048828125 201.4700012207031 7.550000190734863
421.3099975585938 202.0299987792969 7.369999885559082
419.739990234375 200.9199981689453 7.929999828338623
421.3599853515625 201.3300018310547 7.099999904632568
420.3699951171875 201.0700073242188 6.949999809265137
419.8099975585938 200.9299926757812 7.059999942779541
420.8999938964844 201.25 6.800000190734863
419.239990234375 200.7799987792969 7.829999923706055
418.8900146484375 199.9600067138672 6.789999961853027
419.2999877929688 200.0399932861328 7.659999847412109
419.7900085449219 200.1799926757812 7.849999904632568
422.6300048828125 200.8899993896484 6.920000076293945
421.4800109863281 200.6300048828125 7.519999980926514
423.2099914550781 201.0700073242188 6.900000095367432
418.3999938964844 199.8500061035156 6.28000020980835
420.4500122070312 200.3699951171875 6.789999961853027
419.8599853515625 200.1999969482422 6.960000038146973
420.9200134277344 200.4900054931641 7.400000095367432
423.739990234375 201.2100067138672 6.889999866485596
419.4400024414062 199.2899932861328 7.340000152587891
420.0299987792969 199.4499969482422 6.610000133514404
421.510009765625 199.7700042724609 7.650000095367432
421.0299987792969 199.6900024414062 6.980000019073486
420.4299926757812 199.5 7.75
421.6700134277344 199.8300018310547 6.25
422.7000122070312 200.0899963378906 6.630000114440918
418.3999938964844 198.9799957275391 7.139999866485596
421.2000122070312 199.7100067138672 5.730000019073486
418.9599914550781 199.1600036621094 7.440000057220459
424.2900085449219 200.4900054931641 6.610000133514404
423.2200012207031 200.2200012207031 6.639999866485596
423.7300109863281 200.3500061035156 6.78000020980835
419.5400085449219 199.3200073242188 6.400000095367432
418.9400024414062 198.4299926757812 7.019999980926514
418.4100036621094 198.2899932861328 7.010000228881836
417.8800048828125 198.1799926757812 6.820000171661377
419.4299926757812 198.5500030517578 7.340000152587891
420.2300109863281 198.8099975585938 4.619999885559082
420.0599975585938 198.7299957275391 6.550000190734863
420.8099975585938 198.9199981689453 4.710000038146973
421.6499938964844 199.1300048828125 7.03000020980835
421.0499877929688 198.9400024414062 7.269999980926514
421.1900024414062 199 5.769999980926514
422.7699890136719 199.3899993896484 6.760000228881836
417.3699951171875 198.0500030517578 6.630000114440918
423.8599853515625 199.6600036621094 6.320000171661377
420.6600036621094 198.8800048828125 6.320000171661377
420.510009765625 198.8099975585938 7.440000057220459
422.2200012207031 199.2799987792969 6.360000133514404
421.75 199.1399993896484 5.880000114440918
424.3500061035156 199.8000030517578 6.340000152587891
423.3200073242188 199.5500030517578 6.53000020980835
424.8599853515625 199.9100036621094 6.659999847412109
419 197.8000030517578 7.170000076293945
419.489990234375 197.9400024414062 7.210000038146973
420 198.0500030517578 7.320000171661377
420.2300109863281 198.1399993896484 5.309999942779541
420.1300048828125 198.1199951171875 6.170000076293945
418.489990234375 197.6399993896484 7.199999809265137
420.5499877929688 198.1999969482422 6.869999885559082
419.6600036621094 197.9700012207031 5.760000228881836
421.0199890136719 198.3200073242188 7.809999942779541
421.5199890136719 198.4299926757812 7.800000190734863
420.5 198.1699981689453 7.679999828338623
423.4299926757812 198.9499969482422 5.460000038146973
423.3299865722656 198.8999938964844 6.360000133514404
421.1300048828125 198.3200073242188 7.070000171661377
422.7300109863281 198.7700042724609 6.619999885559082
420.75 198.2400054931641 5.260000228881836
422.2900085449219 198.6100006103516 6.349999904632568
424.9100036621094 199.2899932861328 6.460000038146973
421.6300048828125 198.4499969482422 6.880000114440918
424.3999938964844 199.1600036621094 6.420000076293945
423.8900146484375 199.0599975585938 6.239999771118164
420.260009765625 197.3899993896484 6.25
420.1600036621094 197.3500061035156 7.360000133514404
419.1499938964844 197.1499938964844 6.110000133514404
420.8699951171875 197.5599975585938 5.380000114440918
420.7000122070312 197.5 6.739999771118164
421.3099975585938 197.6900024414062 6.730000019073486
422.3299865722656 197.9100036621094 7.230000019073486
422.4500122070312 198 6.079999923706055
421.7900085449219 197.7599945068359 7.150000095367432
423.989990234375 198.3600006103516 6.309999942779541
422.9400024414062 198.0800018310547 6.440000057220459
419.7000122070312 197.2700042724609 6.320000171661377
423.4299926757812 198.2299957275391 6.550000190734863
424.5 198.4799957275391 6.289999961853027
419.739990234375 196.3999938964844 7.320000171661377
420.9400024414062 196.75 6.300000190734863
422.0299987792969 197.0099945068359 6
421 196.7700042724609 5.760000228881836
423.0899963378906 197.2899932861328 5.639999866485596
421.5 196.9100036621094 5.460000038146973
424.1499938964844 197.5800018310547 5.96999979019165
421.3999938964844 196.8699951171875 6.710000038146973
420.3500061035156 196.5700073242188 6.349999904632568
423.6300048828125 197.4199981689453 5.78000020980835
422.5199890136719 197.1300048828125 5.929999828338623
424.6400146484375 197.6999969482422 6.079999923706055
425.2200012207031 197.8300018310547 6.130000114440918
419.2300109863281 196.2799987792969 7.039999961853027
418.75 196.1699981689453 6.860000133514404
420.989990234375 196.0599975585938 6.309999942779541
419.2699890136719 195.5700073242188 7.119999885559082
421.5299987792969 196.1999969482422 6.300000190734863
420.4200134277344 195.8699951171875 6.460000038146973
419.8999938964844 195.7400054931641 6.550000190734863
422.1799926757812 196.3500061035156 5.880000114440918
421.1199951171875 196.1000061035156 5.179999828338623
423.2300109863281 196.5899963378906 5.809999942779541
422.6400146484375 196.4499969482422 6.019999980926514
423.7300109863281 196.7299957275391 5.539999961853027
419.9599914550781 195.1600036621094 6.090000152587891
420.5400085449219 195.3000030517578 6.409999847412109
422.6799926757812 195.8500061035156 5.710000038146973
423.2300109863281 195.9900054931641 5.690000057220459
421.6000061035156 195.5399932861328 6.440000057220459
421.1099853515625 195.4700012207031 5.460000038146973
420.7099914550781 195.3500061035156 4.880000114440918
420.8099975585938 194.6999969482422 5.119999885559082
420.7999877929688 202.5299987792969 6.619999885559082
420.3900146484375 201.7799987792969 7.420000076293945
419.2200012207031 201.5200042724609 7.320000171661377
420.8599853515625 201.9199981689453 7.190000057220459
419.7200012207031 201.6199951171875 7.079999923706055
420.5899963378906 201.1300048828125 6.920000076293945
420.0799865722656 201 6.940000057220459
419.1300048828125 200.8300018310547 7.860000133514404
419.6700134277344 200.9199981689453 7.590000152587891
421.1400146484375 201.25 6.860000133514404
423.2300109863281 201.0399932861328 6.809999942779541
422.7200012207031 200.8899993896484 7.039999961853027
423.8099975585938 201.1600036621094 6.909999847412109
420.9500122070312 200.4400024414062 6.300000190734863
419.989990234375 200.2299957275391 7
422.0400085449219 200.7200012207031 6.300000190734863
421.7699890136719 200.6999969482422 7.630000114440918
418.8399963378906 199.9700012207031 6.949999809265137
420.6700134277344 200.3999938964844 7.829999923706055
421.1199951171875 200.5099945068359 7.28000020980835
419.510009765625 200.1499938964844 7.550000190734863
418.1400146484375 199.7700042724609 6.309999942779541
420.4500122070312 200.3300018310547 6.699999809265137
423.0700073242188 200.3399963378906 6.71999979019165
424.2000122070312 200.6000061035156 6.619999885559082
422.5199890136719 200.1999969482422 6.650000095367432
421.5899963378906 199.9799957275391 7.380000114440918
420.4400024414062 199.6900024414062 7.139999866485596
419.8299865722656 199.5500030517578 6.46999979019165
423.6600036621094 200.4900054931641 6.730000019073486
420.0199890136719 199.5899963378906 7.699999809265137
419.3999938964844 199.4600067138672 7.309999942779541
421.9400024414062 200.0399932861328 6.309999942779541
418.8900146484375 199.3200073242188 7.579999923706055
421.25 199.8999938964844 5.650000095367432
421.0499877929688 199.8699951171875 7.170000076293945
418.7300109863281 199.2899932861328 6.53000020980835
423.9700012207031 200 6.46999979019165
423.4800109863281 199.8600006103516 6.539999961853027
424.5400085449219 200.1100006103516 6.139999866485596
421.1300048828125 199.2700042724609 5.820000171661377
421.6499938964844 199.4299926757812 5.889999866485596
421.8900146484375 199.5099945068359 7.190000057220459
420.8500061035156 199.25 7.289999961853027
420.1700134277344 199.0800018310547 6.820000171661377
422.3800048828125 199.5899963378906 6.489999771118164
421.4299926757812 199.3699951171875 7.25
418.6799926757812 198.6999969482422 7.46999979019165
422.9700012207031 199.75 6.5
420.5499877929688 199.1399993896484 5.809999942779541
419.4700012207031 198.8699951171875 6.25
419.6099853515625 198.9199981689453 6.989999771118164
419.2200012207031 198.8300018310547 7.46999979019165
419.9299926757812 199 5.369999885559082
420.2200012207031 199.0700073242188 4.119999885559082
418.1099853515625 198.5700073242188 7.159999847412109
424.8699951171875 199.5399932861328 6.360000133514404
424.3200073242188 199.3999938964844 6.340000152587891
423.0899963378906 199.0800018310547 5.46999979019165
422.6600036621094 199.0299987792969 6.170000076293945
423.239990234375 199.1399993896484 6.340000152587891
422.7999877929688 199.0800018310547 6.949999809265137
422.3099975585938 198.9299926757812 6.989999771118164
422.1900024414062 198.8699951171875 6.289999961853027
423.760009765625 199.2799987792969 6.190000057220459
420.8800048828125 198.5399932861328 5.21999979019165
421.1900024414062 198.6399993896484 6.980000019073486
420.739990234375 198.5399932861328 7.559999942779541
421.7000122070312 198.8000030517578 7
420.1900024414062 198.3999938964844 7.389999866485596
418.4100036621094 198 7.059999942779541
419.6300048828125 198.2899932861328 7.25
418.989990234375 198.1000061035156 6.949999809265137
420.2999877929688 198.4100036621094 5.349999904632568
420.0299987792969 198.3600006103516 6.489999771118164
423.1900024414062 198.4100036621094 6.579999923706055
423.7699890136719 198.5299987792969 6.429999828338623
424.3399963378906 198.6600036621094 6.380000114440918
421.6000061035156 198 6.880000114440918
420.9599914550781 197.8399963378906 6.659999847412109
420.4599914550781 197.7100067138672 6.71999979019165
420.2200012207031 197.6399993896484 5.449999809265137
419.9700012207031 197.6000061035156 7.010000228881836
419.5400085449219 197.5 7.429999828338623
419.739990234375 197.5599975585938 5.820000171661377
421.3699951171875 197.9299926757812 5.559999942779541
418.8900146484375 197.3699951171875 6.960000038146973
422.6300048828125 198.2299957275391 6.179999828338623
422.1700134277344 198.1399993896484 6.860000133514404
419.2300109863281 197.3999938964844 5.820000171661377
424.2200012207031 197.9799957275391 6.300000190734863
424.739990234375 198.0899963378906 6.21999979019165
423.0299987792969 197.6799926757812 5.829999923706055
421.3399963378906 197.2700042724609 5.559999942779541
423.6300048828125 197.8500061035156 6.03000020980835
422.5400085449219 197.5800018310547 5.929999828338623
419.9299926757812 196.9799957275391 7.139999866485596
420.9500122070312 197.1799926757812 6.309999942779541
421.9700012207031 197.4100036621094 6.090000152587891
419.4400024414062 196.8399963378906 7.03000020980835
420.3800048828125 197.0700073242188 6.440000057220459
418.7999877929688 196.6999969482422 7.050000190734863
420.2699890136719 197.0200042724609 5.630000114440918
423.9100036621094 197.3000030517578 5.369999885559082
423.3800048828125 197.1799926757812 5.739999771118164
422.8299865722656 197.0800018310547 5.820000171661377
422.2699890136719 196.9400024414062 5.909999847412109
421.7699890136719 196.7799987792969 5.940000057220459
420.6900024414062 196.5200042724609 5.809999942779541
420.2699890136719 196.4299926757812 6.409999847412109
421.3699951171875 196.7400054931641 6.820000171661377
419.8800048828125 196.3500061035156 7.309999942779541
419.6499938964844 196.3099975585938 6.25
418.6499938964844 196.0500030517578 6.809999942779541
419.2999877929688 196.2100067138672 7.159999847412109
421.1900024414062 196.6699981689453 5.679999828338623
422.8099975585938 196.4499969482422 5.96999979019165
421.760009765625 196.1999969482422 6.289999961853027
420.6700134277344 195.8999938964844 6.489999771118164
421.1600036621094 196.0599975585938 6.360000133514404
420.1000061035156 195.7700042724609 6.46999979019165
420.989990234375 195.9900054931641 5.25
422.239990234375 196.2899932861328 5.860000133514404
423.8500061035156 196.6699981689453 5.670000076293945
423.2799987792969 196.5500030517578 5.630000114440918
421.7200012207031 195.4799957275391 6.360000133514404
421.010009765625 195.3099975585938 5.849999904632568
419.9800109863281 195.0200042724609 6.170000076293945
420.6400146484375 195.1900024414062 6.449999809265137
422.1199951171875 195.5599975585938 5.650000095367432
422.6199951171875 195.6900024414062 5.630000114440918
420.8800048828125 194.6100006103516 5.369999885559082
420.3200073242188 202.1000061035156 7.480000019073486
419.6600036621094 201.9100036621094 7.46999979019165
419.7900085449219 201.2700042724609 7.190000057220459
420.9599914550781 201.5200042724609 6.96999979019165
420.4700012207031 201.4100036621094 7.199999809265137
419.8599853515625 200.6699981689453 7.289999961853027
419.4299926757812 200.5700073242188 7.78000020980835
420.8299865722656 200.9199981689453 6.630000114440918
421.239990234375 201 7.409999847412109
420.3099975585938 200.8099975585938 6.860000133514404
419.4800109863281 200.0700073242188 7.670000076293945
420.3999938964844 200.3000030517578 6.690000057220459
419.9200134277344 200.1399993896484 7.110000133514404
420.9200134277344 200.4199981689453 6.389999866485596
418.1799926757812 199.7299957275391 6.360000133514404
423.0700073242188 200.9400024414062 6.909999847412109
420.9100036621094 200.3800048828125 7.710000038146973
421.3800048828125 200.5399932861328 7.449999809265137
423.7099914550781 201.0899963378906 6.769999980926514
420.3200073242188 199.6600036621094 7.699999809265137
418.25 199.1799926757812 7.349999904632568
421.6300048828125 199.9900054931641 7.559999942779541
418.9400024414062 199.3200073242188 7.570000171661377
423.2099914550781 200.4199981689453 6.71999979019165
423.8699951171875 200.5700073242188 6.71999979019165
422.4599914550781 200.1999969482422 6.610000133514404
421.3299865722656 199.9199981689453 6.960000038146973
421.2799987792969 199.9299926757812 5.579999923706055
424.4700012207031 200.7200012207031 6.489999771118164
420.4700012207031 199.7100067138672 6.53000020980835
419.5400085449219 199.4799957275391 7.289999961853027
419.75 198.8699951171875 5.940000057220459
419.260009765625 198.7400054931641 7.599999904632568
420.0899963378906 198.9600067138672 5.269999980926514
418.3500061035156 198.5299987792969 7.269999980926514
421 199.1600036621094 7.079999923706055
421.6300048828125 199.3300018310547 5.690000057220459
417.3599853515625 198.3099975585938 6.639999866485596
420.3500061035156 198.9900054931641 7.190000057220459
421.7000122070312 199.3300018310547 7.150000095367432
420.0400085449219 198.9799957275391 2.430000066757202
419.6099853515625 198.8300018310547 7.059999942779541
422.4100036621094 199.5099945068359 7.329999923706055
423.9400024414062 199.8800048828125 6.480000019073486
421.1000061035156 199.1999969482422 5.900000095367432
420.3999938964844 199.0599975585938 3.160000085830688
424.5700073242188 200.0700073242188 6.389999866485596
422 199.4400024414062 6.5
423.2799987792969 199.7200012207031 6.489999771118164
419.1799926757812 198.1399993896484 7.099999904632568
420.3900146484375 198.4299926757812 5.449999809265137
420.8599853515625 198.5399932861328 7.71999979019165
419.9599914550781 198.3200073242188 7.28000020980835
418.5499877929688 197.9600067138672 7
421.1700134277344 198.6199951171875 7.010000228881836
422.3900146484375 198.8999938964844 6.820000171661377
422.6300048828125 198.9700012207031 6
424.7799987792969 199.5 6.349999904632568
421.7799987792969 198.75 6.900000095367432
423.4700012207031 199.1900024414062 6.28000020980835
422.9200134277344 199.0700073242188 6.679999828338623
420.8099975585938 198.5700073242188 4.929999828338623
424.0199890136719 199.3000030517578 6.119999885559082
420.1900024414062 198.3600006103516 6.400000095367432
419.6499938964844 197.6399993896484 7.369999885559082
419.4700012207031 197.6499938964844 5.71999979019165
420.1300048828125 197.7599945068359 7.070000171661377
420.0400085449219 197.7700042724609 5.460000038146973
421.2699890136719 198.0599975585938 5.190000057220459
420.5 197.8899993896484 6.46999979019165
421.3200073242188 198.0899963378906 6.730000019073486
422.4599914550781 198.3500061035156 6.239999771118164
422.1900024414062 198.2899932861328 7.019999980926514
423.7099914550781 198.6600036621094 6.239999771118164
422.8599853515625 198.4799957275391 5.760000228881836
424.4500122070312 198.8600006103516 6.409999847412109
423.3500061035156 198.5500030517578 6.739999771118164
419.3299865722656 196.9400024414062 7.159999847412109
420.4800109863281 197.2700042724609 5.699999809265137
421.9800109863281 197.6000061035156 6.070000171661377
420.239990234375 197.1799926757812 6.46999979019165
419.3900146484375 196.9700012207031 6.019999980926514
423.9800109863281 198.1300048828125 6.130000114440918
421.9599914550781 197.6199951171875 7.329999923706055
422.6600036621094 197.7700042724609 6.010000228881836
423.4500122070312 197.9600067138672 6.260000228881836
421.0799865722656 197.3899993896484 5.510000228881836
420.9800109863281 197.3500061035156 6.639999866485596
419.9299926757812 197.1100006103516 7.099999904632568
419.5499877929688 196.3000030517578 7.190000057220459
421.4599914550781 196.7599945068359 6.809999942779541
420.5299987792969 196.5500030517578 6.429999828338623
420.1000061035156 196.4199981689453 6.909999847412109
422.3099975585938 196.9900054931641 5.869999885559082
424.25 197.4700012207031 5.829999923706055
421.4400024414062 196.7899932861328 5.610000133514404
421.0400085449219 196.6699981689453 5.949999809265137
423.6600036621094 197.3000030517578 5.800000190734863
422.9299926757812 197.1300048828125 5.789999961853027
418.8200073242188 196.1000061035156 6.929999828338623
423.9200134277344 197.3999938964844 5.150000095367432
420.8999938964844 195.9799957275391 6.369999885559082
421.9800109863281 196.2700042724609 5.989999771118164
421.489990234375 196.1300048828125 6.309999942779541
423.7699890136719 196.6900024414062 5.630000114440918
422.6499938964844 196.4499969482422 6.010000228881836
421.0499877929688 196.0200042724609 5.449999809265137
420.3399963378906 195.8699951171875 6.539999961853027
423.1199951171875 196.5599975585938 5.579999923706055
420.5299987792969 195.3200073242188 6.389999866485596
421.0400085449219 195.4400024414062 6.190000057220459
421.8599853515625 195.6699981689453 6.360000133514404
421.3399963378906 195.5299987792969 5.28000020980835
422.7999877929688 195.9100036621094 5.599999904632568
422 195.6999969482422 5.309999942779541
421.1000061035156 194.8500061035156 6.369999885559082
417.3099975585938 198.2200012207031 6.590000152587891
417.8999938964844 198.0399932861328 6.829999923706055
418.2099914550781 199.3999938964844 7.840000152587891
419.1199951171875 200.25 7.809999942779541
418.989990234375 199.6399993896484 7.639999866485596
419.3699951171875 201.2599945068359 7.300000190734863
418.8900146484375 199.3300018310547 6.599999904632568
418.489990234375 197.7799987792969 7.059999942779541
418.6799926757812 198.3899993896484 7.190000057220459
418.8399963378906 199.0599975585938 7.550000190734863
419.2900085449219 200.8300018310547 7.71999979019165
419.75 199.6600036621094 6.639999866485596
419.6400146484375 199.1999969482422 7.150000095367432
419.3699951171875 198.1100006103516 7.190000057220459
418.7699890136719 195.6999969482422 6.670000076293945
419.8900146484375 200.2299957275391 6.860000133514404
419.4700012207031 198.6600036621094 7.119999885559082
419.8200073242188 199.9299926757812 7.670000076293945
419.5599975585938 199 6.300000190734863
418.9100036621094 196.3800048828125 6.980000019073486
420.0199890136719 200.8099975585938 6.96999979019165
420.1199951171875 201.1300048828125 8.050000190734863
420.760009765625 201 6.679999828338623
420.4700012207031 199.9199981689453 6.980000019073486
420.260009765625 199.0299987792969 3.349999904632568
420.6400146484375 200.5 6.710000038146973
420.4700012207031 199.8200073242188 6.510000228881836
420.239990234375 198.9100036621094 5.139999866485596
420.9100036621094 201.75 7.400000095367432
420.9200134277344 201.6100006103516 6.829999923706055
420.1700134277344 198.6900024414062 6.590000152587891
420.0599975585938 198.3300018310547 7.260000228881836
419.9299926757812 197.7400054931641 7.420000076293945
420.010009765625 197.9900054931641 5.920000076293945
419.6000061035156 196.3200073242188 6.210000038146973
419.8500061035156 197.4799957275391 6.309999942779541
419.6400146484375 196.5500030517578 7.260000228881836
419.6600036621094 196.6900024414062 5.590000152587891
420.3399963378906 199.3000030517578 6.659999847412109
419.5 196.0700073242188 7.269999980926514
419.7999877929688 197.1199951171875 7.190000057220459
420.1700134277344 198.7599945068359 2.460000038146973
421 202.1199951171875 6.579999923706055
420.3800048828125 199.6100006103516 7.900000095367432
420.4100036621094 197.2799987792969 6.53000020980835
420.1799926757812 196.3200073242188 7.039999961853027
419.9800109863281 195.5500030517578 6.340000152587891
420.25 196.7200012207031 6.46999979019165
419.7799987792969 194.8500061035156 6.079999923706055
420.7099914550781 198.6300048828125 7.380000114440918
420.3599853515625 197.0800018310547 5.849999904632568
420.6400146484375 198.1699981689453 7.610000133514404
420.5199890136719 197.8600006103516 6.429999828338623
421.3800048828125 201.3200073242188 7.019999980926514
420.9800109863281 199.6300048828125 7.019999980926514
420.9100036621094 199.3699951171875 5.929999828338623
421.0599975585938 199.8699951171875 7.820000171661377
421.1600036621094 200.3000030517578 7.329999923706055
420.75 198.6699981689453 5.150000095367432
420.8200073242188 199.0500030517578 4.739999771118164
420.8599853515625 199.1799926757812 7.21999979019165
421.0299987792969 199.9199981689453 5.800000190734863
421.260009765625 200.8300018310547 7.28000020980835
421.8200073242188 200.3699951171875 6.309999942779541
421.5400085449219 199.2400054931641 6.53000020980835
421.2999877929688 198.3300018310547 7.300000190734863
421.1799926757812 197.8099975585938 5.349999904632568
421.6700134277344 199.7700042724609 6.190000057220459
421.6199951171875 199.6100006103516 7.849999904632568
421.0700073242188 197.2799987792969 5.489999771118164
420.8099975585938 196.3099975585938 6.170000076293945
420.9800109863281 197.0500030517578 6.880000114440918
420.7200012207031 195.8300018310547 6.400000095367432
420.6099853515625 195.4700012207031 5.059999942779541
421.4700012207031 198.8399963378906 6.96999979019165
420.4599914550781 194.7899932861328 6.599999904632568
420.5499877929688 195.3099975585938 6.440000057220459
421.75 200.0800018310547 7.449999809265137
420.9299926757812 196.8800048828125 6.21999979019165
421.1300048828125 197.5899963378906 6.75
421.6799926757812 196.7400054931641 6.639999866485596
421.4100036621094 195.7899932861328 5.03000020980835
421.3599853515625 195.5299987792969 6.409999847412109
421.5700073242188 196.4799957275391 5.590000152587891
421.75 197.0399932861328 5.630000114440918
421.5400085449219 196.1600036621094 6.389999866485596
421.2900085449219 195.2200012207031 5.210000038146973
422.489990234375 200.1300048828125 6.789999961853027
421.9700012207031 197.9799957275391 7.170000076293945
421.8699951171875 197.5800018310547 5.639999866485596
422.2000122070312 198.9700012207031 6.440000057220459
422.3099975585938 199.4499969482422 6.150000095367432
422.6400146484375 200.6900024414062 6.829999923706055
421.8699951171875 197.4900054931641 7.510000228881836
423.4200134277344 200.9199981689453 6.670000076293945
422.9700012207031 199.1100006103516 6.309999942779541
422.8399963378906 198.6799926757812 6.78000020980835
423.1099853515625 199.6900024414062 6.400000095367432
422.3500061035156 196.7200012207031 6.010000228881836
422.6799926757812 197.9499969482422 6.130000114440918
422.2300109863281 196.1699981689453 5.980000019073486
422.5199890136719 197.2899932861328 5.900000095367432
423.25 200.3800048828125 6.559999942779541
421.9599914550781 195.1499938964844 6.380000114440918
422.7799987792969 198.4299926757812 5.829999923706055
422.1000061035156 195.6900024414062 6.28000020980835
423.5299987792969 198.8999938964844 6.5
423.3299865722656 198.1699981689453 6.010000228881836
423.8099975585938 200 6.610000133514404
423.2099914550781 197.6000061035156 5.760000228881836
423.0599975585938 196.9900054931641 5.78000020980835
423.6600036621094 199.4100036621094 6.340000152587891
422.9299926757812 196.5 5.900000095367432
423.9200134277344 200.5800018310547 6.659999847412109
422.75 195.8999938964844 5.769999980926514
424.0799865722656 201.1799926757812 6.889999866485596
423.3999938964844 198.3600006103516 6.730000019073486
424.5400085449219 200.2400054931641 6.239999771118164
424.25 199.0700073242188 6.110000133514404
423.8599853515625 197.5 6.679999828338623
423.9299926757812 197.9199981689453 6.070000171661377
424.4200134277344 199.75 6.409999847412109
423.6499938964844 196.6699981689453 5.730000019073486
424.1099853515625 198.5800018310547 6.360000133514404
423.7799987792969 197.1999969482422 5.590000152587891
424.5899963378906 197.5700073242188 6.119999885559082
424.7200012207031 198.1699981689453 6.170000076293945
425.3099975585938 197.7700042724609 6.059999942779541
424.4599914550781 197.7700042724609 6.320000171661377
424.6099853515625 198.2899932861328 6.289999961853027
423.760009765625 197.3500061035156 5.679999828338623
423.9800109863281 198.3600006103516 6.320000171661377
424.239990234375 199.4600067138672 6.260000228881836
424.5 200.5399932861328 6.590000152587891
424.1400146484375 198.9100036621094 6.369999885559082
423.6000061035156 196.7899932861328 5.690000057220459
423.8599853515625 197.8099975585938 6.179999828338623
424.3699951171875 199.9799957275391 6.420000076293945
423.1900024414062 197.3300018310547 5.78000020980835
422.9299926757812 196.25 5.829999923706055
423.7099914550781 199.3600006103516 6.25
423.4599914550781 198.3200073242188 6.550000190734863
423.3200073242188 197.8699951171875 5.980000019073486
423.9800109863281 200.4100036621094 6.679999828338623
423.5599975585938 198.8200073242188 6.550000190734863
423.8299865722656 199.8999938964844 6.460000038146973
422.8200073242188 195.7200012207031 5.730000019073486
423.1000061035156 196.8500061035156 5.820000171661377
422.7000122070312 197.8000030517578 5.949999809265137
422.4599914550781 196.7599945068359 6.070000171661377
423 198.8899993896484 5.550000190734863
422.5599975585938 197.2200012207031 5.929999828338623
423.0799865722656 199.3899993896484 6.389999866485596
423.3399963378906 200.4799957275391 6.769999980926514
422.2999877929688 196.2200012207031 5.820000171661377
422.8599853515625 198.3500061035156 6.179999828338623
423.260009765625 199.9600067138672 6.349999904632568
422.9599914550781 198.8200073242188 6.650000095367432
423.4800109863281 200.9700012207031 6.860000133514404
421.489990234375 195.7100067138672 6.510000228881836
421.6400146484375 196.2799987792969 6.079999923706055
422.1400146484375 198.2899932861328 6.849999904632568
421.8099975585938 196.8399963378906 5.78000020980835
421.989990234375 197.7799987792969 7.21999979019165
422.0499877929688 197.8099975585938 5.820000171661377
421.9100036621094 197.3200073242188 5.949999809265137
422.8200073242188 200.9199981689453 6.889999866485596
422.2799987792969 198.8399963378906 6.369999885559082
422.7000122070312 200.4499969482422 6.71999979019165
422.4200134277344 199.3500061035156 6.940000057220459
421.4200134277344 195.25 5.130000114440918
420.760009765625 195.2799987792969 6.389999866485596
420.9299926757812 195.8699951171875 5.179999828338623
420.7999877929688 195.3200073242188 5
