239.4499969482422 487.0700073242188 9.069999694824219
239.2100067138672 486.0799865722656 10.63000011444092
239.0599975585938 485.5199890136719 9.539999961853027
239.0800018310547 485.5400085449219 10.85000038146973
239.5800018310547 487.5700073242188 7.190000057220459
239.4100036621094 487.0599975585938 7.25
239.8500061035156 488.6400146484375 8.010000228881836
238.9400024414062 485.0299987792969 9.609999656677246
239.5 487.1600036621094 11.86999988555908
239.9600067138672 486.2799987792969 10.80000019073486
234.0500030517578 489.8399963378906 8.289999961853027
233.4299926757812 490.2200012207031 8.680000305175781
234.2700042724609 490.8500061035156 8.409999847412109
234.3999938964844 491.3699951171875 7.440000057220459
235.2299957275391 491.7000122070312 7.900000095367432
234.9600067138672 490.6199951171875 7.949999809265137
234.1699981689453 490.3500061035156 8.579999923706055
234.8300018310547 490.0899963378906 8
235.0899963378906 491.1199951171875 7.78000020980835
234.9799957275391 490.6600036621094 8.960000038146973
235.6399993896484 490.75 9.180000305175781
235.5500030517578 490.2699890136719 9.800000190734863
235.8099975585938 491.3200073242188 10.09000015258789
236.3300018310547 491.0799865722656 9.899999618530273
236.0800018310547 490.0700073242188 9.970000267028809
236.9100036621094 490.760009765625 8.069999694824219
236.1799926757812 490.5899963378906 9.449999809265137
236.8099975585938 490.2999877929688 10.46000003814697
235.6799926757812 490.7900085449219 10.18000030517578
236.1900024414062 490.5199890136719 7.619999885559082
237.5 489.989990234375 8.140000343322754
237.6100006103516 490.5199890136719 7.920000076293945
237.5 490.0199890136719 9.970000267028809
237.5500030517578 490.0899963378906 11.53999996185303
238.3500061035156 490.6600036621094 10.65999984741211
238.2100067138672 490.1600036621094 10.67000007629395
238.8999938964844 490.4500122070312 10.78999996185303
239.7200012207031 486.4299926757812 11.51000022888184
239.8000030517578 486.8699951171875 11.9399995803833
239.7599945068359 486.7200012207031 10.51000022888184
239.9199981689453 487.0599975585938 7.079999923706055
239.6100006103516 486.0700073242188 10.67000007629395
239.0500030517578 486.489990234375 8.920000076293945
239.2599945068359 487.3200073242188 10.10000038146973
239.0700073242188 486.5599975585938 11
239.3500061035156 487.6400146484375 8.939999580383301
238.8899993896484 485.7699890136719 9.699999809265137
239.1900024414062 486.9200134277344 7.329999923706055
239.1300048828125 486.9299926757812 11.56999969482422
238.9199981689453 485.9700012207031 11
239.2599945068359 487.3699951171875 11.97999954223633
238.7100067138672 485.2300109863281 9.539999961853027
239.3699951171875 487.8500061035156 12.30000019073486
239.5700073242188 488.4500122070312 8.060000419616699
239.6799926757812 488.989990234375 8.109999656677246
239.1999969482422 487.0400085449219 9.159999847412109
237.7599945068359 483.7200012207031 8.930000305175781
238.0700073242188 485.1199951171875 8.069999694824219
238.5099945068359 486.6400146484375 6.539999961853027
238.3300018310547 486.1300048828125 10.64999961853027
238.4400024414062 486.6400146484375 8.75
238.2100067138672 485.6799926757812 12.17000007629395
238.2299957275391 485.7999877929688 9.670000076293945
238.5599975585938 487.1600036621094 9.130000114440918
238.4700012207031 486.7799987792969 12.60000038146973
238.6199951171875 487.4299926757812 10.23999977111816
239.0099945068359 488.8699951171875 8.770000457763672
238.3000030517578 486.1799926757812 12.63000011444092
238.7599945068359 487.9299926757812 10.3100004196167
238.7299957275391 487.5700073242188 7.460000038146973
238.9499969482422 488.5899963378906 9.819999694824219
238.4499969482422 486.6199951171875 11.10999965667725
238.6300048828125 487.4700012207031 12.02000045776367
238.5299987792969 486.9299926757812 7.630000114440918
238.9199981689453 488.3900146484375 8.680000305175781
238.7299957275391 487.9800109863281 12.22999954223633
238.2100067138672 487.8699951171875 12.38000011444092
238.5 488.9400024414062 10.55000019073486
238.6399993896484 489.6099853515625 12.22999954223633
238.6100006103516 489.5199890136719 10.63000011444092
238.5399932861328 489.260009765625 11.55000019073486
237.3300018310547 484.1900024414062 9.529999732971191
237.5399932861328 485.1400146484375 7.960000038146973
237.4299926757812 484.5499877929688 8.039999961853027
237.5700073242188 485.1900024414062 9.840000152587891
237.6499938964844 485.5299987792969 8.5
237.4299926757812 484.8399963378906 13.05000019073486
237.6399993896484 485.4299926757812 6.760000228881836
237.6300048828125 485.6300048828125 12.34000015258789
237.8099975585938 486.0199890136719 6.659999847412109
237.6499938964844 485.5899963378906 10.23999977111816
237.8500061035156 486.5299987792969 13.19999980926514
238.25 487.9400024414062 8.020000457763672
237.6600036621094 485.7999877929688 13.6899995803833
238.0500030517578 487.0700073242188 8.960000038146973
238.1399993896484 487.4500122070312 7.579999923706055
237.8999938964844 486.6199951171875 10.64000034332275
238.3999938964844 488.5299987792969 7.78000020980835
237.3399963378906 484.510009765625 12.43000030517578
237.4499969482422 484.7000122070312 9.630000114440918
238.0399932861328 486.9400024414062 7.539999961853027
237.2299957275391 483.760009765625 8.909999847412109
238.0700073242188 487.3299865722656 12.21000003814697
237.7599945068359 486.1499938964844 10.51000022888184
237.9400024414062 486.6300048828125 8.699999809265137
237.8899993896484 486.7799987792969 14.26000022888184
237.5599975585938 487.7999877929688 10.65999984741211
237.8000030517578 488.7099914550781 11.38000011444092
237.6900024414062 488.2799987792969 10.92000007629395
237.3399963378906 487.1400146484375 15.14999961853027
237.4199981689453 487.3999938964844 14.17000007629395
237.2899932861328 486.9200134277344 13.97000026702881
237.9600067138672 489.3399963378906 11.10000038146973
238.0200042724609 489.6300048828125 12.13000011444092
236.9700012207031 485.2900085449219 9.189999580383301
237.1399993896484 486 6.690000057220459
236.8699951171875 485.0799865722656 12.14999961853027
236.6600036621094 484.1199951171875 9.300000190734863
237.2799987792969 486.510009765625 6.809999942779541
236.9499969482422 485.4200134277344 11.02000045776367
236.9400024414062 485.4100036621094 12.97000026702881
237.3999938964844 487.0499877929688 7.010000228881836
237.1199951171875 485.8699951171875 9.359999656677246
237.1600036621094 486.239990234375 12.02999973297119
237.2799987792969 486.5899963378906 8.600000381469727
236.7899932861328 484.6900024414062 9.239999771118164
237.2899932861328 486.7900085449219 12.22000026702881
237.2899932861328 486.6199951171875 10.61999988555908
237.0899963378906 485.9200134277344 13.27999973297119
237.3899993896484 487.1300048828125 8.850000381469727
236.7400054931641 484.510009765625 12.11999988555908
237.2200012207031 486.489990234375 13.52000045776367
236.5899963378906 486.7900085449219 14.22999954223633
236.9499969482422 488.0400085449219 9.640000343322754
237.0800018310547 488.489990234375 7.960000038146973
236.8000030517578 487.6000061035156 13.21000003814697
237.0299987792969 488.4599914550781 10.03999996185303
236.6000061035156 486.8699951171875 11.81999969482422
236.4600067138672 486.3299865722656 13.75
236.6900024414062 487.1600036621094 12.96000003814697
237.1399993896484 488.9100036621094 10.47000026702881
236.8999938964844 488.0400085449219 13.68000030517578
235.8300018310547 483.4200134277344 7.860000133514404
236.1900024414062 484.9200134277344 8.779999732971191
236.1600036621094 484.8099975585938 6.980000019073486
236 484.3399963378906 10.85000038146973
236.4400024414062 485.9700012207031 9.010000228881836
236.1499938964844 484.8699951171875 10.97000026702881
236.5800018310547 486.5299987792969 6.78000020980835
236.3200073242188 485.5899963378906 8.329999923706055
236.3300018310547 485.3999938964844 6.989999771118164
236.5099945068359 486.1900024414062 8.180000305175781
236.4299926757812 485.9200134277344 6.980000019073486
236.4799957275391 486.25 12.14999961853027
236.3399963378906 485.75 11.63000011444092
236.6199951171875 486.7799987792969 7.900000095367432
236.8699951171875 487.6099853515625 7.150000095367432
236.5599975585938 486.6099853515625 10.72000026702881
236.7599945068359 487.2200012207031 8.460000038146973
236.2599945068359 485.3999938964844 10.94999980926514
236.5700073242188 486.3800048828125 7.389999866485596
236.7599945068359 487.1400146484375 6.46999979019165
236.2200012207031 487.8299865722656 12.8100004196167
236.6600036621094 489.489990234375 8.659999847412109
236.4700012207031 488.8999938964844 10.96000003814697
236.3699951171875 488.3299865722656 10.97999954223633
236.5700073242188 489.1600036621094 9.880000114440918
236.6699981689453 489.510009765625 10.64999961853027
235.1900024414062 483.5599975585938 7.409999847412109
235.6100006103516 485.4100036621094 10.97999954223633
235.8000030517578 486.0299987792969 10.76000022888184
235.7799987792969 485.8699951171875 9.210000038146973
235.4799957275391 484.8099975585938 10.94999980926514
236.0899963378906 487.239990234375 8.430000305175781
235.5500030517578 485.0599975585938 8.119999885559082
235.4799957275391 484.6000061035156 7.78000020980835
235.3099975585938 484 7.639999866485596
235.9299926757812 486.3900146484375 7.349999904632568
236.3600006103516 488.3500061035156 8.720000267028809
235.6699981689453 485.4800109863281 8.470000267028809
236.2200012207031 487.7799987792969 8.609999656677246
236.3000030517578 488.0499877929688 7.639999866485596
236.0899963378906 487.0199890136719 7.110000133514404
235.8699951171875 486.3500061035156 11.69999980926514
235.9799957275391 486.6700134277344 8.409999847412109
236.0099945068359 487.0799865722656 13.3100004196167
235.9100036621094 488.760009765625 10.96000003814697
235.9400024414062 488.739990234375 8.960000038146973
235.5200042724609 487.0499877929688 10.93000030517578
236.1300048828125 489.5499877929688 9.960000038146973
235.5599975585938 487.25 12.31999969482422
236.0700073242188 489.2699890136719 11.05000019073486
235.9799957275391 489.0199890136719 10.01000022888184
235.6799926757812 487.7699890136719 12.52999973297119
234.9700012207031 484.6499938964844 7.440000057220459
234.8399963378906 484.3599853515625 8.550000190734863
235.1600036621094 485.6300048828125 8.109999656677246
235.1000061035156 485.4200134277344 10.75
235.25 485.9500122070312 8.789999961853027
235.0899963378906 485.1700134277344 7.690000057220459
235.2599945068359 486.010009765625 10.64000034332275
235.3200073242188 486.3999938964844 11.28999996185303
234.7799987792969 484 7.590000152587891
235.5099945068359 486.8500061035156 7.510000228881836
235.4199981689453 486.6099853515625 8.390000343322754
235.1699981689453 488.1300048828125 9.010000228881836
235.4499969482422 489.2699890136719 11.28999996185303
235.3200073242188 488.8299865722656 10.76000022888184
235.3000030517578 488.6600036621094 9.130000114440918
235.0500030517578 487.8500061035156 12.21000003814697
235.5500030517578 489.6199951171875 9.920000076293945
235.5200042724609 489.5899963378906 8.100000381469727
234.3500061035156 484.6499938964844 7.090000152587891
234.5700073242188 485.5799865722656 7.840000152587891
234.4499969482422 485.1499938964844 7.340000152587891
234.7700042724609 486.5 10.77000045776367
234.7400054931641 486.3200073242188 9.25
234.8200073242188 486.739990234375 7.710000038146973
234.9100036621094 487.0799865722656 10.60999965667725
234.6300048828125 485.9100036621094 8.579999923706055
234.8999938964844 487.1900024414062 12.44999980926514
235.0700073242188 487.6400146484375 8.529999732971191
234.9799957275391 487.239990234375 8.180000305175781
234 486.1199951171875 8.220000267028809
233.8300018310547 485.2300109863281 7.230000019073486
234.1100006103516 486.3999938964844 7.119999885559082
234.1000061035156 486.5799865722656 8.579999923706055
234.2299957275391 487.0400085449219 10.88000011444092
234.8600006103516 489.489990234375 8.149999618530273
233.9600067138672 485.7999877929688 7.360000133514404
234.2599945068359 486.9700012207031 7.150000095367432
234.6699981689453 488.7300109863281 8.829999923706055
234.3099975585938 487.2200012207031 8.180000305175781
233.6900024414062 487.260009765625 8.170000076293945
233.4299926757812 486.2000122070312 7.78000020980835
233.3200073242188 485.8500061035156 7.130000114440918
233.5099945068359 486.6499938964844 8.180000305175781
233.9499969482422 488.3299865722656 8.430000305175781
234.0200042724609 488.8099975585938 8.930000305175781
233.1499938964844 487.2999877929688 8.039999961853027
233.0200042724609 486.8800048828125 7.510000228881836
233.1699981689453 487.489990234375 7.349999904632568
232.9400024414062 486.3999938964844 7.420000076293945
232.3899993896484 486.7999877929688 7.429999828338623
238.8999938964844 490.5899963378906 10.92000007629395
238.1600036621094 490.1900024414062 12.18000030517578
238.1000061035156 489.989990234375 10.64000034332275
238.2299957275391 490.6099853515625 10.73999977111816
237.5099945068359 490.3900146484375 11.39999961853027
236.9799957275391 490.6900024414062 8.359999656677246
236.8800048828125 490.260009765625 7.800000190734863
236.7700042724609 490.1000061035156 10.5600004196167
236.3300018310547 490.239990234375 9.710000038146973
236.5099945068359 490.9500122070312 9.310000419616699
235.6999969482422 490.1300048828125 7.96999979019165
236.5 490.8399963378906 7.519999980926514
235.8899993896484 491.1799926757812 10.25
235.7599945068359 490.6000061035156 10.23999977111816
235 490.1000061035156 8.020000457763672
235.6799926757812 490.1700134277344 9.869999885559082
235.2899932861328 491.2900085449219 7.829999923706055
234.3999938964844 490.1700134277344 8.350000381469727
234.7200012207031 491.3999938964844 7.739999771118164
234.5500030517578 490.760009765625 8.119999885559082
233.8899993896484 490.4100036621094 8.979999542236328
234.1600036621094 491.4100036621094 7.289999961853027
233.8000030517578 490.0299987792969 8.319999694824219
239.9600067138672 489.010009765625 7.949999809265137
238.9700012207031 489.6700134277344 10.35000038146973
239.0800018310547 489.25 10.72999954223633
239.1699981689453 488.9500122070312 9.869999885559082
239.6600036621094 487.4599914550781 7.170000076293945
239.6900024414062 486.9400024414062 9.170000076293945
239.3300018310547 487.989990234375 12.27000045776367
239.6199951171875 487.4100036621094 8.670000076293945
239.5399932861328 487.8500061035156 8.229999542236328
239.7799987792969 486.9100036621094 7.110000133514404
239.6799926757812 486.9299926757812 10.69999980926514
239.4799957275391 487.3599853515625 12.07999992370605
239.3099975585938 488.3599853515625 9.779999732971191
239.25 488.8999938964844 8.010000228881836
239.3500061035156 488.4700012207031 8.289999961853027
239.7899932861328 486.2999877929688 10.72999954223633
239.6999969482422 486.6199951171875 11.72000026702881
238.3000030517578 489.4200134277344 7.820000171661377
238.1000061035156 489.5799865722656 11.94999980926514
238.8399963378906 487.4700012207031 7.360000133514404
238.4900054931641 488.75 7.619999885559082
238.1300048828125 489.7999877929688 10.6899995803833
238.7899932861328 487.2300109863281 10.21000003814697
238.4299926757812 488.3999938964844 11.9399995803833
238.7899932861328 486.9800109863281 11.4399995803833
239.0200042724609 486.1900024414062 10.80000019073486
239.1199951171875 485.7300109863281 11.15999984741211
238.5 487.9100036621094 12.35999965667725
238.9600067138672 486.9500122070312 7.53000020980835
238.7799987792969 487.3800048828125 8.979999542236328
238.8999938964844 486.7999877929688 8.909999847412109
238.3800048828125 488.6400146484375 10.96000003814697
238.8999938964844 486.2900085449219 12.89999961853027
237.5700073242188 489.1199951171875 8.850000381469727
237.5800018310547 489.3099975585938 7.78000020980835
237.7899932861328 487.9800109863281 10.78999996185303
237.4900054931641 489.1400146484375 10.73999977111816
237.3699951171875 489.6400146484375 10.47999954223633
237.5800018310547 488.7799987792969 11.30000019073486
237.4199981689453 489.6799926757812 8.850000381469727
237.9100036621094 487.4299926757812 10.6899995803833
238 487.3500061035156 8.890000343322754
237.7599945068359 487.4700012207031 14.43000030517578
238.3300018310547 485.9100036621094 9.75
238.1799926757812 486.3099975585938 11.01000022888184
237.9100036621094 487.0599975585938 13.19999980926514
237.8899993896484 486.9299926757812 14.63000011444092
238.1699981689453 486.7200012207031 8.630000114440918
238.1100006103516 486.739990234375 10.64999961853027
238.5 485.239990234375 9.539999961853027
238.3200073242188 486.5599975585938 6.480000019073486
237.8899993896484 487.260009765625 12.27999973297119
238.0299987792969 486.4599914550781 14.9399995803833
237.9799957275391 487.7099914550781 8
238.1600036621094 486.9100036621094 7.599999904632568
238.0899963378906 486.3800048828125 12.89999961853027
236.6999969482422 489.6499938964844 10.5600004196167
237 488.6499938964844 9.319999694824219
236.7799987792969 489.6300048828125 8.569999694824219
236.8899993896484 489.1199951171875 8.939999580383301
236.8800048828125 488.6499938964844 11.14000034332275
237.3600006103516 487.0499877929688 10
237.3500061035156 487.2200012207031 8.720000267028809
237.5700073242188 486.5599975585938 6.71999979019165
237.7400054931641 485.9700012207031 6.78000020980835
237.1300048828125 487.7799987792969 10.30000019073486
237.0700073242188 488.239990234375 9.899999618530273
237.6600036621094 485.9200134277344 8.5
237.1000061035156 487.6600036621094 11.92000007629395
237.0899963378906 487.5499877929688 13.43000030517578
237.3600006103516 486.4599914550781 13.52999973297119
237.1799926757812 487.1900024414062 14
237.2899932861328 486.760009765625 12.80000019073486
237.8600006103516 485.4599914550781 7.050000190734863
237.9100036621094 484.3900146484375 12.63000011444092
237.7700042724609 484.9200134277344 12.32999992370605
237.4799957275391 486.6300048828125 8.720000267028809
237.7400054931641 485.4200134277344 10.4399995803833
237.6900024414062 485.4200134277344 12.09000015258789
237.4799957275391 485.9500122070312 13.75
237.5700073242188 485.989990234375 10.38000011444092
237.1600036621094 486.9400024414062 14.96000003814697
237.4199981689453 487.2999877929688 7.019999980926514
237.3099975585938 486.989990234375 11.61999988555908
236.6300048828125 486.7099914550781 10.69999980926514
236.9799957275391 485.9299926757812 6.75
236.6600036621094 486.4500122070312 11.76000022888184
236.4900054931641 486.8999938964844 13.09000015258789
236.5200042724609 487.0199890136719 11.56999969482422
236.6900024414062 485.9599914550781 13.93000030517578
237.1300048828125 485.0799865722656 9.319999694824219
237.3399963378906 484.0400085449219 9.819999694824219
237.0399932861328 484.8399963378906 12.26000022888184
237.2700042724609 484.4200134277344 9.300000190734863
236.3899993896484 487.4299926757812 12.88000011444092
236.8899993896484 485.2200012207031 13.42000007629395
237.1399993896484 484.3399963378906 12.56999969482422
236.8600006103516 485.5 12.5
236.5399932861328 486.6000061035156 13.9399995803833
236 489.1900024414062 10.97999954223633
236.1300048828125 489.010009765625 8.819999694824219
236.1300048828125 488.8200073242188 9.869999885559082
236.4600067138672 487.7099914550781 8.449999809265137
236.6100006103516 487.1499938964844 8.489999771118164
236.3200073242188 488.4299926757812 8.670000076293945
236.4400024414062 488.0499877929688 7.650000095367432
236.7700042724609 486.7000122070312 7.150000095367432
236.0099945068359 489.5400085449219 8.600000381469727
236.6799926757812 487.1300048828125 6.679999828338623
236.2899932861328 487.9299926757812 12.67000007629395
235.9900054931641 489.3900146484375 9.920000076293945
236.8200073242188 486.4700012207031 8.270000457763672
236.1699981689453 488.5299987792969 11
236.2799987792969 488.6600036621094 7.760000228881836
235.2299957275391 489.3999938964844 8.199999809265137
235.3699951171875 488.9599914550781 8.729999542236328
235.4199981689453 488.510009765625 9.220000267028809
235.1600036621094 489.3999938964844 10.05000019073486
235.5599975585938 488.1199951171875 8.020000457763672
235.5599975585938 487.5400085449219 11.75
235.2400054931641 489.1400146484375 11
235.1000061035156 489.8399963378906 9.609999656677246
235.9499969482422 486.6799926757812 7.269999980926514
235.4400024414062 488.1600036621094 11.75
235.6900024414062 487.1700134277344 10.63000011444092
235.4799957275391 487.760009765625 12.5
235.6799926757812 487.1499938964844 12.30000019073486
235.8999938964844 486.2900085449219 11.52000045776367
236.4700012207031 484.3299865722656 9.050000190734863
236.3000030517578 485.3299865722656 6.789999961853027
236.1600036621094 485.7900085449219 8.220000267028809
236.2799987792969 484.9700012207031 10.86999988555908
236.1900024414062 485.5 9.069999694824219
236.3800048828125 484.3599853515625 10.98999977111816
236.0899963378906 485.5299987792969 10.81999969482422
236.5700073242188 483.8599853515625 9.380000114440918
234.5500030517578 489.2699890136719 7.75
234.8600006103516 487.7900085449219 8.590000152587891
234.4700012207031 489.6000061035156 7.050000190734863
234.9600067138672 487.3200073242188 9.050000190734863
235.1199951171875 486.8800048828125 7.769999980926514
234.6100006103516 488.9100036621094 8.340000152587891
235.3300018310547 486.010009765625 8.560000419616699
234.7899932861328 487.7799987792969 10.38000011444092
235.2299957275391 486.4200134277344 8.029999732971191
235.3500061035156 485.510009765625 10.73999977111816
235.3999938964844 485.5599975585938 8.970000267028809
235.5500030517578 485.2099914550781 7.949999809265137
235.2400054931641 486.1099853515625 10.60999965667725
234.9199981689453 487.260009765625 10.52999973297119
235.8600006103516 483.9800109863281 7.789999961853027
235.9600067138672 483.4400024414062 8.050000190734863
235.75 484.5299987792969 7.730000019073486
235.0500030517578 487.0199890136719 9.729999542236328
235.0599975585938 486.6799926757812 10.64999961853027
235.4700012207031 484.989990234375 10.77000045776367
234.0200042724609 488.3699951171875 8.850000381469727
234.3999938964844 486.9800109863281 8.409999847412109
234.5 486.6499938964844 7.340000152587891
234.6199951171875 486.1700134277344 7.710000038146973
234.2400054931641 487.1799926757812 10.75
234.3600006103516 486.7200012207031 11.07999992370605
234.6399993896484 485.9500122070312 8.689999580383301
235.0500030517578 484.4599914550781 7.619999885559082
234.8999938964844 484.989990234375 7.559999942779541
235.2299957275391 483.739990234375 7.329999923706055
235.1699981689453 483.9299926757812 7.96999979019165
235.3399963378906 483.2999877929688 7.730000019073486
233.5899963378906 487.2999877929688 7.610000133514404
233.8099975585938 486.3200073242188 8.119999885559082
234.2400054931641 484.7799987792969 7.170000076293945
233.6699981689453 486.7999877929688 7.929999828338623
234.0299987792969 485.4299926757812 7.25
234.1100006103516 485.1400146484375 8.260000228881836
232.7899932861328 487.1199951171875 7.599999904632568
233.1900024414062 485.4400024414062 7.579999923706055
233.0899963378906 485.8699951171875 7.269999980926514
232.9400024414062 486.5199890136719 7.429999828338623
238.7799987792969 490.4800109863281 10.96000003814697
238 490.6000061035156 7.960000038146973
237.9900054931641 490.2000122070312 11.90999984741211
237.9799957275391 490.2900085449219 10.48999977111816
237.4100036621094 490.010009765625 8.069999694824219
237.3500061035156 489.9500122070312 9.720000267028809
237.2299957275391 490.6000061035156 8.119999885559082
236.4600067138672 490.9500122070312 7.309999942779541
238.1499938964844 489.989990234375 7.929999828338623
236.6100006103516 490.0799865722656 9.949999809265137
236.6399993896484 490.0700073242188 8.239999771118164
236.5399932861328 490.4100036621094 9.319999694824219
235.5700073242188 491.1600036621094 10.10000038146973
235.8500061035156 490.3900146484375 7.760000228881836
235.6799926757812 490.8399963378906 9.210000038146973
235.8300018310547 490.0199890136719 10.05000019073486
235.7400054931641 490.5599975585938 10.02000045776367
236.5599975585938 490.4800109863281 7.789999961853027
236.3699951171875 491.010009765625 9.300000190734863
234.7200012207031 491.5599975585938 7.570000171661377
236.25 491.3299865722656 10.27000045776367
234.9799957275391 490.4700012207031 7.880000114440918
234.8800048828125 491.0499877929688 7.880000114440918
235.1100006103516 489.9299926757812 7.929999828338623
234.0099945068359 491.4200134277344 7.300000190734863
234.3500061035156 490.0400085449219 8.289999961853027
234.8699951171875 490.7699890136719 8.800000190734863
234.1399993896484 490.6799926757812 8.569999694824219
233.6300048828125 490.1199951171875 8.630000114440918
239.9600067138672 488.6099853515625 8.020000457763672
239.8099975585938 489.1400146484375 8.050000190734863
239.7899932861328 487.3800048828125 12.22000026702881
239.5299987792969 487.7799987792969 7.260000228881836
239.6900024414062 487.2699890136719 9.020000457763672
239.5700073242188 487.8200073242188 8.720000267028809
239.3000030517578 488.8299865722656 8.229999542236328
239.6399993896484 487.260009765625 7.309999942779541
239.3099975585938 488.8699951171875 9.770000457763672
239.1799926757812 489.4500122070312 10.36999988555908
239.6100006103516 487.8800048828125 10.02000045776367
239.9900054931641 486.260009765625 10.81999969482422
239.3999938964844 488.3299865722656 8.140000343322754
239.4600067138672 488.3500061035156 9.819999694824219
239.3899993896484 486.0899963378906 10.68000030517578
239.1699981689453 487.1300048828125 11.60999965667725
239.2700042724609 486.6300048828125 11.47000026702881
238.8500061035156 488.1900024414062 10
238.6799926757812 488.6799926757812 8.529999732971191
238.5399932861328 489.1400146484375 7.5
238.6100006103516 489.2200012207031 10.92000007629395
238.8399963378906 488.1600036621094 8.699999809265137
239.1000061035156 487.0499877929688 9.060000419616699
238.9499969482422 487.6300048828125 7.46999979019165
239.0200042724609 487.7099914550781 12.11999988555908
238.7799987792969 488.1600036621094 7.420000076293945
238.6199951171875 489.2699890136719 11.96000003814697
239 487.6799926757812 9.840000152587891
238.6600036621094 486.3800048828125 12.78999996185303
238.7200012207031 485.7699890136719 9.539999961853027
238.4299926757812 486.739990234375 6.619999885559082
238.7799987792969 485.7799987792969 10.84000015258789
238.8800048828125 485.2699890136719 9.5
238.3500061035156 487.3399963378906 9.159999847412109
238.4199981689453 487.4100036621094 11.97999954223633
238.6300048828125 486.3099975585938 11.10999965667725
238.3600006103516 487.3399963378906 10.10999965667725
238.5 486.8500061035156 11.25
238.3200073242188 487.2900085449219 7.429999828338623
238.1600036621094 487.8399963378906 8.010000228881836
238.4499969482422 486.7799987792969 8.800000190734863
238.5200042724609 486.9100036621094 12.48999977111816
237.9900054931641 488.9100036621094 11.51000022888184
238.2700042724609 487.9299926757812 12.1899995803833
237.8800048828125 489.489990234375 11.96000003814697
237.9400024414062 488.8599853515625 8.159999847412109
238.1100006103516 488.4200134277344 10.82999992370605
238.1900024414062 485.489990234375 9.640000343322754
237.9900054931641 486.6400146484375 14.27999973297119
238.0299987792969 486.0700073242188 10.59000015258789
237.8300018310547 487.2200012207031 13.59000015258789
237.8699951171875 487.2099914550781 14.93000030517578
237.8999938964844 486.5199890136719 8.640000343322754
238.2299957275391 485.5299987792969 12.10000038146973
237.6799926757812 487.0299987792969 6.739999771118164
237.9900054931641 485.9599914550781 6.699999809265137
238.1100006103516 486.1199951171875 12.35999965667725
237.5399932861328 488.239990234375 11.34000015258789
237.6600036621094 487.6400146484375 10.52000045776367
237.7299957275391 487.0899963378906 8.949999809265137
237.5800018310547 487.6000061035156 8.270000457763672
237.7200012207031 487.0199890136719 7.789999961853027
237.8300018310547 486.4299926757812 6.650000095367432
237.9199981689453 486.5400085449219 10.68000030517578
237.8000030517578 487.1700134277344 12.10000038146973
237.1100006103516 489.6900024414062 9.829999923706055
237.9799957275391 486.5899963378906 12.6899995803833
237.4199981689453 488.7200012207031 11.57999992370605
237.1000061035156 489.6700134277344 8.199999809265137
237.5899963378906 487.5599975585938 6.800000190734863
237.2799987792969 489.239990234375 12.10999965667725
237.25 489.2200012207031 10.73999977111816
237.3699951171875 488.7300109863281 10.97000026702881
237.3600006103516 488.7000122070312 10.27000045776367
237.75 484.7799987792969 9.659999847412109
237.7700042724609 484.8500061035156 12.36999988555908
237.5399932861328 485.9200134277344 13.82999992370605
237.6399993896484 485.3399963378906 12.14000034332275
237.3999938964844 486.3800048828125 12.98999977111816
237.2599945068359 486.9200134277344 12.42000007629395
237.4299926757812 486.4299926757812 14.34000015258789
237.6100006103516 485.25 10.02000045776367
237.0599975585938 487.2799987792969 8.550000190734863
237.6799926757812 485.3500061035156 13.77000045776367
237.3899993896484 486.3099975585938 10.43000030517578
237.9299926757812 484.3200073242188 12.47999954223633
237.3500061035156 486.2699890136719 8.710000038146973
236.9799957275391 487.9299926757812 11.86999988555908
236.9900054931641 487.9299926757812 10.61999988555908
236.8500061035156 488.4100036621094 11.1899995803833
236.7899932861328 488.3399963378906 8.689999580383301
237.3000030517578 486.989990234375 15
237.2100067138672 486.8800048828125 10.67000007629395
236.6799926757812 488.9200134277344 9.859999656677246
236.5599975585938 489.4700012207031 10.53999996185303
237.1699981689453 487.4299926757812 13.77000045776367
237.2899932861328 486.9400024414062 13.84000015258789
236.8699951171875 487.7799987792969 4.889999866485596
237.3000030517578 486.1900024414062 6.659999847412109
237.5899963378906 485.2000122070312 8.329999923706055
236.8500061035156 488.3999938964844 9.909999847412109
237.5099945068359 485.8200073242188 10.27999973297119
237.0200042724609 487.9800109863281 13.64000034332275
237.1199951171875 487.4100036621094 12.03999996185303
236.9600067138672 487.8900146484375 9.880000114440918
237.1199951171875 484.4500122070312 9.170000076293945
237.1999969482422 484.5400085449219 12.30000019073486
237.0700073242188 485.0299987792969 12.34000015258789
237.0700073242188 485.0899963378906 13.39000034332275
236.6799926757812 486.6499938964844 12.5600004196167
236.7799987792969 486.1799926757812 13.14000034332275
236.6399993896484 486.6000061035156 10.72999954223633
236.9900054931641 484.9500122070312 9.289999961853027
236.7100067138672 486.6900024414062 14.07999992370605
236.5599975585938 486.5 7
236.5500030517578 486.5499877929688 8.090000152587891
236.5299987792969 487.2000122070312 12.98999977111816
236.8999938964844 485.5599975585938 11.44999980926514
237.2400054931641 483.9299926757812 9.220000267028809
236.3899993896484 487.0700073242188 6.869999885559082
236.1799926757812 488.2099914550781 9.600000381469727
236.2200012207031 488.25 11.48999977111816
236.3699951171875 487.7799987792969 12.82999992370605
236.0299987792969 488.739990234375 8.949999809265137
235.7599945068359 489.7300109863281 8.210000038146973
236.9299926757812 485.5899963378906 12.81999969482422
235.8899993896484 489.2099914550781 8.380000114440918
236.1100006103516 488.7900085449219 10.85000038146973
236.6900024414062 486.010009765625 6.880000114440918
236.4700012207031 487.1000061035156 8.439999580383301
235.9600067138672 489.260009765625 10.89999961853027
236.1600036621094 488.1700134277344 8.600000381469727
236.3200073242188 487.6499938964844 8.520000457763672
235.9600067138672 489.2300109863281 9.979999542236328
236.6000061035156 483.6700134277344 9.470000267028809
236.3300018310547 484.7900085449219 10.85000038146973
236.4799957275391 484.2699890136719 11.01000022888184
236.25 484.6799926757812 7.070000171661377
236.3999938964844 484.8299865722656 12.18000030517578
236.1300048828125 485.7999877929688 11.97999954223633
236.0800018310547 485.75 9.010000228881836
235.9100036621094 486.2300109863281 7.400000095367432
236.1999969482422 485.3099975585938 10.76000022888184
236.3000030517578 484.7000122070312 8.939999580383301
236.0500030517578 485.7300109863281 8.010000228881836
235.4900054931641 487.7999877929688 7.849999904632568
236.1799926757812 485.25 9.489999771118164
236.1399993896484 485.1900024414062 7.409999847412109
235.8699951171875 486.8900146484375 13.39999961853027
235.3800048828125 488.3599853515625 8.739999771118164
235.8699951171875 486.8699951171875 12.07999992370605
235.9600067138672 486.3399963378906 11.52000045776367
235.2599945068359 488.8500061035156 8.779999732971191
235.3000030517578 488.8999938964844 10.98999977111816
236.1000061035156 485.7799987792969 10.73999977111816
235.6199951171875 487.9500122070312 12.43000030517578
235.0399932861328 487.7099914550781 12.22000026702881
235.6999969482422 487.3999938964844 11.84000015258789
234.9199981689453 487.6199951171875 8.5
235.0800018310547 489.4200134277344 7.929999828338623
235.4799957275391 488.4700012207031 11.93000030517578
235.1600036621094 489.4500122070312 10.07999992370605
235 487.6600036621094 10.39000034332275
234.8200073242188 488.1900024414062 10.27000045776367
234.5599975585938 489.1400146484375 7.880000114440918
235.4199981689453 488.3999938964844 10.81999969482422
234.8099975585938 488.1199951171875 8.939999580383301
234.3899993896484 489.6700134277344 7.929999828338623
234.7799987792969 488.1400146484375 8.060000419616699
234.6999969482422 488.6900024414062 8.800000190734863
235.2200012207031 484.260009765625 7.940000057220459
235.3399963378906 483.6799926757812 7.510000228881836
234.9600067138672 485.2200012207031 7.579999923706055
235.8800048828125 483.8399963378906 7.860000133514404
235.7799987792969 484.4299926757812 10.57999992370605
235.0599975585938 484.7300109863281 7.590000152587891
235.5200042724609 485.510009765625 10.89000034332275
235.5 483.1400146484375 7.690000057220459
235.7400054931641 484.3599853515625 7.590000152587891
235.3600006103516 485.9800109863281 8.699999809265137
235.2700042724609 486.5499877929688 10.42000007629395
235.4199981689453 486.0599975585938 11.15999984741211
235.0899963378906 487.0299987792969 7.869999885559082
235.2100067138672 486.4599914550781 7.610000133514404
235.4799957275391 485.4500122070312 8.899999618530273
235.1699981689453 487.1300048828125 12.31999969482422
235.6100006103516 484.8599853515625 8.369999885559082
235.9100036621094 483.9400024414062 10.88000011444092
234.8500061035156 485.8099975585938 8.539999961853027
234.6799926757812 486.2900085449219 7.849999904632568
234.5899963378906 486.9200134277344 10.76000022888184
234.7799987792969 486.3599853515625 10.94999980926514
234.5200042724609 486.8299865722656 7.329999923706055
234.4100036621094 487.3500061035156 8.210000038146973
233.8899993896484 489.4700012207031 8.699999809265137
234.2799987792969 487.9200134277344 8.489999771118164
234.1900024414062 488.3900146484375 8.720000267028809
235.6900024414062 484.9700012207031 10.96000003814697
234.4799957275391 484.4400024414062 7.139999866485596
234.3600006103516 484.9700012207031 7.380000114440918
234.6300048828125 484 7.679999828338623
234.0399932861328 486.1000061035156 7.190000057220459
234.0800018310547 486.1000061035156 8.479999542236328
233.8399963378906 487.1700134277344 8.180000305175781
233.9900054931641 486.6300048828125 8.609999656677246
233.7799987792969 487.1600036621094 7.190000057220459
234.2299957275391 485.5 7.630000114440918
233.5700073242188 488.2900085449219 8.699999809265137
233.2700042724609 486.3200073242188 7.489999771118164
233.3899993896484 485.7799987792969 7.099999904632568
233.2599945068359 486.3500061035156 8.310000419616699
233.1100006103516 486.8399963378906 7.579999923706055
232.5099945068359 486.5899963378906 7.400000095367432
232.9499969482422 484.9500122070312 7.619999885559082
238.9400024414062 490.4800109863281 10.86999988555908
238.5299987792969 489.8200073242188 12.23999977111816
238.3699951171875 490.239990234375 10.75
238.1799926757812 490.760009765625 8.100000381469727
238.4900054931641 489.75 10.60999965667725
237.4900054931641 490.4700012207031 7.769999980926514
237.7200012207031 490.010009765625 10.31999969482422
236.9600067138672 490.1799926757812 7.78000020980835
237.7400054931641 490.0400085449219 11.52999973297119
236.6799926757812 491.239990234375 8.630000114440918
237.1199951171875 489.739990234375 10.94999980926514
237.6600036621094 489.9400024414062 8.350000381469727
236.8300018310547 490.7200012207031 8.039999961853027
236.6600036621094 491.2099914550781 7.400000095367432
236.3800048828125 489.9700012207031 8.520000457763672
236.4100036621094 490 9.720000267028809
236.2799987792969 490.4800109863281 9.460000038146973
236.1699981689453 491.0499877929688 10.13000011444092
236.2400054931641 490.4400024414062 7.820000171661377
235.6499938964844 490.1900024414062 7.820000171661377
235.7100067138672 490.2799987792969 10
235.3699951171875 491.25 7.760000228881836
235 489.9599914550781 8.159999847412109
235.5599975585938 490.7999877929688 9.859999656677246
234.6900024414062 490.9800109863281 7.920000076293945
234.5399932861328 491.5299987792969 7.5
234.8699951171875 490.489990234375 8.329999923706055
235.25 491.7999877929688 7.940000057220459
234.1399993896484 490.7200012207031 8.609999656677246
233.75 490 8.409999847412109
234.3000030517578 490.1499938964844 8.329999923706055
239.9600067138672 489.0700073242188 8.090000152587891
240.1000061035156 488.5799865722656 7.860000133514404
239.0099945068359 489.4800109863281 10.55000019073486
239.4799957275391 487.3399963378906 12.09000015258789
239.3000030517578 488.5199890136719 9.779999732971191
239.4299926757812 487.9800109863281 9.739999771118164
239.5399932861328 487.6700134277344 8.770000457763672
239.6300048828125 486.8699951171875 11.73999977111816
239.7599945068359 486.489990234375 10.86999988555908
239.3399963378906 487.8800048828125 12.26000022888184
239.6699981689453 487.2999877929688 7.860000133514404
239.5099945068359 488 7.579999923706055
239.7899932861328 486.9800109863281 7.119999885559082
239.8800048828125 486.010009765625 10.68000030517578
239.2400054931641 488.8200073242188 8.760000228881836
239.3699951171875 488.3900146484375 8.229999542236328
239.7100067138672 486.9800109863281 9.060000419616699
239.6199951171875 487.5299987792969 7.170000076293945
238.3000030517578 489.5400085449219 11.88000011444092
238.6199951171875 488.239990234375 12.43000030517578
238.6999969482422 487.9800109863281 11.14000034332275
238.8099975585938 487.6900024414062 10.15999984741211
238.8500061035156 487.25 11.80000019073486
238.9799957275391 486.7999877929688 11.52000045776367
239.0399932861328 486.8900146484375 9.050000190734863
239.0899963378906 486.4299926757812 10.85000038146973
238.7100067138672 488.4700012207031 7.400000095367432
238.5599975585938 488.7000122070312 10.59000015258789
238.7599945068359 488.0799865722656 8.729999542236328
238.7599945068359 487.7200012207031 12.25
238.6199951171875 488.6600036621094 8.640000343322754
239.1300048828125 486.7900085449219 7.489999771118164
239.2100067138672 485.9500122070312 10.6899995803833
238.4400024414062 489.1700134277344 11.23999977111816
237.8399963378906 489.1199951171875 11
238.2200012207031 487.010009765625 14.5600004196167
237.8399963378906 488.9299926757812 11.68000030517578
237.9799957275391 488.5599975585938 11.17000007629395
238.0200042724609 488.7000122070312 8.350000381469727
238.2299957275391 487.6099853515625 10.44999980926514
238.1600036621094 487.6099853515625 12.39000034332275
238.5399932861328 486.3200073242188 11.10999965667725
238.3200073242188 487.2999877929688 9.510000228881836
237.6900024414062 489.5 11.80000019073486
238.4299926757812 487.3099975585938 7.420000076293945
238.3999938964844 486.4800109863281 12.63000011444092
238.4700012207031 486.8800048828125 8.939999580383301
238.5299987792969 486.9100036621094 6.579999923706055
238.6699981689453 485.8200073242188 10.60999965667725
238.3000030517578 487.7000122070312 8.039999961853027
238.5599975585938 486.6199951171875 7.650000095367432
238.3200073242188 486.8900146484375 13.15999984741211
238.7799987792969 485.5799865722656 9.640000343322754
238.1199951171875 488.0899963378906 10.76000022888184
238.6600036621094 486.3800048828125 6.570000171661377
238.5500030517578 485.9100036621094 12.5600004196167
238.8899993896484 484.989990234375 9.539999961853027
238.7100067138672 485.8200073242188 8.739999771118164
237.0599975585938 489.5700073242188 10.92000007629395
237.4600067138672 487.3800048828125 14.77000045776367
237.1499938964844 489.8299865722656 8.029999732971191
237.7599945068359 486.510009765625 13.69999980926514
237.3200073242188 488.6600036621094 10.03999996185303
237.6100006103516 486.75 14.84000015258789
237.1999969482422 489.0299987792969 10.81999969482422
237.7799987792969 486.6400146484375 11.10999965667725
237.7700042724609 486.7699890136719 10.64999961853027
237.6600036621094 487.3699951171875 10.5600004196167
237.8500061035156 487.010009765625 7.829999923706055
237.9100036621094 486.2099914550781 10.65999984741211
237.8300018310547 487.2699890136719 6.860000133514404
237.75 486.2200012207031 14.61999988555908
237.9199981689453 486.739990234375 6.699999809265137
237.9299926757812 486.5799865722656 7.360000133514404
237.3800048828125 488.3200073242188 11.22000026702881
238.0500030517578 485.7799987792969 10.22999954223633
237.7200012207031 487.2099914550781 9
238.0099945068359 486.2699890136719 8.590000152587891
237.8600006103516 485.8200073242188 14.23999977111816
237.8500061035156 486.2099914550781 12.71000003814697
238.1399993896484 485.4100036621094 9.600000381469727
237.9499969482422 485.8099975585938 12.11999988555908
238.0800018310547 486.2799987792969 6.449999809265137
237.8399963378906 486.760009765625 8.760000228881836
237.0099945068359 487.0199890136719 9.579999923706055
237.1199951171875 486.7200012207031 8.739999771118164
237.1199951171875 487.1199951171875 7.28000020980835
237.2899932861328 486.1300048828125 8.569999694824219
237.4499969482422 485.239990234375 9.739999771118164
237.5399932861328 484.5400085449219 12.36999988555908
237.5299987792969 485.4800109863281 6.809999942779541
237.7100067138672 484.5899963378906 8.010000228881836
237.2200012207031 486.5799865722656 6.900000095367432
237.6000061035156 484.7000122070312 9.640000343322754
238.2200012207031 485.5899963378906 6.789999961853027
237.3399963378906 485.8099975585938 9.930000305175781
237.5399932861328 485.1300048828125 8.069999694824219
237.2400054931641 485.5799865722656 12.89999961853027
237.3899993896484 484.989990234375 12.97000026702881
237.3800048828125 486.0499877929688 6.78000020980835
236.8399963378906 487.1700134277344 13.10000038146973
236.7599945068359 488.0799865722656 9.770000457763672
236.3600006103516 489.6400146484375 10.27999973297119
236.9799957275391 486.8200073242188 12.27999973297119
236.7200012207031 488.3599853515625 8.729999542236328
236.8699951171875 487.8299865722656 8.560000419616699
236.6399993896484 488.6600036621094 9.800000190734863
236.4900054931641 489.2000122070312 9.770000457763672
236.7400054931641 487.7200012207031 13.1899995803833
236.6600036621094 488.2000122070312 11.32999992370605
237.0800018310547 486.7999877929688 10.40999984741211
237.0200042724609 486.4599914550781 13.61999988555908
237.1699981689453 485.8800048828125 13.72000026702881
236.8300018310547 488.0499877929688 7.769999980926514
237.0800018310547 486.3900146484375 11.92000007629395
235.7200012207031 489.3800048828125 11.02999973297119
235.9600067138672 488.7799987792969 9.029999732971191
236.0700073242188 487.7699890136719 12.72000026702881
236.2400054931641 487.7099914550781 8.649999618530273
236.4600067138672 486.510009765625 10.8100004196167
236.3200073242188 486.8999938964844 11.63000011444092
235.7899932861328 489.4800109863281 8.369999885559082
236.2200012207031 487.9700012207031 7.760000228881836
235.8600006103516 488.8099975585938 10.84000015258789
236.7700042724609 485.0799865722656 12.15999984741211
236.6100006103516 485.7099914550781 11.81999969482422
236.4900054931641 486.2699890136719 11.77000045776367
236.5899963378906 486.489990234375 6.889999866485596
236.7400054931641 486.0499877929688 6.639999866485596
236.4799957275391 486.7000122070312 8.25
236.3999938964844 486.3599853515625 13.76000022888184
236.4600067138672 486.9700012207031 7.139999866485596
236.9100036621094 485.1900024414062 7.699999809265137
236.8699951171875 484.5 12.27999973297119
237.0899963378906 484.239990234375 9.109999656677246
236.2400054931641 486.9700012207031 13.47999954223633
236.9499969482422 484.7300109863281 9.319999694824219
236.3600006103516 487.1499938964844 8.449999809265137
235.3300018310547 488.4400024414062 12
235.1300048828125 489.239990234375 11.06999969482422
235.1300048828125 489.510009765625 9.930000305175781
235.8699951171875 486.2699890136719 11.60000038146973
235.1499938964844 489.7799987792969 7.03000020980835
235.7200012207031 486.7200012207031 12.05000019073486
235.3800048828125 488.7099914550781 8.979999542236328
235.6999969482422 487.1000061035156 10.65999984741211
237.2200012207031 483.760009765625 8.890000343322754
236.0299987792969 485.9200134277344 8.970000267028809
235.1799926757812 489.5 8.050000190734863
235.6199951171875 487.239990234375 12.26000022888184
236.0299987792969 486.3299865722656 7.380000114440918
235.9600067138672 485.9100036621094 10.82999992370605
235.5800018310547 487.8999938964844 7.769999980926514
236.3200073242188 484.739990234375 8.979999542236328
236.3999938964844 484.739990234375 6.849999904632568
236.1499938964844 485.6300048828125 7.699999809265137
236.2700042724609 484.7999877929688 10.93000030517578
236.1100006103516 485.3999938964844 10.75
236.1900024414062 485.239990234375 9.289999961853027
236.4199981689453 484.2000122070312 10.97000026702881
235.6399993896484 487.4800109863281 9.229999542236328
236.2700042724609 485.239990234375 7.019999980926514
235.4700012207031 487.7900085449219 12.27000045776367
236.4700012207031 484.1000061035156 9.25
235.8399963378906 484.3399963378906 7.710000038146973
235.9799957275391 483.6700134277344 7.889999866485596
234.7599945068359 488.5899963378906 8.590000152587891
234.9499969482422 487.5700073242188 10.39999961853027
234.8099975585938 488.1199951171875 10.34000015258789
234.8699951171875 487.9599914550781 8.810000419616699
235.2400054931641 486.3599853515625 10.42000007629395
235.0500030517578 486.9100036621094 10.65999984741211
235.1399993896484 486.989990234375 8.010000228881836
235.2700042724609 486.5700073242188 7.46999979019165
235.3000030517578 486.2000122070312 8.939999580383301
235.6100006103516 484.6700134277344 10.63000011444092
235.5599975585938 485.2200012207031 8.449999809265137
235.3500061035156 485.6600036621094 10.90999984741211
235.7599945068359 484.1099853515625 10.43000030517578
235.0500030517578 487.4100036621094 8.880000114440918
235.5 485.0899963378906 10.85999965667725
234.5800018310547 489.3500061035156 7.840000152587891
235.6699981689453 484.8599853515625 7.730000019073486
235.4400024414062 485.7000122070312 8.619999885559082
235.5899963378906 484.9200134277344 9.710000038146973
234.0500030517578 488.4200134277344 8.779999732971191
234.3600006103516 486.6400146484375 11.17000007629395
234.8099975585938 485.3599853515625 7.619999885559082
234.9600067138672 484.7999877929688 7.5
234.4400024414062 486.8299865722656 8.380000114440918
234.6699981689453 485.9100036621094 7.769999980926514
234.7400054931641 485.6799926757812 8.609999656677246
234.5800018310547 486.1300048828125 8.760000228881836
235.2299957275391 483.6700134277344 7.510000228881836
233.7299957275391 489.5899963378906 8.479999542236328
235.1000061035156 484.1400146484375 7.800000190734863
235.3800048828125 483.0199890136719 7.78000020980835
