299.8599853515625 497.5400085449219 9.800000190734863
300.8800048828125 497.260009765625 10.39999961853027
300.3999938964844 497.4100036621094 10.11999988555908
299.3500061035156 498.2300109863281 9.350000381469727
300.3200073242188 498 9.949999809265137
300.8699951171875 497.8299865722656 9.970000267028809
299.8699951171875 498.0799865722656 9.609999656677246
300.6300048828125 497.9299926757812 8.859999656677246
301.0199890136719 497.760009765625 13.23999977111816
300.5799865722656 497.8800048828125 12.78999996185303
302.6499938964844 497.4400024414062 10.05000019073486
301.6700134277344 497.6199951171875 13.0600004196167
302.1600036621094 497.5299987792969 9.710000038146973
303.1499938964844 497.2900085449219 10.22999954223633
302.3200073242188 497.489990234375 12.88000011444092
301.7300109863281 497.6600036621094 9.140000343322754
299.989990234375 498.6700134277344 12.47999954223633
299.7000122070312 498.7999877929688 9.539999961853027
300.1799926757812 498.7000122070312 9.970000267028809
300.6000061035156 498.5599975585938 10.5600004196167
304.1400146484375 497.7300109863281 12.3100004196167
300.5 498.5499877929688 12.61999988555908
299.2099914550781 498.9100036621094 9.260000228881836
302.0899963378906 498.2000122070312 13.4399995803833
301.6000061035156 498.3099975585938 13
300.9800109863281 498.4599914550781 13
302.4500122070312 498.1000061035156 14.11999988555908
302.8399963378906 497.989990234375 12.90999984741211
302.1400146484375 498.1900024414062 11.39999961853027
302.9200134277344 497.9599914550781 14.28999996185303
304.0799865722656 497.75 10.64000034332275
303.25 497.9299926757812 13.32999992370605
303.5899963378906 497.8699951171875 12.31999969482422
302.2799987792969 498.8900146484375 14.27000045776367
301.75 498.9700012207031 15.97999954223633
299.7799987792969 499.510009765625 9.579999923706055
301.0700073242188 499.2000122070312 12.84000015258789
300.4800109863281 499.3099975585938 12.60000038146973
300.5 499.3099975585938 10.81999969482422
302.8999938964844 498.7200012207031 14.22000026702881
303.5499877929688 498.5499877929688 14.03999996185303
304.1300048828125 498.4400024414062 12.23999977111816
302.5700073242188 498.7799987792969 15.27000045776367
304.760009765625 498.3200073242188 12.27999973297119
301.2699890136719 499.1199951171875 15.85999965667725
303.8399963378906 498.4800109863281 15.0600004196167
301.1499938964844 499.1199951171875 14.1899995803833
301.8200073242188 498.9800109863281 14.07999992370605
299.989990234375 499.4400024414062 10.6899995803833
304.6199951171875 498.3399963378906 10.71000003814697
300.2799987792969 499.4100036621094 9.649999618530273
299.9299926757812 499.4700012207031 12.56999969482422
300.6499938964844 500.0299987792969 12.40999984741211
301.7099914550781 499.7999877929688 11
300.7099914550781 499.989990234375 13.97000026702881
301.1300048828125 499.8800048828125 12.69999980926514
301.0700073242188 499.9500122070312 11.01000022888184
301.3099975585938 499.8500061035156 14.03999996185303
300.7799987792969 499.9200134277344 15.63000011444092
302.239990234375 499.5899963378906 16.63999938964844
303.8399963378906 499.2300109863281 15.15999984741211
303.260009765625 499.3699951171875 15.19999980926514
302.1000061035156 499.6499938964844 15.35000038146973
301.4100036621094 499.7699890136719 15.60000038146973
304.9599914550781 498.9800109863281 15.4399995803833
302.7999877929688 499.4400024414062 16.72999954223633
304.2099914550781 499.1199951171875 15.73999977111816
303.7000122070312 499.8800048828125 17.57999992370605
303.3800048828125 499.9599914550781 16.57999992370605
306 499.3500061035156 15.88000011444092
305.4299926757812 499.489990234375 15.88000011444092
304.3699951171875 499.739990234375 15.47000026702881
304.8800048828125 499.6099853515625 15.60000038146973
306.3699951171875 499.4500122070312 15.84000015258789
305.3299865722656 499.7099914550781 15.75
304.8800048828125 499.7999877929688 13.68000030517578
304.2699890136719 499.9800109863281 15.65999984741211
304.8599853515625 499.8399963378906 15.4399995803833
305.8699951171875 499.6000061035156 15.92000007629395
302.0299987792969 499.8500061035156 16.63999938964844
301.4700012207031 499.9500122070312 15.48999977111816
304.5899963378906 499.1799926757812 15.44999980926514
303.510009765625 499.4299926757812 15.77999973297119
305.6900024414062 498.8900146484375 13.47000026702881
304.0400085449219 499.3200073242188 15.47000026702881
305.1400146484375 499.0199890136719 15.36999988555908
303.510009765625 499.4400024414062 15.21000003814697
302.489990234375 499.7000122070312 16.48999977111816
303.010009765625 499.5700073242188 15.27999973297119
305.75 498.8500061035156 12.23999977111816
303.0299987792969 499.6000061035156 16.39999961853027
301.2799987792969 499.2999877929688 14.25
299.75 499.7000122070312 11.60999965667725
300.7699890136719 499.4100036621094 12.72000026702881
300.7699890136719 499.4299926757812 13.89000034332275
300.2200012207031 499.5700073242188 12.68000030517578
301.2900085449219 499.3500061035156 15.69999980926514
299.239990234375 499.7999877929688 11.96000003814697
299.7699890136719 499.6400146484375 9.560000419616699
304.010009765625 498.6199951171875 12.3100004196167
305.0299987792969 498.3599853515625 12.06999969482422
304.489990234375 498.4700012207031 12.18000030517578
303.4400024414062 498.7999877929688 15.15999984741211
301.8099975585938 499.2200012207031 15.72000026702881
303.4700012207031 498.7900085449219 13.92000007629395
303.9200134277344 498.6600036621094 14.94999980926514
304.4400024414062 498.510009765625 15.02000045776367
302.3099975585938 499.0700073242188 16.56999969482422
302.8900146484375 498.9100036621094 15.47000026702881
302.3200073242188 499.0799865722656 15.27000045776367
305.1000061035156 498.2900085449219 9.75
304.2900085449219 497.9700012207031 12.3100004196167
301.7300109863281 498.6199951171875 14.22000026702881
302.760009765625 498.3800048828125 14.02999973297119
303.260009765625 498.25 13.17000007629395
303.8099975585938 498.0599975585938 12.39999961853027
301.2000122070312 498.760009765625 12.90999984741211
301.2000122070312 498.760009765625 14.1899995803833
304.3200073242188 497.9400024414062 10.55000019073486
302.2699890136719 498.510009765625 14.26000022888184
300.6799926757812 498.8900146484375 12.64999961853027
299.7200012207031 499.0599975585938 9.460000038146973
300.7200012207031 498.8200073242188 10.81999969482422
304.9299926757812 497.760009765625 10.11999988555908
300.1900024414062 498.9599914550781 10.6899995803833
300.1700134277344 498.989990234375 12.1899995803833
304.3299865722656 497.2699890136719 10.77000045776367
303.7999877929688 497.3599853515625 10.72999954223633
303.260009765625 497.5599975585938 12.25
302.7300109863281 497.6400146484375 9.939999580383301
302.1499938964844 497.8200073242188 12.93000030517578
301.0700073242188 498.0899963378906 13.11999988555908
300.5299987792969 498.2200012207031 12.64000034332275
299.5499877929688 498.4599914550781 9.659999847412109
302.6700134277344 497.6700134277344 12.8100004196167
300.010009765625 498.3699951171875 12.5
300.5799865722656 498.1799926757812 10.51000022888184
300.6000061035156 498.1799926757812 9.619999885559082
303.2699890136719 497.489990234375 10.18000030517578
300.0799865722656 498.3099975585938 9.850000381469727
301.6000061035156 497.9800109863281 13
300.5499877929688 498.260009765625 13.39000034332275
300.4500122070312 497.4500122070312 9.989999771118164
300.9500122070312 497.3699951171875 10.42000007629395
299.9299926757812 497.5899963378906 9.739999771118164
306.5400085449219 499.5599975585938 14.03999996185303
305.2799987792969 499.8500061035156 15.80000019073486
304.6400146484375 500 15.48999977111816
306.4299926757812 499.5700073242188 15.78999996185303
305.9100036621094 499.7099914550781 13.89000034332275
305.9100036621094 499.7699890136719 9.869999885559082
305.4100036621094 499.9100036621094 9.880000114440918
305.9100036621094 499.7099914550781 15.88000011444092
306.1700134277344 499.6799926757812 12.73999977111816
302.4599914550781 499.8900146484375 16.54999923706055
303.3699951171875 499.6499938964844 16.02000045776367
305.4500122070312 499.2200012207031 9.359999656677246
304.3699951171875 499.4400024414062 15.52000045776367
304.9100036621094 499.3099975585938 15.40999984741211
305.4200134277344 499.1600036621094 13.27999973297119
305.4700012207031 499.1600036621094 15.39999961853027
305.739990234375 499.1000061035156 12.31999969482422
303.25 499.6900024414062 17.61000061035156
302.9200134277344 499.7799987792969 16.32999992370605
303.7799987792969 499.5799865722656 15.61999988555908
302.2099914550781 499.239990234375 16.68000030517578
301.3699951171875 499.4700012207031 15.67000007629395
303.5 498.9299926757812 15.13000011444092
303.010009765625 499.0400085449219 15.52999973297119
301.8900146484375 499.3399963378906 15.55000019073486
304.6700134277344 498.6300048828125 15.14999961853027
303.5799865722656 498.9100036621094 13.5600004196167
301.4700012207031 499.5 14.09000015258789
304.0199890136719 498.7999877929688 15
302.3900146484375 499.2000122070312 15.44999980926514
300.8500061035156 499.6199951171875 13.88000011444092
300.4599914550781 499.760009765625 12.46000003814697
303.9700012207031 498.8399963378906 12.65999984741211
299.739990234375 499.9299926757812 12.10000038146973
300.7799987792969 499.6400146484375 15.63000011444092
299.9700012207031 499.8900146484375 12.85000038146973
304.8699951171875 498.6400146484375 9.760000228881836
304.9500122070312 498.6000061035156 11.97000026702881
305.3999938964844 498.5400085449219 9.600000381469727
304.4599914550781 498.75 12.32999992370605
303.9800109863281 498.8500061035156 10.72999954223633
305.4599914550781 498.489990234375 11.97000026702881
305.1900024414062 497.8900146484375 9.689999580383301
304.7300109863281 498 10.14000034332275
299.8500061035156 499.239990234375 10.80000019073486
301.3699951171875 498.8399963378906 14.02000045776367
303.7200012207031 498.260009765625 12.51000022888184
302.989990234375 498.3999938964844 14.0600004196167
301.9400024414062 498.6900024414062 14.28999996185303
300.3699951171875 499.0799865722656 12.63000011444092
301 498.9400024414062 12.85000038146973
303.7999877929688 498.2699890136719 10.59000015258789
304.3299865722656 498.1000061035156 10.67000007629395
299.8299865722656 499.25 12.81999969482422
300.8699951171875 498.9299926757812 14.38000011444092
304.8099975585938 497.989990234375 12.27999973297119
301.3500061035156 498.7999877929688 15.94999980926514
303.3299865722656 498.3599853515625 13.0600004196167
304.239990234375 498.1000061035156 12.27999973297119
302.489990234375 498.5299987792969 14.18000030517578
299.3699951171875 498.7999877929688 9.770000457763672
301.4500122070312 498.2200012207031 13.03999996185303
300.75 498.4299926757812 10.60000038146973
300.8099975585938 498.3699951171875 12.98999977111816
301.7799987792969 498.1499938964844 14.32999992370605
304.260009765625 497.5499877929688 10.73999977111816
302.1400146484375 498.0400085449219 13.4399995803833
303.5499877929688 497.7200012207031 12.18000030517578
302.5 497.9700012207031 12.82999992370605
303.6199951171875 497.7200012207031 10.46000003814697
302.25 498.0400085449219 9.819999694824219
302.9400024414062 497.8699951171875 10.14000034332275
300.2000122070312 498.5700073242188 12.63000011444092
303.0499877929688 497.8200073242188 12.52000045776367
303.2000122070312 497.1300048828125 10.02999973297119
300.7099914550781 497.7300109863281 13.28999996185303
301.7300109863281 497.489990234375 13.02999973297119
301.1400146484375 497.6900024414062 8.920000076293945
299.7099914550781 498.0599975585938 9.720000267028809
300.9299926757812 497.7099914550781 10.22000026702881
302.5700073242188 497.2999877929688 9.930000305175781
301.1700134277344 497.6099853515625 13.09000015258789
302.239990234375 497.3399963378906 12.78999996185303
301.9299926757812 497.4800109863281 9.729999542236328
300.2999877929688 497.9100036621094 9.920000076293945
300.1600036621094 497.1900024414062 10.22999954223633
300.7200012207031 497.0499877929688 10.35999965667725
304.8599853515625 497.8800048828125 12.39000034332275
303.1400146484375 497.4800109863281 12.22999954223633
302.6499938964844 497.3500061035156 10.02000045776367
304.2099914550781 497.7000122070312 10.77999973297119
305.0199890136719 497.9200134277344 10.07999992370605
300.8599853515625 496.8999938964844 10.44999980926514
302.3200073242188 497.2999877929688 12.82999992370605
302.2099914550781 497.2300109863281 9.649999618530273
303.2099914550781 497.4500122070312 10.10000038146973
303.75 497.6099853515625 12.25
304.8500061035156 498.6099853515625 15.18000030517578
304.9500122070312 498.6400146484375 12.97000026702881
302.8999938964844 498.1199951171875 14.10999965667725
305.3999938964844 498.7200012207031 13.44999980926514
305.3099975585938 498.7099914550781 12.02999973297119
305.3299865722656 498.7200012207031 15.4399995803833
304.489990234375 498.489990234375 10.77000045776367
304 498.3900146484375 12.3100004196167
303.6600036621094 497.5899963378906 10.60000038146973
304.7099914550781 498.5400085449219 12.06999969482422
302.25 497.989990234375 14.10999965667725
302 497.8800048828125 13.21000003814697
301.9599914550781 497.8200073242188 9.75
301.0499877929688 497.6400146484375 10.5
300.8599853515625 497.6300048828125 13.22000026702881
301.5 497.760009765625 12.98999977111816
302.6499938964844 498.0400085449219 12.9399995803833
299.4200134277344 498 9.399999618530273
302.4500122070312 497.9599914550781 9.960000038146973
301.510009765625 497.739990234375 9.039999961853027
300.6499938964844 497.510009765625 10.05000019073486
300.0799865722656 497.3599853515625 9.899999618530273
305.5599975585938 499.5899963378906 15.90999984741211
306.1199951171875 499.7099914550781 15.97000026702881
304.4700012207031 499.3200073242188 15.61999988555908
303.4700012207031 499.0400085449219 15.15999984741211
303.2799987792969 498.9700012207031 13.84000015258789
303.9299926757812 499.1600036621094 15.48999977111816
302.7699890136719 498.8999938964844 15.36999988555908
305.1199951171875 499.489990234375 15.60999965667725
300.2300109863281 498.2300109863281 12.52000045776367
301.3999938964844 498.5199890136719 14.22000026702881
300.6199951171875 498.3099975585938 13.02000045776367
300.7699890136719 498.3200073242188 8.869999885559082
300.6700134277344 499.010009765625 14.14999961853027
301.3299865722656 499.1900024414062 14.15999984741211
301.0899963378906 499.1199951171875 12.8100004196167
300.0799865722656 498.8299865722656 10.59000015258789
299.75 498.739990234375 9.619999885559082
300.1099853515625 498.8500061035156 12.30000019073486
300.2699890136719 498.8800048828125 9.880000114440918
300.5700073242188 498.9400024414062 10.8100004196167
300.3500061035156 498.2300109863281 10.1899995803833
302.5700073242188 498.8299865722656 14.3100004196167
301.1900024414062 498.4500122070312 13.03999996185303
300.8399963378906 498.3699951171875 10.63000011444092
300.6099853515625 498.989990234375 12.5600004196167
299.9700012207031 498.1099853515625 9.710000038146973
301.760009765625 498.5899963378906 13.10000038146973
299.2699890136719 498.6099853515625 9.239999771118164
303.1700134277344 499.6700134277344 15.5
303.4500122070312 499.7200012207031 16.48999977111816
303.7000122070312 499.7999877929688 15.77000045776367
304.3599853515625 499.9400024414062 15.42000007629395
301.8200073242188 499.2999877929688 14.25
302.8800048828125 499.6000061035156 16.51000022888184
303.6600036621094 499.7999877929688 17.56999969482422
302.6300048828125 499.5400085449219 15.31999969482422
304.1799926757812 499.8999938964844 16.03000068664551
301.3599853515625 499.2200012207031 15.77000045776367
301.9700012207031 499.3399963378906 15.56999969482422
302.260009765625 499.4599914550781 16.6200008392334
301.5599975585938 499.8500061035156 14.19999980926514
301.0599975585938 499.7200012207031 14.01000022888184
301.6799926757812 499.9299926757812 15.55000019073486
301.5 499.8200073242188 10.85000038146973
302.0400085449219 499.989990234375 16.45000076293945
300.3299865722656 499.489990234375 10.93000030517578
299.8299865722656 499.3800048828125 10.67000007629395
300.1799926757812 499.4700012207031 9.590000152587891
300.3699951171875 499.5599975585938 12.67000007629395
299.5199890136719 499.2900085449219 9.699999809265137
300.9299926757812 499.6700134277344 12.6899995803833
299.7000122070312 499.3599853515625 9.130000114440918
301.1400146484375 499.760009765625 15.51000022888184
300.9299926757812 499.9599914550781 12.4399995803833
299.8500061035156 499.7200012207031 11.40999984741211
299.8599853515625 499.7200012207031 12.52999973297119
299.8999938964844 499.739990234375 9.520000457763672
300.4200134277344 499.8699951171875 12.30000019073486
300.8599853515625 499.8999938964844 15.57999992370605
300.8900146484375 499.9400024414062 13.96000003814697
299.4700012207031 498.9500122070312 9.710000038146973
300 499.0899963378906 10.72999954223633
300.4599914550781 499.1499938964844 12.57999992370605
300.0199890136719 499.0899963378906 9.170000076293945
300.9599914550781 499.260009765625 14.05000019073486
301.5 499.3999938964844 15.64000034332275
302.5 499.6000061035156 16.54999923706055
301.5199890136719 499.3900146484375 14.10999965667725
303.0499877929688 499.7300109863281 16.32999992370605
304.1000061035156 500.010009765625 17.28000068664551
301.9700012207031 499.489990234375 16.61000061035156
303.5499877929688 499.8500061035156 17.51000022888184
301.9599914550781 499.510009765625 15.30000019073486
304.1000061035156 500 15.72999954223633
300.9700012207031 499.3099975585938 12.97999954223633
300.6300048828125 498.5400085449219 12.63000011444092
302.1400146484375 498.9100036621094 14.22000026702881
299.6099853515625 498.3200073242188 9.600000381469727
300.1000061035156 498.4599914550781 9.939999580383301
302.1499938964844 498.8699951171875 15.34000015258789
305.25 499.6199951171875 15.77000045776367
301.1799926757812 498.6799926757812 12.97000026702881
301.6300048828125 498.739990234375 16.03000068664551
304.7799987792969 499.510009765625 15.46000003814697
303.7300109863281 499.25 15.14999961853027
305.760009765625 499.75 15.85000038146973
300.1000061035156 498.4299926757812 12.51000022888184
306.3500061035156 499.9100036621094 13.92000007629395
301.6499938964844 498.7999877929688 14.15999984741211
302.6799926757812 499.010009765625 15.47999954223633
306.2900085449219 499.8599853515625 16.04000091552734
303.1300048828125 499.1300048828125 15.42000007629395
304.1799926757812 499.3900146484375 15.43000030517578
301.2799987792969 498 13.02999973297119
301.7999877929688 498.1400146484375 13.14000034332275
302.8900146484375 498.3500061035156 14.10999965667725
303.3900146484375 498.5 13.07999992370605
300.8599853515625 497.9100036621094 10.35000038146973
303.3999938964844 498.5400085449219 12.1899995803833
302.3099975585938 498.239990234375 14.10000038146973
305 498.8900146484375 15.34000015258789
303.3599853515625 498.5 13.92000007629395
306.0899963378906 499.1700134277344 12.21000003814697
305.5899963378906 499.0599975585938 12.28999996185303
303.9299926757812 498.5899963378906 14.97000026702881
305.4800109863281 499.010009765625 15.44999980926514
305.5199890136719 499.0400085449219 13.39999961853027
304.4599914550781 498.7300109863281 15.09000015258789
304.010009765625 498.6700134277344 12.35999965667725
300.8099975585938 497.8500061035156 13.27000045776367
304.5299987792969 498.7799987792969 12.17000007629395
305.0400085449219 498.9200134277344 13.39999961853027
300.2699890136719 497.7999877929688 9.920000076293945
299.7900085449219 497.6600036621094 9.729999542236328
300.4800109863281 497.1000061035156 10.3100004196167
301.010009765625 497.2300109863281 10.4399995803833
302.0799865722656 497.4599914550781 9.600000381469727
301.989990234375 497.4400024414062 12.76000022888184
303.0299987792969 497.6600036621094 12.3100004196167
303.6199951171875 497.7999877929688 12.22999954223633
304.1099853515625 497.9700012207031 10.59000015258789
305.6900024414062 498.3099975585938 12.09000015258789
304.7000122070312 498.0799865722656 10.46000003814697
302.5599975585938 497.6099853515625 9.989999771118164
304.0700073242188 497.9400024414062 12.17000007629395
303.6000061035156 497.7999877929688 13.4399995803833
303.0799865722656 497.7200012207031 10.02999973297119
304.6400146484375 498.0499877929688 12.35000038146973
302.5400085449219 497.5299987792969 12.78999996185303
305.1700134277344 498.2200012207031 9.729999542236328
304.3099975585938 497.3099975585938 10.82999992370605
303.2699890136719 497.0899963378906 10.06999969482422
302.7099914550781 496.9400024414062 10.10000038146973
304.6900024414062 497.7000122070312 10.05000019073486
303.6799926757812 497.4700012207031 10.60999965667725
304.2999877929688 497.6300048828125 10.78999996185303
304.0799865722656 497.5899963378906 12.15999984741211
302.3099975585938 497.1400146484375 9.800000190734863
302.9500122070312 497.2699890136719 10.14000034332275
303.5799865722656 497.4700012207031 12.27999973297119
303.6300048828125 498.739990234375 12.23999977111816
304.8800048828125 498.3599853515625 9.739999771118164
305.3200073242188 498.5199890136719 13.32999992370605
304.3999938964844 498.25 12.23999977111816
303.9200134277344 498.1499938964844 10.5600004196167
305.510009765625 498.510009765625 12.07999992370605
303.3500061035156 498.0299987792969 12.75
301.9500122070312 497.6600036621094 9.720000267028809
303.8900146484375 498.1300048828125 12.4399995803833
302.9299926757812 497.8999938964844 13.05000019073486
302.6499938964844 497.8800048828125 14.22000026702881
305.4200134277344 498.4800109863281 9.560000419616699
300.4599914550781 497.2699890136719 10.26000022888184
304.5700073242188 498.2900085449219 10.53999996185303
301.8200073242188 497.6700134277344 13.17000007629395
301.2000122070312 497.489990234375 12.93000030517578
302.2999877929688 497.7699890136719 12.84000015258789
304.9800109863281 498.3699951171875 12.02999973297119
305.8999938964844 499.2999877929688 12.31999969482422
306.3200073242188 499.4500122070312 15.85000038146973
305.3099975585938 499.1600036621094 12.26000022888184
305.6099853515625 499.2000122070312 13.3100004196167
306.3800048828125 499.4100036621094 13.97999954223633
303.3500061035156 498.6900024414062 15.28999996185303
305.7799987792969 499.3200073242188 15.8100004196167
303.8200073242188 498.8299865722656 15.01000022888184
300.9599914550781 498.1099853515625 13.14000034332275
305.5599975585938 499.1700134277344 9.199999809265137
302.4500122070312 498.4500122070312 14.18000030517578
305.0899963378906 499.0899963378906 13.31999969482422
301.9299926757812 498.3699951171875 14.39000034332275
305.0799865722656 499.1000061035156 15.48999977111816
304.4800109863281 498.9800109863281 15.13000011444092
300.5199890136719 498.010009765625 13.38000011444092
302.989990234375 498.5899963378906 14.02000045776367
301.5700073242188 498.2200012207031 13.02000045776367
305.5899963378906 499.9299926757812 14.05000019073486
305.5700073242188 499.8800048828125 9.899999618530273
304.8900146484375 499.7999877929688 15.68000030517578
303.0499877929688 499.2999877929688 15.40999984741211
304.239990234375 499.6400146484375 15.48999977111816
302.3299865722656 499.1499938964844 16.76000022888184
302.8500061035156 499.2799987792969 16.71999931335449
302.5299987792969 499.2099914550781 15.43000030517578
300.6199951171875 498.6900024414062 12.75
303.7200012207031 499.4800109863281 15.61999988555908
305.5 499.9400024414062 15.88000011444092
301.5700073242188 498.9599914550781 16.04999923706055
301.5599975585938 498.9800109863281 14.14000034332275
301.989990234375 499.0599975585938 15.57999992370605
300.0599975585938 498.5599975585938 12.64000034332275
301.3999938964844 499.4800109863281 15.63000011444092
302.8399963378906 499.8500061035156 16.47999954223633
302.3099975585938 499.7000122070312 16.68000030517578
300.010009765625 499.1099853515625 12.80000019073486
300.5599975585938 499.2300109863281 12.60000038146973
300.8599853515625 499.8599853515625 14.03999996185303
300.760009765625 499.8599853515625 15.72999954223633
301.260009765625 499.9700012207031 15.56999969482422
299.9299926757812 499.6199951171875 12.80000019073486
306.3999938964844 499.6799926757812 15.84000015258789
305.7200012207031 499.3800048828125 16.1200008392334
303.7799987792969 499.5799865722656 17.81999969482422
303.6300048828125 498.6799926757812 15.10999965667725
305.6199951171875 498.6400146484375 12.15999984741211
303.8200073242188 499.4599914550781 15.60000038146973
304.989990234375 498.7900085449219 15.38000011444092
305.8900146484375 499.8299865722656 13.97999954223633
303.489990234375 498.1400146484375 13.35000038146973
305.8900146484375 499.8599853515625 15.80000019073486
304.3699951171875 499.1600036621094 15.64000034332275
302.489990234375 499.0299987792969 16.76000022888184
304.510009765625 499.6600036621094 15.4399995803833
303.4299926757812 497.75 12.22999954223633
303.9800109863281 497.489990234375 12.35999965667725
302.260009765625 497.7900085449219 12.85000038146973
303.3399963378906 499.8500061035156 18.10000038146973
301.6400146484375 498.1099853515625 12.88000011444092
303.0400085449219 498.5 14.05000019073486
300.8599853515625 499.6600036621094 13.89999961853027
300.9100036621094 499.7900085449219 12.59000015258789
301.4700012207031 497.6000061035156 13.14000034332275
303.1499938964844 499.010009765625 15.57999992370605
301.2699890136719 499.4299926757812 15.75
302.6499938964844 499.5799865722656 16.56999969482422
301.989990234375 499.8900146484375 16.72999954223633
302.9200134277344 498.0299987792969 14.21000003814697
300.9800109863281 497.9800109863281 13.1899995803833
302.2999877929688 498.1900024414062 14.09000015258789
300.239990234375 499.5299987792969 12.71000003814697
300.7999877929688 497.1000061035156 10.46000003814697
301.739990234375 498.6000061035156 14.39999961853027
299.8500061035156 497.9299926757812 9.680000305175781
300.3599853515625 499.9700012207031 12.1899995803833
301.0899963378906 498.5400085449219 13.01000022888184
301.8299865722656 499.0499877929688 15.92000007629395
305.1300048828125 499.4700012207031 15.72999954223633
301.4200134277344 499.8900146484375 15.53999996185303
300.7999877929688 499.6300048828125 15.78999996185303
301.1900024414062 498.9599914550781 14.36999988555908
299.5400085449219 499.6300048828125 12.27999973297119
300.0299987792969 498.8800048828125 12.59000015258789
300.6199951171875 498.6499938964844 12.64999961853027
300.010009765625 498.6499938964844 9.979999542236328
300.75 499.25 12.76000022888184
299.3999938964844 498.75 9.659999847412109
300.4800109863281 498.1000061035156 12.6899995803833
300.5299987792969 498.3299865722656 13.43000030517578
304.8800048828125 499.2300109863281 15.36999988555908
305.010009765625 499.8099975585938 15.63000011444092
306.4800109863281 499.8500061035156 13.93000030517578
306.3200073242188 499.3099975585938 15.89999961853027
305.7300109863281 499.4700012207031 15.97000026702881
305.8599853515625 499.9700012207031 15.77999973297119
305.4500122070312 498.4100036621094 12
304.1300048828125 499.4400024414062 15.47999954223633
303.989990234375 498.8999938964844 15.02000045776367
303.9800109863281 498.8800048828125 12.52000045776367
303.9700012207031 498.9400024414062 15.78999996185303
303.8399963378906 498.3399963378906 10.84000015258789
305.5599975585938 498.8999938964844 13.38000011444092
303.6799926757812 497.8200073242188 12.25
304.7099914550781 498.6799926757812 12.03999996185303
305.6900024414062 499.4299926757812 13.64999961853027
303.5700073242188 497.2699890136719 10.09000015258789
304.5700073242188 498.1499938964844 12.32999992370605
304.5700073242188 498.0799865722656 10.46000003814697
304.4700012207031 497.5799865722656 10.75
303.8399963378906 498.3299865722656 12.19999980926514
305.5499877929688 498.8800048828125 12.3100004196167
305.6000061035156 498.9700012207031 15.39999961853027
303.0299987792969 498.0700073242188 14.25
303.2900085449219 499.0899963378906 13.75
304.760009765625 498.7099914550781 15.18000030517578
305.6700134277344 499.4299926757812 12.23999977111816
303.4100036621094 499.6300048828125 15.22999954223633
302.0599975585938 499.6400146484375 16.6299991607666
301.760009765625 498.510009765625 13.02000045776367
303.3099975585938 499.1400146484375 15.35000038146973
302.0499877929688 499.6199951171875 15.30000019073486
301.6199951171875 497.9700012207031 12.97999954223633
305.4400024414062 498.3900146484375 9.680000305175781
302.8599853515625 497.4200134277344 10.09000015258789
302.7000122070312 499.2799987792969 16.64999961853027
303.4100036621094 499.6799926757812 16.27000045776367
302.5700073242188 498.7699890136719 14.21000003814697
303.1199951171875 498.510009765625 13.90999984741211
302.8299865722656 499.8099975585938 16.48999977111816
302.4299926757812 498.239990234375 14.0600004196167
304.2300109863281 499.9100036621094 15.63000011444092
302.1099853515625 497.0799865722656 9.729999542236328
301.1400146484375 499.3399963378906 15.65999984741211
302.2699890136719 497.6300048828125 9.899999618530273
301.4599914550781 497.4700012207031 13.11999988555908
301 498.7900085449219 14.34000015258789
300.8500061035156 498.2999877929688 13.03999996185303
306.4800109863281 499.8599853515625 16
302.25 497.6900024414062 12.85999965667725
301.1199951171875 499.2999877929688 14.14000034332275
302.6900024414062 499.260009765625 15.38000011444092
302.5799865722656 498.7900085449219 15.42000007629395
300.1600036621094 498.4599914550781 12.47999954223633
301.2699890136719 499.7900085449219 14
301.010009765625 498.7799987792969 12.97000026702881
299.760009765625 499.6600036621094 9.520000457763672
300.6000061035156 497.1700134277344 10.32999992370605
300.3900146484375 499.5599975585938 12.75
300.7200012207031 497.7200012207031 13.25
302.989990234375 498.010009765625 12.97999954223633
300.260009765625 498.9700012207031 12.28999996185303
300.2699890136719 498.9599914550781 10.69999980926514
299.5 498.6300048828125 9.630000114440918
301.2900085449219 499.8500061035156 15.60999965667725
299.7799987792969 499.6900024414062 12
300.1400146484375 498.4200134277344 9.859999656677246
299.3399963378906 498.1300048828125 9.430000305175781
300.6900024414062 497.6799926757812 10.06999969482422
301.8800048828125 499.0899963378906 15.77999973297119
299.9800109863281 497.8900146484375 9.630000114440918
301.75 498.5299987792969 14.26000022888184
299.6400146484375 499.1499938964844 9.590000152587891
305.8599853515625 499.3099975585938 15.80000019073486
306 499.7900085449219 13.9399995803833
305.0499877929688 498.489990234375 9.649999618530273
305.1000061035156 498.7099914550781 13.01000022888184
305.6900024414062 498.6099853515625 12.14999961853027
305.9400024414062 499.5799865722656 12.65999984741211
305.1799926757812 498.9800109863281 12.05000019073486
305.2200012207031 499.1400146484375 9.399999618530273
305.1799926757812 499.2000122070312 13.38000011444092
305.8200073242188 499.0899963378906 12.34000015258789
305.1600036621094 499.1799926757812 15.46000003814697
303.3999938964844 497.9599914550781 10.28999996185303
303.260009765625 497.4100036621094 12.17000007629395
303.5499877929688 498.6099853515625 13.97999954223633
304.8900146484375 497.7799987792969 9.979999542236328
303.4500122070312 498.239990234375 13.17000007629395
305 498.4500122070312 11.9399995803833
305.0599975585938 498.6600036621094 15.22000026702881
303.3200073242188 497.4599914550781 9.970000267028809
303.5899963378906 498.8900146484375 15.0600004196167
303.8500061035156 499.8500061035156 15.72000026702881
304.2099914550781 498.1300048828125 12.27999973297119
303.6099853515625 498.9100036621094 12.98999977111816
305.3099975585938 499.6900024414062 15.80000019073486
304.1199951171875 497.6499938964844 12.15999984741211
304.4299926757812 499.0499877929688 15.17000007629395
303.8299865722656 499.9500122070312 17.47999954223633
304.2099914550781 498.0499877929688 10.67000007629395
304.3599853515625 498.5799865722656 10.67000007629395
304.4599914550781 499.0499877929688 13.02000045776367
301.9400024414062 497.3399963378906 9.600000381469727
302.5799865722656 497.4299926757812 9.920000076293945
302.7000122070312 498.010009765625 12.09000015258789
302.0299987792969 497.8200073242188 9.770000457763672
304.3500061035156 498.7000122070312 12.3100004196167
302.6400146484375 497.7799987792969 12.88000011444092
302.6900024414062 498.0400085449219 14.13000011444092
303.3900146484375 497.9299926757812 12.35999965667725
302.8800048828125 498.8299865722656 15.14999961853027
305.989990234375 499.8200073242188 15.90999984741211
302.9500122070312 499.260009765625 15.52000045776367
302.4400024414062 496.9400024414062 9.630000114440918
302.6799926757812 498.010009765625 9.979999542236328
302.75 498.3299865722656 13.02000045776367
301.3299865722656 497.8699951171875 8.989999771118164
301.4400024414062 498.4800109863281 13.06999969482422
303.739990234375 499.4100036621094 15.21000003814697
301.5199890136719 498.8900146484375 15.84000015258789
301.1700134277344 497.3999938964844 12.82999992370605
301.2900085449219 497.8900146484375 12.98999977111816
301.6600036621094 499.3500061035156 14.19999980926514
302.7999877929688 498.5899963378906 14.02000045776367
302.0299987792969 497.989990234375 13.22999954223633
301.3699951171875 498.1700134277344 10.22000026702881
302.1099853515625 498.3500061035156 14.13000011444092
302.2300109863281 498.8900146484375 14.22000026702881
301.6600036621094 499.510009765625 15.52999973297119
301.489990234375 498.75 14.14999961853027
302.1600036621094 498.2900085449219 10.23999977111816
302.4299926757812 499.6499938964844 15.42000007629395
303.1199951171875 499.8500061035156 15.5600004196167
302.2999877929688 499.1400146484375 15.22000026702881
300.5700073242188 497.9800109863281 10.10000038146973
304.5599975585938 499.4800109863281 9.600000381469727
300.4599914550781 497.4700012207031 10
300.7999877929688 498.9599914550781 12.69999980926514
300.7099914550781 498.3999938964844 8.760000228881836
300.3299865722656 496.9400024414062 9.939999580383301
303.0499877929688 499.6000061035156 16.36000061035156
302.489990234375 499.9400024414062 16.55999946594238
301.0199890136719 499.8999938964844 15.42000007629395
301.9400024414062 497.5799865722656 12.77999973297119
300.6700134277344 498.4100036621094 10.60999965667725
300.989990234375 499.760009765625 13.97000026702881
300.6000061035156 498.2900085449219 13.03999996185303
300.9200134277344 499.4500122070312 12.85999965667725
300.0700073242188 498.8299865722656 10.64000034332275
304.0599975585938 497.510009765625 10.67000007629395
300.1600036621094 499.4100036621094 12.72000026702881
302.9599914550781 499.1400146484375 14.05000019073486
302.3200073242188 499.3399963378906 16.68000030517578
300.260009765625 499.760009765625 11.47999954223633
299.3299865722656 498.5 9.399999618530273
300.8299865722656 499.1000061035156 14.25
300.0700073242188 498.8900146484375 12.48999977111816
299.7200012207031 499.9800109863281 11.97999954223633
299.6000061035156 499.5700073242188 9.5
300.3099975585938 499.8900146484375 13.02000045776367
299.9599914550781 498.4100036621094 9.909999847412109
300.2099914550781 499.3900146484375 10.72000026702881
299.75 497.4700012207031 9.470000267028809
300.1099853515625 499.1000061035156 9.770000457763672
300.5199890136719 497.8699951171875 12.55000019073486
299.4400024414062 498.9299926757812 9.710000038146973
299.8399963378906 497.9599914550781 9.640000343322754
301.7300109863281 499.8099975585938 16.45999908447266
299.6700134277344 498.8299865722656 9.550000190734863
300.0400085449219 499.3900146484375 12.78999996185303
300.3599853515625 498.6300048828125 10.52999973297119
299.7799987792969 498.3299865722656 9.800000190734863
300.8099975585938 496.8500061035156 10.4399995803833
299.9200134277344 497.7699890136719 9.770000457763672
300.510009765625 498.0299987792969 10.42000007629395
300.4299926757812 497.75 13.28999996185303
300.8200073242188 499.4400024414062 12.6899995803833
300.9500122070312 498.8900146484375 12.78999996185303
300.6199951171875 499.9299926757812 14.06999969482422
300.1700134277344 499.2799987792969 10.69999980926514
301.3999938964844 499.489990234375 14.02000045776367
300.6600036621094 497.3500061035156 10.27000045776367
301.1600036621094 497.9100036621094 13.13000011444092
300.3599853515625 498.1400146484375 12.60000038146973
300.5700073242188 499.8399963378906 15.67000007629395
300.8900146484375 498.8699951171875 14.42000007629395
302.510009765625 499.9700012207031 16.51000022888184
300.8699951171875 499.5799865722656 11.14999961853027
301.0599975585938 498.4299926757812 12.98999977111816
301.8399963378906 499.8500061035156 16.5
301.3200073242188 499.4299926757812 15.61999988555908
301.5 499 14.27999973297119
302 499.489990234375 15.30000019073486
301.9200134277344 497.4299926757812 13.22000026702881
302.4100036621094 497.9800109863281 14.23999977111816
300.2200012207031 498.739990234375 12.51000022888184
302.25 498.5299987792969 14.23999977111816
301.6099853515625 498.4500122070312 14.43000030517578
302.0899963378906 499 15.69999980926514
301.239990234375 499.9599914550781 15.4399995803833
304.260009765625 499.0299987792969 15.80000019073486
304.1199951171875 499.5 15.4399995803833
305.3299865722656 499.8699951171875 15.97000026702881
303.5700073242188 499.1499938964844 15.06999969482422
301.4200134277344 498.9200134277344 16.01000022888184
304.8800048828125 498.9800109863281 15.36999988555908
303.3900146484375 499.5700073242188 16.38999938964844
304.739990234375 499.5899963378906 15.52999973297119
299.9599914550781 499.8099975585938 12.42000007629395
301.7799987792969 498.010009765625 13.06999969482422
303.0899963378906 498.1199951171875 14.27999973297119
304.010009765625 499.6199951171875 17.70000076293945
302.5899963378906 497.5599975585938 12.86999988555908
304.0400085449219 497.6700134277344 12.32999992370605
303.6900024414062 498.5899963378906 15.10000038146973
305.4400024414062 499.2900085449219 15.84000015258789
306.2000122070312 499.4200134277344 15.9399995803833
302.6300048828125 499.4599914550781 16.68000030517578
299.9299926757812 497.6600036621094 9.699999809265137
299.8099975585938 498.1499938964844 9.710000038146973
299.5400085449219 499.2200012207031 9.539999961853027
299.4800109863281 499.7300109863281 12.01000022888184
300.4800109863281 499 12.40999984741211
299.6799926757812 498.6700134277344 9.680000305175781
300.6000061035156 498.5 12.68000030517578
300.3800048828125 499.5799865722656 12.69999980926514
300.989990234375 496.8800048828125 10.44999980926514
300.8299865722656 497.3699951171875 10.27000045776367
301.2799987792969 498.75 14.22999954223633
301.1499938964844 499.2900085449219 14.14000034332275
301.7799987792969 499.5499877929688 15.47000026702881
301.8999938964844 499.0599975585938 15.80000019073486
301.3599853515625 498.1400146484375 10.52999973297119
301.5499877929688 497.7099914550781 13.03999996185303
301.2999877929688 498.7200012207031 12.96000003814697
302.9100036621094 497.7999877929688 12.88000011444092
302.9700012207031 497.2000122070312 10.14999961853027
302.8900146484375 497.7699890136719 12
302.6099853515625 499.3999938964844 16.63999938964844
301.4299926757812 498.2099914550781 13.03999996185303
302.8099975585938 498.3099975585938 14.11999988555908
301.2000122070312 499.2900085449219 15.93000030517578
302.6799926757812 498.8099975585938 14.40999984741211
301.0199890136719 499.7799987792969 13.89999961853027
302.2099914550781 497.3399963378906 9.739999771118164
302.2799987792969 497.3900146484375 12.85000038146973
302.1199951171875 497.9400024414062 13.38000011444092
304.0299987792969 499.9599914550781 17.42000007629395
302.0299987792969 498.489990234375 14.28999996185303
302.4800109863281 499.9100036621094 16.56999969482422
302.6900024414062 498.8200073242188 15.52999973297119
303.7900085449219 497.5199890136719 12.31999969482422
304.0299987792969 499.9400024414062 15.85999965667725
302.8399963378906 497.7000122070312 9.939999580383301
303.6700134277344 498.0400085449219 12.97000026702881
301.739990234375 499.5499877929688 14.10000038146973
301.1199951171875 499.2699890136719 12.89999961853027
303.6600036621094 498.0499877929688 12.17000007629395
303.7300109863281 497.4700012207031 10.67000007629395
304.9599914550781 498 9.960000038146973
303.3399963378906 499.7200012207031 16.28000068664551
300.7799987792969 497.9500122070312 13.22999954223633
304.8299865722656 498.5199890136719 9.810000419616699
303.5499877929688 498.6499938964844 13.89000034332275
303.5499877929688 498.6499938964844 15.14999961853027
304.8900146484375 498.5400085449219 12
303.5199890136719 498.6400146484375 12.35000038146973
304.4299926757812 497.8099975585938 12.39000034332275
304.4299926757812 497.7699890136719 10.53999996185303
304.2799987792969 498.8900146484375 15.27000045776367
305.6000061035156 498.3200073242188 9.649999618530273
304.9500122070312 498.6300048828125 15.14000034332275
301.0599975585938 499.7799987792969 15.47000026702881
304.2999877929688 498.3099975585938 12.26000022888184
305.6099853515625 498.3599853515625 12.13000011444092
300.4400024414062 498.9700012207031 10.72000026702881
304.7200012207031 499.6600036621094 15.4399995803833
304.8500061035156 499.1300048828125 15.35999965667725
305.4400024414062 499.4500122070312 15.93000030517578
305.3099975585938 499.9599914550781 15.8100004196167
306.1600036621094 499.7699890136719 15.9399995803833
304.1400146484375 499.4400024414062 15.40999984741211
304.1799926757812 498.8299865722656 12.35000038146973
304.9500122070312 498.5799865722656 13.25
306.8099975585938 499.9800109863281 13.94999980926514
305.5199890136719 498.8900146484375 12.27999973297119
303.4500122070312 499.1400146484375 15.17000007629395
305.510009765625 498.9100036621094 13.39999961853027
306.1900024414062 499.1900024414062 11.89000034332275
304.260009765625 498.8699951171875 15.9399995803833
299.3699951171875 499.9700012207031 11.97999954223633
299.6000061035156 499.5199890136719 9.579999923706055
299.75 498.9800109863281 9.659999847412109
301.3999938964844 497.7900085449219 10.26000022888184
301.3699951171875 498.1199951171875 9.079999923706055
300.1099853515625 497.5199890136719 8.729999542236328
299.8500061035156 498.3800048828125 9.850000381469727
300.1700134277344 499.6199951171875 11.46000003814697
300.1900024414062 499.260009765625 12.73999977111816
300.6700134277344 497.739990234375 10
300.5 498.1000061035156 12.64000034332275
300.2900085449219 499.25 10.77999973297119
301.3200073242188 498.2799987792969 10.48999977111816
300.0799865722656 499.8800048828125 12.57999992370605
300.8200073242188 497.0700073242188 10.34000015258789
301.510009765625 497.5700073242188 8.909999847412109
301.5499877929688 499.2099914550781 15.86999988555908
301.6600036621094 498.7000122070312 15.57999992370605
299.239990234375 498.3999938964844 9.489999771118164
300.3099975585938 498.7799987792969 12.57999992370605
301.3999938964844 499.8800048828125 15.56999969482422
300.6700134277344 498.1099853515625 8.670000076293945
302 497.7200012207031 12.86999988555908
301.8099975585938 498.739990234375 11.40999984741211
302.0799865722656 498.0299987792969 9.880000114440918
300.5599975585938 498.1900024414062 10.43000030517578
301.8900146484375 498.260009765625 13.1899995803833
301.7200012207031 498.8299865722656 13.03999996185303
301.010009765625 498.9400024414062 14.21000003814697
301.2099914550781 498.1499938964844 13.0600004196167
301.3900146484375 497.6499938964844 12.73999977111816
300.7999877929688 499.8699951171875 12.60999965667725
300.9599914550781 499.3099975585938 12.75
301.7699890136719 498.4599914550781 14.27000045776367
302.260009765625 498.8900146484375 15.10000038146973
301.9100036621094 498.489990234375 10.26000022888184
302.2300109863281 499.1600036621094 14.15999984741211
301.6000061035156 499.1400146484375 14.11999988555908
300.8399963378906 499.5400085449219 13.78999996185303
302.6000061035156 497.8699951171875 12.77999973297119
300.5 497.8900146484375 13.38000011444092
302.510009765625 498.0499877929688 14.02999973297119
300.0199890136719 497.8200073242188 9.640000343322754
302.9599914550781 496.9200134277344 10.07999992370605
302.1300048828125 499.3399963378906 15.47999954223633
301.1099853515625 498.7000122070312 13
303.2900085449219 497.9400024414062 12.46000003814697
302.7999877929688 497.5 10.09000015258789
303.4299926757812 497.4200134277344 12.18000030517578
302.7000122070312 499.7099914550781 16.43000030517578
302.1000061035156 499.7999877929688 13.84000015258789
303.1799926757812 498.3599853515625 13.09000015258789
303.1900024414062 498.0199890136719 14.22999954223633
302.8099975585938 499.4700012207031 15.26000022888184
302.4700012207031 498.3599853515625 12.97000026702881
302.760009765625 499.9400024414062 13.57999992370605
303.5 497.510009765625 9.989999771118164
300.4299926757812 498.6799926757812 10.59000015258789
302.6600036621094 498.1000061035156 9.810000419616699
302.3500061035156 498.6400146484375 14.26000022888184
304.6099853515625 498.5899963378906 10.64000034332275
302.2300109863281 497.4599914550781 9.640000343322754
304.1700134277344 499.5599975585938 15.46000003814697
304.6700134277344 498.1300048828125 12.27999973297119
303.3500061035156 497.9599914550781 10.26000022888184
303.4200134277344 499.7699890136719 16.29999923706055
302.0400085449219 499.8500061035156 15.68000030517578
304.7099914550781 498.2300109863281 10.06999969482422
302.0299987792969 499.5599975585938 16.6299991607666
303.6600036621094 499.0199890136719 15.0600004196167
303.8399963378906 498.6799926757812 12.31999969482422
303.7799987792969 498.9599914550781 13.27999973297119
304.5199890136719 498.75 12.21000003814697
304.8399963378906 497.7099914550781 10.01000022888184
304.1000061035156 497.989990234375 10.64000034332275
302.9599914550781 498.9200134277344 15.17000007629395
303.7900085449219 499.1499938964844 10.61999988555908
304.7799987792969 499.6499938964844 15.5600004196167
303.0299987792969 498.7000122070312 14
302.7000122070312 497.7300109863281 11.15999984741211
304.1600036621094 497.5799865722656 12.22000026702881
303.9400024414062 498.5 10.78999996185303
305.0899963378906 498.9100036621094 12.02000045776367
305.0499877929688 498.6300048828125 15.03999996185303
304.3399963378906 499.0700073242188 15.32999992370605
304 498.0400085449219 12.35999965667725
304.3999938964844 499.1099853515625 13
303.5499877929688 499.489990234375 15.26000022888184
306.2200012207031 499.7000122070312 15.96000003814697
305.2300109863281 498.3800048828125 11.90999984741211
304.239990234375 497.3999938964844 10.77999973297119
303.7999877929688 498.4299926757812 15.01000022888184
305.1600036621094 499.0499877929688 9.430000305175781
305.5400085449219 499.6199951171875 13.85000038146973
305.7000122070312 499.1199951171875 13.39000034332275
305.6000061035156 499.1300048828125 15.48999977111816
305.1600036621094 498.6499938964844 13.02000045776367
306.4100036621094 499.5199890136719 12.52999973297119
306.3200073242188 499.6700134277344 14.0600004196167
304.989990234375 499.1400146484375 13.23999977111816
305.6499938964844 499.3800048828125 12.47999954223633
305.4599914550781 499.6199951171875 15.86999988555908
304.9200134277344 499.1000061035156 15.42000007629395
305.8299865722656 499.1700134277344 9.260000228881836
305.3299865722656 498.4700012207031 9.649999618530273
305.7900085449219 498.8800048828125 12.21000003814697
