403.5700073242188 431.4400024414062 9.210000038146973
403.6799926757812 431.4200134277344 10.35999965667725
404.2099914550781 431.2900085449219 10.51000022888184
403.010009765625 431.5899963378906 7.510000228881836
403.0700073242188 431.5499877929688 8.909999847412109
403.5599975585938 431.4100036621094 13.6899995803833
406.7300109863281 430.6799926757812 10.52000045776367
406.1300048828125 430.8099975585938 10.39000034332275
404.1199951171875 431.260009765625 13.8100004196167
403.0700073242188 432.2000122070312 8.829999923706055
403.5599975585938 432.0799865722656 9.029999732971191
400.25 429.9800109863281 8.229999542236328
400.6900024414062 429.9100036621094 9.720000267028809
400.6400146484375 429.1799926757812 7.840000152587891
400.5700073242188 428.6499938964844 7.699999809265137
400.6400146484375 428.6700134277344 12.30000019073486
400.1099853515625 428.8299865722656 12.53999996185303
399.2300109863281 429.0299987792969 10.22999954223633
399.8299865722656 428.25 15.10999965667725
400.4800109863281 428.0499877929688 13.35999965667725
400.3299865722656 428.1000061035156 15.15999984741211
399.989990234375 428.1900024414062 13.44999980926514
399.6600036621094 428.2099914550781 11.01000022888184
400.1000061035156 428.1199951171875 12.39000034332275
399.2300109863281 428.3299865722656 10.19999980926514
399.4200134277344 428.3200073242188 13.36999988555908
400.260009765625 428.0700073242188 10.90999984741211
399.5899963378906 427.4599914550781 9.710000038146973
399.7200012207031 427.3800048828125 8.050000190734863
400.489990234375 427.239990234375 11.92000007629395
400.0299987792969 427.4100036621094 16.65999984741211
400.1000061035156 427.3099975585938 10.22000026702881
400.6300048828125 427.2099914550781 10.56999969482422
400.5599975585938 427.260009765625 16.77000045776367
400.3200073242188 427.239990234375 8.180000305175781
400.7099914550781 426.4599914550781 8.489999771118164
400.1199951171875 426.5899963378906 8.479999542236328
399.5899963378906 426.7300109863281 8.659999847412109
399.0899963378906 426.8299865722656 8.770000457763672
398.5 427.010009765625 8.840000152587891
400.7099914550781 426.4800109863281 13.43000030517578
400.5499877929688 426.4800109863281 9.75
400 426.0199890136719 13.4399995803833
399.1099853515625 426.2200012207031 11.38000011444092
399.3900146484375 426.1300048828125 8.489999771118164
399.6300048828125 426.1300048828125 11.38000011444092
400.1600036621094 425.989990234375 11.40999984741211
400.5199890136719 425.8999938964844 13.52999973297119
398.8399963378906 426.2699890136719 8.829999923706055
400.6700134277344 425.1400146484375 11.27999973297119
400.7799987792969 425.2000122070312 15.65999984741211
403.5400085449219 432.0299987792969 8.989999771118164
403.010009765625 432.1499938964844 9.119999885559082
406.9299926757812 430.4700012207031 10.47000026702881
406.4200134277344 430.5899963378906 10.52000045776367
404.8699951171875 430.9500122070312 9.819999694824219
402.4599914550781 431.5400085449219 7.289999961853027
403.7699890136719 431.2799987792969 10.52999973297119
404.5 431.1000061035156 13.73999977111816
402.8200073242188 431.489990234375 8.850000381469727
402.9299926757812 431.4100036621094 7.420000076293945
404 431.2200012207031 13.8100004196167
403.3099975585938 431.3399963378906 9.180000305175781
405.4800109863281 430.2000122070312 12.55000019073486
404.3800048828125 430.4700012207031 13.60999965667725
405.1000061035156 430.2999877929688 16.46999931335449
406.2099914550781 430 10.69999980926514
407.3999938964844 429.6600036621094 9.060000419616699
406.760009765625 429.8200073242188 10.46000003814697
403.4400024414062 430.6900024414062 12.35999965667725
403.6600036621094 430.6600036621094 15.10999965667725
403.75 430.5799865722656 9.270000457763672
406.3800048828125 429.9500122070312 14.02000045776367
403.1799926757812 430.7200012207031 9.210000038146973
402.7300109863281 430.8299865722656 8.779999732971191
406.8599853515625 429.7999877929688 9.090000152587891
402.3299865722656 430.8999938964844 7.369999885559082
405.8599853515625 430.0899963378906 13.93000030517578
403.8099975585938 430.6499938964844 13.82999992370605
403.1700134277344 430.7900085449219 15.14000034332275
404.1000061035156 430.5199890136719 10.5
401.7900085449219 431.1499938964844 13.23999977111816
402.8299865722656 430.7999877929688 7.730000019073486
408.0799865722656 428.8099975585938 12.35999965667725
408.1600036621094 428.760009765625 11.40999984741211
405.2900085449219 429.5700073242188 19.22999954223633
404.4700012207031 429.739990234375 16.25
406.3299865722656 429.1900024414062 8.840000152587891
406.8999938964844 429.0400085449219 8.390000343322754
404.9800109863281 429.6300048828125 17.05999946594238
403.6799926757812 429.9299926757812 13.6899995803833
403.5299987792969 429.989990234375 14.89999961853027
405.2999877929688 429.5 13.64000034332275
405.8200073242188 429.3999938964844 13.65999984741211
406.1499938964844 429.25 10.47000026702881
403.0499877929688 430.1300048828125 14.81999969482422
407.5899963378906 428.9400024414062 12.27999973297119
404.5299987792969 429.6700134277344 10.72999954223633
402.8299865722656 430.1300048828125 10.85000038146973
402.6300048828125 430.1199951171875 7.960000038146973
400.8200073242188 430.6199951171875 10.53999996185303
401.3599853515625 430.4800109863281 10.52000045776367
402.9800109863281 430.0400085449219 9.340000152587891
403.2900085449219 430 12.30000019073486
404.2999877929688 429.7699890136719 13.31999969482422
400.9100036621094 430.6000061035156 9.460000038146973
402.1199951171875 430.3399963378906 13.10000038146973
403.5599975585938 429.9100036621094 9.470000267028809
401.8699951171875 430.3800048828125 10.56999969482422
401.6300048828125 430.4700012207031 13.0600004196167
408.010009765625 428.0299987792969 10.72999954223633
407.8399963378906 428.1000061035156 12.06999969482422
407.2699890136719 428.2699890136719 12.34000015258789
406.6799926757812 428.4400024414062 17.92000007629395
406.739990234375 428.3999938964844 12.32999992370605
406.8200073242188 428.4200134277344 16.76000022888184
405 428.8800048828125 19.23999977111816
403.6099853515625 429.2300109863281 17.45999908447266
404.5299987792969 429.0499877929688 18.92000007629395
406.1400146484375 428.6000061035156 17.84000015258789
403.3500061035156 429.2799987792969 14.8100004196167
406.1099853515625 428.4800109863281 8.180000305175781
404.260009765625 429.0299987792969 16.34000015258789
407.4299926757812 428.1600036621094 10.72000026702881
403.0199890136719 429.3200073242188 12.4399995803833
404.1700134277344 429.0700073242188 17.29000091552734
404.9400024414062 428.8599853515625 14.69999980926514
403.2900085449219 429.2099914550781 9.729999542236328
404.6900024414062 428.9800109863281 17.28000068664551
401.9400024414062 429.6000061035156 13.03999996185303
401.6600036621094 429.6499938964844 10.72999954223633
403.8699951171875 429.1300048828125 14.81999969482422
401.4400024414062 429.7099914550781 12.76000022888184
402.9700012207031 429.4500122070312 19.1299991607666
402.3500061035156 429.5799865722656 19.10000038146973
402.8299865722656 429.3900146484375 14.34000015258789
400.8200073242188 429.8200073242188 8.060000419616699
403.9700012207031 429.1099853515625 13.5
402.489990234375 429.4500122070312 13.06999969482422
401.1700134277344 429.7799987792969 9.869999885559082
401.0799865722656 429.7799987792969 10.48999977111816
406.1600036621094 427.8900146484375 16.85000038146973
405.5599975585938 428.0499877929688 17.80999946594238
407.3599853515625 427.5299987792969 10
404.75 428.2900085449219 20.19000053405762
404.2300109863281 428.4500122070312 20.04000091552734
405.0499877929688 428.1799926757812 17.45000076293945
404.3500061035156 428.3800048828125 18.78000068664551
407.8399963378906 427.3900146484375 10.60000038146973
407.4100036621094 427.5599975585938 15.02000045776367
403.6300048828125 428.5799865722656 20.70000076293945
403.9500122070312 428.4800109863281 17.34000015258789
403.1199951171875 428.6600036621094 14.76000022888184
406.3599853515625 427.8500061035156 14.96000003814697
403.2000122070312 428.6799926757812 19.57999992370605
402.2200012207031 428.8500061035156 13.11999988555908
406.8200073242188 427.7300109863281 15
403.0899963378906 428.7200012207031 20.92000007629395
402.6300048828125 428.8399963378906 20.02000045776367
401.739990234375 429.0700073242188 18.32999992370605
402.2099914550781 428.9100036621094 18.38999938964844
401.9400024414062 428.8900146484375 11.0600004196167
402.75 428.7799987792969 18.56999969482422
402.7099914550781 428.739990234375 13.18000030517578
403.4200134277344 428.5899963378906 17.43000030517578
402.0700073242188 428.8599853515625 9.720000267028809
401.6900024414062 428.9100036621094 8.090000152587891
402.4200134277344 428.7699890136719 11.02999973297119
401.1700134277344 429.0599975585938 8.069999694824219
401.7300109863281 429 12.90999984741211
403.1799926757812 428.7000122070312 20.05999946594238
401.5400085449219 429.0299987792969 10.02999973297119
404.0700073242188 428.4500122070312 16.54999923706055
406.0400085449219 427.9500122070312 17.67000007629395
405.1600036621094 428.1700134277344 16.3700008392334
401.510009765625 428.4800109863281 14.1899995803833
401.6900024414062 428.4200134277344 12.38000011444092
401.2099914550781 428.5499877929688 12.23999977111816
402.260009765625 428.260009765625 12.64000034332275
401.9800109863281 428.2900085449219 9.489999771118164
401.5599975585938 428.3999938964844 8.170000076293945
400.8399963378906 428.6199951171875 10.4399995803833
401.0499877929688 428.5 8
402.0899963378906 428.3500061035156 14.47000026702881
401.4599914550781 428.4200134277344 9.319999694824219
400.9400024414062 428.6099853515625 14.76000022888184
406.6900024414062 427.1400146484375 14.77999973297119
407.7200012207031 426.8800048828125 10.59000015258789
406.2099914550781 427.2799987792969 14.81999969482422
405.4100036621094 427.510009765625 17.56999969482422
406.1199951171875 427.239990234375 10.34000015258789
403.4800109863281 428.0299987792969 21.14999961853027
404.9100036621094 427.6499938964844 17.70000076293945
404 427.9100036621094 21.48999977111816
406.6300048828125 427.1400146484375 10.36999988555908
407.2999877929688 426.9100036621094 8.739999771118164
404.1300048828125 427.8900146484375 20.20999908447266
402.7000122070312 428.1400146484375 12.9399995803833
401.5499877929688 428.5499877929688 19.95000076293945
407.1199951171875 427.010009765625 10.39000034332275
402.5700073242188 428.260009765625 19.90999984741211
402.1799926757812 428.3399963378906 18.29999923706055
405.6400146484375 427.4299926757812 14.89999961853027
402.010009765625 428.4299926757812 19.90999984741211
403.0700073242188 428.1400146484375 20.20999908447266
403.75 427.9299926757812 18.46999931335449
406.5400085449219 427.1900024414062 11.72999954223633
407.1000061035156 427.1000061035156 16.63999938964844
406.5599975585938 426.5299987792969 16.27000045776367
405.9500122070312 426.7000122070312 17.5
406.4299926757812 426.5499877929688 17.67000007629395
407.3200073242188 426.2300109863281 8.829999923706055
404.739990234375 427 18.48999977111816
405.510009765625 426.7799987792969 16.30999946594238
403.4400024414062 427.3699951171875 21.14999961853027
406.0700073242188 426.6600036621094 16.35000038146973
403.8599853515625 427.2799987792969 22.34000015258789
403.3200073242188 427.4100036621094 22.3799991607666
403.760009765625 427.3200073242188 23.34000015258789
402.5499877929688 427.6099853515625 19.10000038146973
402.4500122070312 427.6000061035156 19.79999923706055
405.3900146484375 426.8500061035156 17.42000007629395
402.2900085449219 427.6000061035156 16.34000015258789
402.9500122070312 427.5 20.20999908447266
403.6799926757812 427.2699890136719 18.70999908447266
401.3800048828125 427.8099975585938 15.14000034332275
403.1199951171875 427.4299926757812 18.82999992370605
402.7799987792969 427.489990234375 16.72999954223633
401.760009765625 427.7699890136719 16.52000045776367
404.8099975585938 427 17.72999954223633
401.9800109863281 427.75 19.82999992370605
404.3399963378906 427.1400146484375 22.48999977111816
402.9400024414062 427.4599914550781 15.1899995803833
401.260009765625 427.8900146484375 16.38999938964844
401.9100036621094 427.6900024414062 15.14000034332275
403.5299987792969 427.3299865722656 20.18000030517578
400.8900146484375 427.9400024414062 15.18000030517578
407.8200073242188 425.3699951171875 12.39000034332275
407.2900085449219 425.5 12.32999992370605
406.760009765625 425.6300048828125 12.40999984741211
405.6700134277344 426.010009765625 18.17000007629395
406.1000061035156 425.8699951171875 18.95000076293945
405.6199951171875 426 18.81999969482422
404.6300048828125 426.239990234375 18.29999923706055
403.8399963378906 426.4800109863281 21.10000038146973
407.9100036621094 425.3500061035156 11.39000034332275
404.3299865722656 426.3699951171875 21.45000076293945
406.1799926757812 425.8500061035156 18.17000007629395
402.25 426.8399963378906 16.1299991607666
401.5499877929688 426.9700012207031 11.8100004196167
401.6499938964844 426.989990234375 16.36000061035156
403.3900146484375 426.5799865722656 20.20999908447266
401.25 427.0400085449219 9.840000152587891
405.1300048828125 426.1499938964844 18.39999961853027
403.25 426.6400146484375 21.65999984741211
401.4100036621094 427.1199951171875 19.20000076293945
404.1600036621094 426.3800048828125 17.46999931335449
401.9200134277344 426.9700012207031 19.13999938964844
400.7999877929688 427.1099853515625 8.439999580383301
401.1000061035156 427.0799865722656 11.30000019073486
402.8099975585938 426.739990234375 20.71999931335449
401.1000061035156 427.1400146484375 16.54000091552734
407.489990234375 424.7000122070312 9.420000076293945
407.7000122070312 424.7000122070312 12.34000015258789
406.1000061035156 425.1099853515625 12.56999969482422
405.7900085449219 425.2200012207031 15.98999977111816
404.75 425.5400085449219 20.82999992370605
405.5700073242188 425.2300109863281 12.60999965667725
404.25 425.6700134277344 20.69000053405762
406.4599914550781 424.9800109863281 9.010000228881836
402.1099853515625 426.2200012207031 20.19000053405762
406.989990234375 424.8200073242188 9.239999771118164
406.8599853515625 424.8699951171875 10.80000019073486
405.260009765625 425.3900146484375 15.89999961853027
402.5899963378906 426.0199890136719 15.44999980926514
403.0499877929688 425.9700012207031 21.69000053405762
401.25 426.4500122070312 19.18000030517578
403.7300109863281 425.7999877929688 20.45000076293945
402.0899963378906 426.1499938964844 15.60999965667725
401.7200012207031 426.2200012207031 14.02000045776367
404.2300109863281 425.6300048828125 15.51000022888184
401.1799926757812 426.2900085449219 8.479999542236328
402.6499938964844 426.0599975585938 20.1299991607666
401.6199951171875 426.3299865722656 20.20999908447266
402.3999938964844 426.1099853515625 17.20999908447266
403.2000122070312 425.9500122070312 20.01000022888184
401.75 426.2999877929688 18.77000045776367
404.760009765625 425.4800109863281 15.59000015258789
401.2900085449219 426.3699951171875 13.5600004196167
401.5799865722656 426.2799987792969 15.44999980926514
401.0899963378906 426.3299865722656 9.699999809265137
400.9400024414062 426.3999938964844 11.17000007629395
405.2000122070312 424.739990234375 14.71000003814697
405.6799926757812 424.5899963378906 14.90999984741211
404.2300109863281 424.9500122070312 13.85999965667725
404.5799865722656 424.8599853515625 10.60000038146973
406.7999877929688 424.25 9.180000305175781
405.1900024414062 424.6799926757812 9.029999732971191
402.5499877929688 425.489990234375 20.06999969482422
403.6900024414062 425.1000061035156 13.73999977111816
405.8299865722656 424.4800109863281 8.729999542236328
403.2099914550781 425.260009765625 18.42000007629395
402.1700134277344 425.5400085449219 18.54999923706055
404.6700134277344 424.8500061035156 14.27000045776367
403.4100036621094 425.2000122070312 16.56999969482422
401.7699890136719 425.5499877929688 11.39999961853027
404.0799865722656 425 15.3100004196167
400.8900146484375 425.8299865722656 15.43000030517578
402.5299987792969 425.4100036621094 15.13000011444092
402.6799926757812 425.4299926757812 18.69000053405762
401.2999877929688 425.6700134277344 11.15999984741211
406.3200073242188 424.3900146484375 8.75
402.0400085449219 425.4599914550781 8.770000457763672
402.6799926757812 425.3399963378906 13.64000034332275
402.0199890136719 425.5199890136719 14.67000007629395
401.0700073242188 425.75 13.5
403.3099975585938 425.2699890136719 17.64999961853027
401.3800048828125 425.7000122070312 15.47000026702881
402.5499877929688 424.7900085449219 18.79999923706055
402.75 424.6900024414062 16.69000053405762
402.1900024414062 424.7999877929688 11.84000015258789
401.9299926757812 424.8699951171875 14.56999969482422
403.1799926757812 424.5499877929688 12.39000034332275
402.6700134277344 424.6400146484375 12.18000030517578
402.0499877929688 424.8900146484375 18.70999908447266
401.4100036621094 425.0299987792969 14.52999973297119
402.6099853515625 424.75 17.84000015258789
402 424.7799987792969 8.539999961853027
406.7900085449219 423.5899963378906 8.800000190734863
406.2300109863281 423.7300109863281 8.789999961853027
404.1099853515625 424.2900085449219 13.60999965667725
404.6600036621094 424.1600036621094 13.59000015258789
403.6300048828125 424.4200134277344 13.02999973297119
403.2900085449219 424.5700073242188 16.6200008392334
404.2999877929688 424.25 11.5600004196167
405.7000122070312 423.8299865722656 8.600000381469727
405.1300048828125 424.010009765625 9.149999618530273
405.0299987792969 423.3500061035156 13.85999965667725
404.510009765625 423.4599914550781 13.75
403.489990234375 423.7099914550781 13
403.2099914550781 423.75 10.89000034332275
404.7300109863281 423.3699951171875 11.63000011444092
403.0599975585938 423.7999877929688 12.40999984741211
404.0400085449219 423.5899963378906 13.22000026702881
402.1600036621094 424.0499877929688 10.72999954223633
402.6199951171875 423.9800109863281 17.05999946594238
401.2900085449219 424.2200012207031 8.560000419616699
404.2000122070312 423.489990234375 11.34000015258789
401.260009765625 424.3200073242188 14.40999984741211
402.510009765625 423.9400024414062 12.25
401.7999877929688 424.1099853515625 8.859999656677246
402.3699951171875 423.9299926757812 8.520000457763672
404.0400085449219 422.7999877929688 11.18000030517578
404.510009765625 422.7099914550781 11.65999984741211
405.0899963378906 422.5799865722656 11.77999973297119
402.3900146484375 423.239990234375 12.3100004196167
403.2900085449219 423.0400085449219 13.13000011444092
402.239990234375 423.25 8.350000381469727
402.8999938964844 423.1499938964844 12.44999980926514
401.1600036621094 423.5499877929688 8.890000343322754
402.5400085449219 423.1799926757812 10.78999996185303
402.6400146484375 423.1700134277344 9.470000267028809
402.0400085449219 423.3200073242188 10.69999980926514
403.2300109863281 423.0199890136719 9.119999885559082
402.5299987792969 422.5199890136719 9.310000419616699
401.489990234375 422.7699890136719 9.340000152587891
402.0199890136719 422.6300048828125 9.300000190734863
400.8999938964844 422.9400024414062 9.220000267028809
400.8299865722656 424.5700073242188 14.42000007629395
400.1799926757812 425.5199890136719 11.17000007629395
400.6300048828125 425.3299865722656 15.81999969482422
398.6799926757812 425.8900146484375 11.53999996185303
400.7699890136719 425.3599853515625 11.25
399.1799926757812 425.7799987792969 11.43000030517578
399.6799926757812 425.6199951171875 11.31999969482422
398.7000122070312 426.6700134277344 8.810000419616699
400.8800048828125 426.0799865722656 11.46000003814697
400.1900024414062 426.2799987792969 13.38000011444092
399.75 426.4100036621094 11.22000026702881
399.1900024414062 426.5499877929688 8.689999580383301
400.7699890136719 426.0799865722656 13.61999988555908
399.3399963378906 427.2300109863281 8.569999694824219
399.8999938964844 427.1000061035156 8.529999732971191
399.9500122070312 427.5799865722656 16.70999908447266
400.4700012207031 427.4500122070312 16.75
399.0899963378906 428.5599975585938 10.22000026702881
400.1099853515625 428.2200012207031 15.10999965667725
400.7000122070312 428.0799865722656 15.14000034332275
401.6000061035156 423.0599975585938 8.539999961853027
401.2300109863281 423.1799926757812 9.119999885559082
402.3900146484375 422.8500061035156 9.439999580383301
401.989990234375 422.9400024414062 10.51000022888184
402.8599853515625 422.7300109863281 9.229999542236328
401.2000122070312 423.8900146484375 8.760000228881836
402.760009765625 423.510009765625 10.57999992370605
403.0299987792969 423.4500122070312 9.350000381469727
401.8299865722656 423.7300109863281 8.949999809265137
402.489990234375 423.5599975585938 9.369999885559082
404.0299987792969 423.1199951171875 11.60999965667725
402.2300109863281 423.6600036621094 8.189999580383301
402.1900024414062 423.6099853515625 10.8100004196167
404.6300048828125 422.9800109863281 11.60000038146973
402.5199890136719 423.5199890136719 12.30000019073486
403.25 423.3200073242188 13.09000015258789
403.2999877929688 423.9500122070312 12.97000026702881
404.5499877929688 423.6300048828125 13.76000022888184
403.4100036621094 423.9400024414062 10.88000011444092
403.9700012207031 423.8500061035156 8.050000190734863
402.9100036621094 424.0799865722656 10.93000030517578
401.8900146484375 424.3699951171875 8.600000381469727
404.1099853515625 423.7900085449219 11.52000045776367
404.4400024414062 423.7200012207031 7.809999942779541
406.25 423.2699890136719 8.800000190734863
403.8299865722656 423.8399963378906 12.94999980926514
405.0799865722656 423.5799865722656 8.020000457763672
404.6400146484375 423.6199951171875 11.47999954223633
405.1300048828125 423.4800109863281 13.78999996185303
403.2000122070312 424.0499877929688 9.649999618530273
406.8599853515625 423.1000061035156 9
402.5400085449219 424.1099853515625 17.04000091552734
401.3900146484375 424.4299926757812 14.39000034332275
402.6499938964844 424.1300048828125 12.27000045776367
401.4200134277344 425.1499938964844 14.52000045776367
401.9500122070312 425.0299987792969 14.35999965667725
401.9500122070312 425.0400085449219 11.77999973297119
403.489990234375 424.5799865722656 16.54000091552734
404.0799865722656 424.489990234375 11.47999954223633
403.010009765625 424.75 16.8700008392334
403.3399963378906 424.6700134277344 13.15999984741211
402.6000061035156 424.8599853515625 12.15999984741211
404.0799865722656 424.5599975585938 8.449999809265137
404.5599975585938 424.4100036621094 8.310000419616699
405.2000122070312 424.2300109863281 8.680000305175781
405.7900085449219 424.0899963378906 8.670000076293945
404.2900085449219 424.5 9.520000457763672
402.6600036621094 424.7999877929688 17.84000015258789
404.6000061035156 424.3599853515625 11.15999984741211
404.4800109863281 424.3699951171875 13.42000007629395
406.9100036621094 423.8099975585938 8.659999847412109
402.8800048828125 424.7999877929688 13.56999969482422
405.2999877929688 424.239990234375 9.189999580383301
402.2999877929688 424.8699951171875 18.71999931335449
406.3299865722656 423.9400024414062 8.619999885559082
401.1700134277344 425.9700012207031 15.43000030517578
402.6600036621094 425.5299987792969 20
401.6900024414062 425.8500061035156 15.44999980926514
402.739990234375 425.5499877929688 17.71999931335449
401.3299865722656 425.9500122070312 13.52000045776367
402.0899963378906 425.75 14.57999992370605
402.1600036621094 425.6900024414062 20.22999954223633
403.2300109863281 425.4299926757812 17.47999954223633
402.9700012207031 425.489990234375 18.63999938964844
403.6000061035156 425.2999877929688 19.28000068664551
404.8800048828125 425.0199890136719 14.60000038146973
403.5899963378906 425.3399963378906 16.47999954223633
405.1499938964844 424.9599914550781 15.90999984741211
404.6900024414062 425.1400146484375 10.85000038146973
406.0499877929688 424.739990234375 15.0600004196167
404.489990234375 425.1000061035156 15.3100004196167
403.1199951171875 425.5199890136719 14.02000045776367
402.3599853515625 425.6099853515625 18.67000007629395
405.4599914550781 424.8800048828125 14.89000034332275
404.760009765625 425.1499938964844 8.680000305175781
403.739990234375 425.260009765625 20.14999961853027
403.6400146484375 425.3399963378906 13.89999961853027
403.9800109863281 425.2699890136719 15.46000003814697
406.4700012207031 424.6900024414062 9.130000114440918
407.0700073242188 424.5499877929688 9.170000076293945
405.7300109863281 424.9200134277344 8.119999885559082
405.3299865722656 424.9599914550781 8.989999771118164
405.4599914550781 424.9200134277344 12.38000011444092
404.2699890136719 425.1799926757812 14.23999977111816
406.1300048828125 424.7200012207031 12.8100004196167
404.2099914550781 425.2300109863281 11.32999992370605
400.9700012207031 426.6499938964844 19.3700008392334
402.2799987792969 426.2999877929688 20.21999931335449
401.5400085449219 426.5400085449219 19.21999931335449
403.3599853515625 426.0299987792969 20.31999969482422
404.5400085449219 425.75 20.79000091552734
403.5499877929688 426.0299987792969 16.03000068664551
403.8399963378906 425.9599914550781 14.69999980926514
404.4400024414062 425.7900085449219 17.52000045776367
405.7099914550781 425.4800109863281 15.82999992370605
404.0499877929688 425.9400024414062 15.52999973297119
403.1099853515625 426.0700073242188 21.6299991607666
405.5899963378906 425.5499877929688 12.52000045776367
401.7200012207031 426.4500122070312 20.27000045776367
405.4400024414062 425.6199951171875 9.119999885559082
406.1700134277344 425.4299926757812 12.53999996185303
404.6000061035156 425.760009765625 15.77000045776367
406.5799865722656 425.3299865722656 9.210000038146973
404.9200134277344 425.760009765625 9.239999771118164
407.7900085449219 424.9800109863281 12.38000011444092
406.7000122070312 425.2699890136719 12.42000007629395
404.989990234375 425.6900024414062 12.38000011444092
406.2999877929688 425.3900146484375 10.55000019073486
405.75 425.5599975585938 10.47000026702881
408.1799926757812 424.8900146484375 11.48999977111816
403.9400024414062 425.9400024414062 17.92000007629395
407.1700134277344 425.1300048828125 12.27000045776367
407.75 425.0400085449219 9.279999732971191
403.0899963378906 426.1700134277344 13.86999988555908
402.7900085449219 426.2000122070312 20.13999938964844
406.8900146484375 425.260009765625 10.69999980926514
405.1600036621094 425.6300048828125 15.85999965667725
407.2200012207031 425.1700134277344 9.460000038146973
402.4200134277344 426.8900146484375 20.89999961853027
401.0499877929688 427.3099975585938 16.76000022888184
402.9500122070312 426.7699890136719 20.63999938964844
403.1600036621094 426.6799926757812 21.84000015258789
403.3800048828125 426.6099853515625 20.45000076293945
403.6600036621094 426.5599975585938 19.15999984741211
401.5199890136719 427.1400146484375 19.19000053405762
403.8800048828125 426.5599975585938 17.35000038146973
404.0899963378906 426.4500122070312 18.53000068664551
402.0799865722656 427 19.25
403.6400146484375 426.5599975585938 21.70999908447266
404.5599975585938 426.3500061035156 17.8700008392334
405.1600036621094 426.2099914550781 18.40999984741211
405.4599914550781 426.2000122070312 11.23999977111816
404.0499877929688 426.4400024414062 21.02000045776367
405.8299865722656 426.0299987792969 16.1200008392334
407.2200012207031 425.7300109863281 12.26000022888184
405.2000122070312 426.2799987792969 12.80000019073486
405.8599853515625 426.010009765625 18.81999969482422
406.2799987792969 425.9800109863281 12.89999961853027
401.510009765625 427.1799926757812 16.70000076293945
406.5599975585938 425.9299926757812 9.020000457763672
407.510009765625 425.6700134277344 10.97999954223633
406.2699890136719 425.9400024414062 18.07999992370605
406.8399963378906 425.8200073242188 12.85999965667725
407.75 425.6400146484375 9.270000457763672
407.0700073242188 425.8399963378906 8.630000114440918
404.6799926757812 426.3099975585938 18.53000068664551
402.6300048828125 426.8699951171875 19.10000038146973
405.7200012207031 426.1300048828125 12.65999984741211
405.7099914550781 426.0499877929688 18.18000030517578
407.1700134277344 426.5 9.029999732971191
406.5299987792969 426.6300048828125 8.970000267028809
406.2999877929688 426.7000122070312 10.40999984741211
405.7200012207031 426.8399963378906 10.19999980926514
407.7099914550781 426.3200073242188 9.140000343322754
406.1700134277344 426.7099914550781 12.47000026702881
401.489990234375 427.8399963378906 16.45999908447266
401.239990234375 427.9599914550781 15.10999965667725
404.1900024414062 427.1300048828125 18.51000022888184
403.8399963378906 427.1700134277344 22.26000022888184
402.5700073242188 427.5599975585938 18.8700008392334
403.6900024414062 427.2799987792969 18.6299991607666
404.1799926757812 427.0899963378906 21.20000076293945
405.5199890136719 426.8200073242188 17.43000030517578
402.8099975585938 427.5 19.8799991607666
405.8699951171875 426.739990234375 16.3700008392334
403.989990234375 427.1900024414062 20.11000061035156
405.0199890136719 426.9200134277344 17.52000045776367
406.9400024414062 426.4599914550781 16.30999946594238
404.6900024414062 427 18.3700008392334
406.1300048828125 426.6300048828125 17.60000038146973
405.6799926757812 426.8099975585938 12.71000003814697
403.2900085449219 427.3099975585938 22.34000015258789
406.4299926757812 426.6099853515625 16.31999969482422
405.3200073242188 426.8900146484375 16.23999977111816
402.3599853515625 428.3200073242188 19.95999908447266
403.989990234375 427.9200134277344 20.21999931335449
405.3399963378906 427.5899963378906 16.06999969482422
402.9100036621094 428.2099914550781 20.04000091552734
404.6300048828125 427.7799987792969 17.93000030517578
405.7799987792969 427.489990234375 15.25
403.3500061035156 428.0799865722656 19.42000007629395
405.1099853515625 427.6400146484375 17.63999938964844
406.760009765625 427.25 14.69999980926514
406.7000122070312 427.3099975585938 11.68000030517578
406.4599914550781 427.3699951171875 10.5
406.2200012207031 427.4299926757812 14.77000045776367
405.6199951171875 427.5299987792969 17.46999931335449
407.1400146484375 427.1499938964844 16.6200008392334
405.989990234375 427.5 10.77000045776367
405.7200012207031 427.5799865722656 12.25
406.2300109863281 427.4500122070312 12.13000011444092
407.6600036621094 427.1099853515625 10.77999973297119
401.7799987792969 428.4700012207031 19.90999984741211
404.8200073242188 427.6600036621094 21.34000015258789
404.3299865722656 427.8399963378906 18.79999923706055
407.0599975585938 427.2200012207031 10.5
403.7300109863281 427.9500122070312 21.29999923706055
403.1000061035156 428.7999877929688 20.90999984741211
403.6600036621094 428.6799926757812 20.70999908447266
402.3900146484375 428.989990234375 20.04000091552734
402.0799865722656 429.1499938964844 13.09000015258789
402.9200134277344 428.8599853515625 20.04000091552734
404.6199951171875 428.3999938964844 20.13999938964844
402.0400085449219 429.1000061035156 18.35000038146973
403.4700012207031 428.739990234375 17.32999992370605
403.3200073242188 428.739990234375 19.15999984741211
404.8999938964844 428.3500061035156 18.76000022888184
404.0799865722656 428.5499877929688 20.20999908447266
401.5199890136719 429.25 18.38999938964844
405.260009765625 428.2999877929688 17.78000068664551
405.0199890136719 428.4400024414062 11.11999988555908
402.7799987792969 428.8800048828125 19.27000045776367
402.3699951171875 429.0899963378906 14.43000030517578
404.6000061035156 428.4800109863281 14.47000026702881
405.7999877929688 428.1199951171875 17.81999969482422
406.6300048828125 427.9599914550781 16.70999908447266
406.3099975585938 428.0499877929688 12.48999977111816
405.3900146484375 428.3399963378906 10.56999969482422
406.3099975585938 428 17.6299991607666
402.8699951171875 428.9400024414062 14.46000003814697
406.1499938964844 428.0599975585938 16.72999954223633
406.7999877929688 427.9299926757812 12.09000015258789
407.0400085449219 427.9100036621094 10.61999988555908
406.8200073242188 427.8999938964844 15
407.4100036621094 427.7699890136719 15.15999984741211
405.8099975585938 428.1900024414062 12.51000022888184
408.0400085449219 427.6600036621094 10.14999961853027
404.3999938964844 428.510009765625 16.20000076293945
406.260009765625 428.0799865722656 14.65999984741211
407.4700012207031 427.7799987792969 9.899999618530273
402.6499938964844 429.0199890136719 13.15999984741211
405.0199890136719 428.4800109863281 8.569999694824219
406.5700073242188 428.0299987792969 10.98999977111816
402.2999877929688 429.6300048828125 19.11000061035156
402.7799987792969 429.5199890136719 19.02000045776367
401.6099853515625 429.8800048828125 13.17000007629395
403.5199890136719 429.3399963378906 17.5
405.2099914550781 428.8599853515625 20.35000038146973
404.0299987792969 429.2000122070312 17.27000045776367
402.5799865722656 429.6199951171875 12.85000038146973
404.2900085449219 429.2099914550781 13.0600004196167
402.1499938964844 429.760009765625 13.17000007629395
403.2699890136719 429.3900146484375 18.82999992370605
405.1799926757812 428.9599914550781 14.65999984741211
405.4200134277344 428.8999938964844 13.47000026702881
405.4700012207031 428.7999877929688 18.93000030517578
404.6300048828125 429.0499877929688 17.39999961853027
404.9700012207031 429.0599975585938 11.02000045776367
404.9800109863281 428.9299926757812 19.22999954223633
403.5 429.3800048828125 14.85000038146973
405.2300109863281 428.9400024414062 12.47000026702881
406.6300048828125 428.5499877929688 16.73999977111816
406.8800048828125 428.5199890136719 12.31999969482422
405.5899963378906 428.8999938964844 8.739999771118164
405.4800109863281 428.8999938964844 10.9399995803833
404.9500122070312 429 13.67000007629395
407.3900146484375 428.3800048828125 12.28999996185303
407.7200012207031 428.3299865722656 10.92000007629395
405.0400085449219 428.9400024414062 16.89999961853027
406.3599853515625 428.6300048828125 17.92000007629395
403.8399963378906 429.3500061035156 10.81999969482422
407.9100036621094 428.260009765625 11.96000003814697
406.1700134277344 428.7699890136719 8.840000152587891
402.989990234375 429.5199890136719 14.93000030517578
407.260009765625 428.3999938964844 16.85000038146973
401.5799865722656 430.6099853515625 13.15999984741211
401.010009765625 430.75 10.56999969482422
401.2999877929688 430.7000122070312 9.449999809265137
401.5400085449219 430.6499938964844 10.46000003814697
402.0700073242188 430.4599914550781 13.07999992370605
403.010009765625 430.2200012207031 15.06999969482422
403.8800048828125 429.9800109863281 13.6899995803833
404.5400085449219 429.7999877929688 16.88999938964844
403.5700073242188 430.0700073242188 14.90999984741211
403.489990234375 430.1600036621094 9.189999580383301
404.9299926757812 429.6700134277344 16.45000076293945
402.3399963378906 430.3900146484375 11.9399995803833
404.2699890136719 429.8900146484375 13.06999969482422
406.0299987792969 429.4400024414062 13.43000030517578
406.4700012207031 429.3699951171875 10.35000038146973
406.760009765625 429.2999877929688 8.920000076293945
404.3599853515625 429.9200134277344 10.60999965667725
407.6700134277344 429.0400085449219 10.85000038146973
405.5499877929688 429.5400085449219 13.80000019073486
403.7900085449219 430.0700073242188 10.67000007629395
406.1799926757812 429.4400024414062 8.810000419616699
405.8200073242188 429.5199890136719 12.35999965667725
407.9400024414062 428.9500122070312 12.23999977111816
405.5199890136719 429.5299987792969 19.25
405.5400085449219 429.5700073242188 10.94999980926514
407.4200134277344 429.1099853515625 12.35000038146973
403.2000122070312 430.8900146484375 15.18000030517578
403.0899963378906 431 9.220000267028809
403.6799926757812 430.7699890136719 15
404.1900024414062 430.6600036621094 12.1899995803833
403.5 430.8900146484375 8.979999542236328
403.8299865722656 430.7699890136719 10.55000019073486
401.6799926757812 431.3200073242188 13.35999965667725
404.3299865722656 430.6600036621094 10.30000019073486
406.0499877929688 430.2099914550781 10.64999961853027
405.6600036621094 430.2900085449219 13.9399995803833
406.6000061035156 430.0599975585938 10.47000026702881
403.9800109863281 430.6900024414062 13.75
403.489990234375 430.8399963378906 13.89000034332275
406.1799926757812 430.1099853515625 14.01000022888184
404.8099975585938 430.5400085449219 9.909999847412109
405.8999938964844 430.239990234375 12.67000007629395
405.0499877929688 430.4100036621094 16.38999938964844
407.3900146484375 429.8699951171875 9.060000419616699
403.0799865722656 431.6700134277344 9.069999694824219
403.8900146484375 431.4500122070312 10.47999954223633
404 431.3900146484375 13.77999973297119
403.5799865722656 431.5400085449219 9.039999961853027
404.9100036621094 431.2000122070312 9.789999961853027
402.6900024414062 431.7799987792969 7.289999961853027
406.7000122070312 430.7200012207031 10.51000022888184
403.6900024414062 432.1199951171875 8.909999847412109
400.3999938964844 427.3900146484375 16.75
400.5499877929688 426.0199890136719 13.61999988555908
400.4100036621094 425.3800048828125 16.03000068664551
400.6900024414062 425.260009765625 11.22000026702881
400.9599914550781 424.4299926757812 14.5600004196167
403.2799987792969 432.2300109863281 9.210000038146973
406.9200134277344 430.5799865722656 10.43000030517578
406.4500122070312 430.7099914550781 10.76000022888184
403.5700073242188 431.4299926757812 8.930000305175781
403.75 431.4100036621094 10.61999988555908
404.2900085449219 431.2799987792969 10.30000019073486
404.739990234375 431.1799926757812 9.869999885559082
402.7900085449219 431.6199951171875 7.360000133514404
404.010009765625 431.3800048828125 13.81999969482422
403.510009765625 430.8500061035156 9.130000114440918
402.7200012207031 431.0299987792969 7.559999942779541
404.3699951171875 430.6799926757812 13.52000045776367
403.8800048828125 430.7999877929688 13.86999988555908
403.2900085449219 430.9800109863281 15.34000015258789
401.6600036621094 431.4200134277344 13.39999961853027
404.239990234375 430.7000122070312 10.5
402.9800109863281 431.010009765625 9.359999656677246
403.8299865722656 430.8599853515625 15.10000038146973
407.3399963378906 429.8500061035156 8.739999771118164
407.0499877929688 429.9599914550781 9.359999656677246
406.8099975585938 430.010009765625 10.31999969482422
406.0499877929688 430.2900085449219 14.13000011444092
406.0499877929688 430.260009765625 12.69999980926514
406.3599853515625 430.1300048828125 10.72000026702881
404.7000122070312 430.5799865722656 10.01000022888184
406.9500122070312 429.25 8.25
406.6300048828125 429.3399963378906 8.939999580383301
406.5899963378906 429.3699951171875 10.30000019073486
407.6300048828125 429.1099853515625 10.9399995803833
405.6099853515625 429.6099853515625 11
405.7300109863281 429.6199951171875 12.47000026702881
406.1000061035156 429.4700012207031 10.65999984741211
405.0400085449219 429.8200073242188 16.27000045776367
403.7900085449219 430.1099853515625 12.57999992370605
401.489990234375 430.7099914550781 13.22999954223633
407.6600036621094 429.1099853515625 12.34000015258789
403.6199951171875 430.1700134277344 14.89000034332275
406.3099975585938 429.489990234375 12.35000038146973
405.7300109863281 429.6400146484375 13.77999973297119
402.9599914550781 430.3099975585938 9.449999809265137
402.1099853515625 430.5799865722656 13.0600004196167
403.1499938964844 430.3099975585938 15.13000011444092
403.2099914550781 430.1799926757812 7.480000019073486
403.7099914550781 430.1600036621094 13.65999984741211
404.1900024414062 430 13.39999961853027
408.1199951171875 428.2200012207031 10.76000022888184
403.760009765625 429.2799987792969 8.800000190734863
406.8500061035156 428.5599975585938 12.40999984741211
407.9800109863281 428.2300109863281 11.97000026702881
405.3299865722656 428.9800109863281 14.68000030517578
404.9400024414062 429.0499877929688 11.09000015258789
405.3399963378906 428.9299926757812 11.85999965667725
404.8099975585938 429.0700073242188 13.67000007629395
405.0700073242188 428.989990234375 12.72000026702881
407.5499877929688 428.3699951171875 11.02999973297119
402.5700073242188 429.6400146484375 11.84000015258789
404.739990234375 429.1700134277344 17.36000061035156
405.5499877929688 428.9500122070312 19.02000045776367
404.0799865722656 429.3099975585938 13.38000011444092
404.9299926757812 429.1199951171875 19.26000022888184
403.1799926757812 429.4599914550781 7.559999942779541
403.5799865722656 429.3900146484375 13.85999965667725
405.8900146484375 428.760009765625 10.48999977111816
404.7799987792969 429.1099853515625 16.21999931335449
406.3399963378906 428.760009765625 17.89999961853027
402.3800048828125 429.8200073242188 19.25
403.4599914550781 429.4700012207031 17.56999969482422
405.4599914550781 428.9100036621094 10.89000034332275
404.0400085449219 429.3599853515625 17.42000007629395
405.4500122070312 428.9200134277344 13.40999984741211
405.1799926757812 429.0299987792969 16.95000076293945
407.489990234375 428.3900146484375 12.22000026702881
407.010009765625 427.75 10.36999988555908
406.1700134277344 427.9500122070312 8.699999809265137
406.5 427.8999938964844 10.80000019073486
406.5299987792969 427.9100036621094 12.23999977111816
405.7000122070312 428.0799865722656 7.75
407.260009765625 427.760009765625 15.0600004196167
406.4299926757812 427.9700012207031 14.6899995803833
406.0299987792969 428.0899963378906 17.70000076293945
405.4100036621094 428.25 17.81999969482422
404.8500061035156 428.3399963378906 12.77000045776367
404.8599853515625 428.3399963378906 11.56999969482422
406.1799926757812 428.0700073242188 16.77000045776367
404.6600036621094 428.4700012207031 20.23999977111816
407.6000061035156 427.6300048828125 10.28999996185303
406.0299987792969 428.0599975585938 12.55000019073486
403.4100036621094 428.7799987792969 19.04999923706055
404.25 428.5499877929688 16.75
406.75 427.8900146484375 16.56999969482422
402.8800048828125 428.9599914550781 19.29000091552734
404.5899963378906 428.4299926757812 13.60000038146973
405.2999877929688 428.2999877929688 18.82999992370605
401.6900024414062 429.2300109863281 18.40999984741211
404.7099914550781 428.4800109863281 19.1200008392334
405.2300109863281 428.2099914550781 11.03999996185303
403.6099853515625 428.75 20.81999969482422
404.5199890136719 428.5 17.36000061035156
403.239990234375 428.8800048828125 20.05999946594238
403.010009765625 428.9100036621094 20.98999977111816
404.4800109863281 428.4700012207031 16
402.5599975585938 429.0299987792969 20.07999992370605
406.8299865722656 427.1799926757812 11.59000015258789
406.2900085449219 427.2999877929688 10.51000022888184
407.6300048828125 426.989990234375 10.51000022888184
407.010009765625 427.2000122070312 14.57999992370605
405.8299865722656 427.4299926757812 10.9399995803833
406.4200134277344 427.3299865722656 14.68000030517578
405.260009765625 427.6499938964844 16.3700008392334
405.4400024414062 427.5799865722656 15.47000026702881
407.3599853515625 427.010009765625 8.720000267028809
406.8999938964844 427.1600036621094 10.39999961853027
406.3500061035156 427.3099975585938 11.97000026702881
405.8500061035156 427.4599914550781 14.85999965667725
405.3999938964844 427.6000061035156 12.6899995803833
405.7999877929688 427.4800109863281 12.14999961853027
403.7799987792969 428.0599975585938 20.19000053405762
402.9599914550781 428.3200073242188 21.03000068664551
404.4100036621094 427.8999938964844 18.75
404.6700134277344 427.8099975585938 17.88999938964844
403.1900024414062 428.260009765625 20.20999908447266
402.3500061035156 428.4299926757812 19.90999984741211
405.1600036621094 427.6799926757812 17.48999977111816
403.3599853515625 428.1700134277344 19.34000015258789
403.7099914550781 428.1300048828125 21.19000053405762
404.4100036621094 427.9299926757812 20.1299991607666
403.7300109863281 428.0700073242188 18.78000068664551
401.8200073242188 428.6099853515625 19.98999977111816
403.5899963378906 427.4599914550781 22.51000022888184
403.6700134277344 427.3699951171875 20.11000061035156
404.1900024414062 427.260009765625 22.3700008392334
402.2999877929688 427.760009765625 19.96999931335449
403.5 427.4500122070312 21.01000022888184
406.6600036621094 426.4800109863281 8.869999885559082
405.8699951171875 426.6900024414062 8.710000038146973
406.3200073242188 426.5899963378906 9.640000343322754
407.3800048828125 426.2799987792969 8.939999580383301
405.7799987792969 426.7699890136719 12.53999996185303
407.0400085449219 426.3699951171875 9.619999885559082
406.3299865722656 426.6900024414062 17.61000061035156
405.7000122070312 426.7999877929688 16.34000015258789
406.25 426.6099853515625 10.69999980926514
405.0199890136719 426.989990234375 17.54999923706055
405.6300048828125 426.8599853515625 17.44000053405762
405.6099853515625 426.75 10.85999965667725
405.1000061035156 427 16.31999969482422
405.2699890136719 426.8800048828125 12.93000030517578
402.5899963378906 427.6400146484375 16.70999908447266
404.25 427.2300109863281 21.26000022888184
404.739990234375 427.0700073242188 18.28000068664551
406.3900146484375 426.6499938964844 16.29999923706055
403.6199951171875 427.3599853515625 18.72999954223633
406.9200134277344 426.489990234375 16.19000053405762
404.2200012207031 427.2200012207031 18.51000022888184
404.260009765625 427.239990234375 19.98999977111816
407.5599975585938 425.4700012207031 11.14999961853027
405.5499877929688 426.010009765625 12.35000038146973
407.4800109863281 425.5 12.22000026702881
405.25 426.0899963378906 13.07999992370605
406.5799865722656 425.7200012207031 9.119999885559082
407.9200134277344 425.3699951171875 9.260000228881836
404.3200073242188 426.3399963378906 12.51000022888184
404.9299926757812 426.1700134277344 12.46000003814697
404.3099975585938 426.2999877929688 9.909999847412109
404.3599853515625 426.3599853515625 13.89999961853027
406.4200134277344 425.8599853515625 17.90999984741211
403.9500122070312 426.5400085449219 18.40999984741211
403.8399963378906 426.4700012207031 12.8100004196167
402.9400024414062 426.7999877929688 20.43000030517578
403.5299987792969 426.6400146484375 19.03000068664551
404.6499938964844 426.3200073242188 18.51000022888184
403.1300048828125 426.7699890136719 22.03000068664551
406.8999938964844 425.6700134277344 12.39000034332275
406.4100036621094 425.8299865722656 12.77999973297119
404.0599975585938 426.489990234375 17.26000022888184
403.5700073242188 426.6799926757812 21.70000076293945
402.5299987792969 426.9200134277344 20.92000007629395
405.1099853515625 426.1900024414062 15.28999996185303
404.1099853515625 426.5 20.15999984741211
405.8500061035156 426.010009765625 18.20000076293945
405.3800048828125 426.1300048828125 18.6200008392334
403.9400024414062 426.5499877929688 21.06999969482422
403.5199890136719 425.8599853515625 16.67000007629395
403.6199951171875 425.8200073242188 15.55000019073486
402.7999877929688 426.0299987792969 13.85000038146973
403.4200134277344 425.9200134277344 19.09000015258789
403.3099975585938 425.9500122070312 17.56999969482422
403.3900146484375 425.9500122070312 20.29000091552734
402.0700073242188 426.2799987792969 20.29999923706055
404.1700134277344 425.7699890136719 20.55999946594238
402.6400146484375 426.1099853515625 14.96000003814697
402.6499938964844 426.1799926757812 20.15999984741211
407.2900085449219 424.8099975585938 10.88000011444092
406.3699951171875 425.0400085449219 9.029999732971191
406.3399963378906 425.0499877929688 10.32999992370605
404.9700012207031 425.3999938964844 9
405.7000122070312 425.2300109863281 10.47999954223633
405.3999938964844 425.3299865722656 12.52999973297119
407.2300109863281 424.8500061035156 9.359999656677246
404.1700134277344 425.6600036621094 11.35999965667725
404.5400085449219 425.5499877929688 10.85000038146973
405.0700073242188 425.4599914550781 14.65999984741211
407.7099914550781 424.7300109863281 9.140000343322754
405.6099853515625 425.2300109863281 8.869999885559082
405.7699890136719 425.3099975585938 15.94999980926514
404.7200012207031 425.510009765625 12.51000022888184
403.4400024414062 425.8399963378906 11.43000030517578
405.9200134277344 425.1300048828125 8.170000076293945
406.0700073242188 425.1499938964844 12.47000026702881
