132.0399932861328 13.90999984741211 7.28000020980835
131.9299926757812 13.36999988555908 7.550000190734863
131.9199981689453 13.11999988555908 4.889999866485596
132.1900024414062 14.53999996185303 8.229999542236328
132.1999969482422 14.39000034332275 7.03000020980835
131.8000030517578 12.77999973297119 6.989999771118164
132.5200042724609 15.8100004196167 10.56999969482422
132.3800048828125 15.19999980926514 9.369999885559082
132.4299926757812 15.3100004196167 6.059999942779541
132.1000061035156 14.27999973297119 10.85000038146973
132.6199951171875 16.28000068664551 9.850000381469727
132.6100006103516 16.18000030517578 8.920000076293945
132.5899963378906 16.04999923706055 7.760000228881836
132.6300048828125 16.38999938964844 10.59000015258789
132.0800018310547 14.0600004196167 8.989999771118164
132.3099975585938 14.96000003814697 7.079999923706055
132.6900024414062 16.44000053405762 6.079999923706055
132.7200012207031 16.59000015258789 7.639999866485596
132.8200073242188 16.97999954223633 5.949999809265137
132.4900054931641 15.64000034332275 9.020000457763672
132.8500061035156 17.14999961853027 7.619999885559082
132.5599975585938 15.85999965667725 5.940000057220459
132.4799957275391 15.52000045776367 7.659999847412109
132.0099945068359 13.72000026702881 10.51000022888184
131.3200073242188 13.5 7.670000076293945
131.4900054931641 14.34000015258789 10.1899995803833
131.8399963378906 15.64000034332275 7.119999885559082
131.8200073242188 15.51000022888184 5.949999809265137
131.7200012207031 15.11999988555908 7.059999942779541
131.3099975585938 13.31999969482422 6
131.6000061035156 14.53999996185303 7.059999942779541
132.1699981689453 16.95999908447266 10.15999984741211
132.2599945068359 17.21999931335449 7.650000095367432
132.2299957275391 16.98999977111816 5.599999904632568
132.0200042724609 16.48999977111816 10.39999961853027
131.9400024414062 16.06999969482422 11.06999969482422
132.25 17.11000061035156 6.590000152587891
131.8800048828125 15.90999984741211 9.560000419616699
131.9900054931641 16.31999969482422 8.770000457763672
131.7599945068359 15.35000038146973 9.439999580383301
131.4499969482422 14 7.230000019073486
132.1300048828125 16.69000053405762 7.510000228881836
131.9700012207031 16.09000015258789 6.889999866485596
131.6699981689453 14.92000007629395 10.40999984741211
131.2100067138672 13.1899995803833 9.300000190734863
131.2299957275391 13.25 10.10000038146973
131.1600036621094 12.85999965667725 6.349999904632568
131.1900024414062 13.05000019073486 7.96999979019165
131.0399932861328 12.30000019073486 6.550000190734863
131.3500061035156 13.71000003814697 9.590000152587891
131.0700073242188 12.5 8.489999771118164
131.1399993896484 14.97999954223633 5.650000095367432
131.1600036621094 15.13000011444092 7.119999885559082
131.3300018310547 15.97999954223633 10.15999984741211
131.6000061035156 17.03000068664551 9.970000267028809
131.5299987792969 16.64999961853027 6.159999847412109
131.4900054931641 16.53000068664551 10.27999973297119
131.7100067138672 17.26000022888184 7.019999980926514
131.3000030517578 15.86999988555908 8.920000076293945
131.5500030517578 16.69000053405762 6.820000171661377
131.2700042724609 15.65999984741211 6.980000019073486
131.5099945068359 16.54999923706055 5.190000057220459
131.6000061035156 16.89999961853027 8.850000381469727
131.4100036621094 16.1299991607666 6.869999885559082
130.6399993896484 13.05000019073486 7.630000114440918
130.8000030517578 13.8100004196167 9.819999694824219
130.6900024414062 13.25 9.590000152587891
130.5200042724609 12.46000003814697 6.920000076293945
130.75 13.53999996185303 7.090000152587891
130.9199981689453 14.10000038146973 7.320000171661377
131.0500030517578 14.90999984741211 9.949999809265137
131.0500030517578 14.60999965667725 7.389999866485596
130.8600006103516 13.97000026702881 5.960000038146973
131.1999969482422 15.52000045776367 10.52000045776367
130.9499969482422 14.28999996185303 9.229999542236328
130.9799957275391 14.44999980926514 10.40999984741211
131 14.42000007629395 5.679999828338623
130.6399993896484 12.92000007629395 6.449999809265137
131.1199951171875 15.03999996185303 11.18000030517578
130.7299957275391 13.35000038146973 5.71999979019165
130.5299987792969 15.07999992370605 6.139999866485596
130.6699981689453 15.68000030517578 6.519999980926514
130.9799957275391 17.07999992370605 9.819999694824219
131.0599975585938 17.25 6.550000190734863
130.6699981689453 15.81999969482422 7.809999942779541
130.7299957275391 16.04999923706055 10.14000034332275
130.9400024414062 16.80999946594238 7.300000190734863
130.8899993896484 16.69000053405762 6.090000152587891
130.8099975585938 16.45000076293945 8.979999542236328
129.8699951171875 12.51000022888184 7.369999885559082
129.9900054931641 13.05000019073486 7.5
130.1499938964844 13.86999988555908 9.789999961853027
130.1399993896484 13.72999954223633 8.739999771118164
130.1100006103516 13.60999965667725 7.329999923706055
130.3000030517578 14.26000022888184 8.609999656677246
130.2700042724609 14.07999992370605 7
130.2799987792969 14.4399995803833 10.35000038146973
129.9700012207031 12.89999961853027 6.139999866485596
130.1300048828125 13.4399995803833 5.800000190734863
130.5599975585938 15.27999973297119 7.670000076293945
130.5700073242188 15.52000045776367 10.26000022888184
130.25 13.96000003814697 5.820000171661377
129.4400024414062 13.55000019073486 6.360000133514404
129.3099975585938 13.10999965667725 6.789999961853027
129.3699951171875 13.30000019073486 8.550000190734863
129.5700073242188 13.98999977111816 5.869999885559082
129.4100036621094 13.47999954223633 5.329999923706055
129.7200012207031 14.57999992370605 5.860000133514404
129.8500061035156 15.39000034332275 8.460000038146973
129.7599945068359 14.85000038146973 8.119999885559082
129.8600006103516 15.22000026702881 7.239999771118164
129.6199951171875 14.31999969482422 8.590000152587891
130.0500030517578 16.07999992370605 9.640000343322754
130.1100006103516 16.32999992370605 7.630000114440918
129.9600067138672 15.77000045776367 6.789999961853027
129.8099975585938 15.11999988555908 5.889999866485596
130.2100067138672 16.71999931335449 6.010000228881836
130.0399932861328 16.01000022888184 8.979999542236328
130.0099945068359 15.81999969482422 7.53000020980835
129.6300048828125 14.40999984741211 9.630000114440918
130.1199951171875 16.21999931335449 6.369999885559082
130.3399963378906 17.28000068664551 6.079999923706055
130.1100006103516 16.13999938964844 5.579999923706055
128.9799957275391 14.18000030517578 6.119999885559082
129.1300048828125 14.94999980926514 8.560000419616699
129.1199951171875 14.73999977111816 6.679999828338623
129.3000030517578 15.60999965667725 9.380000114440918
129.2200012207031 15.1899995803833 5.650000095367432
129.3600006103516 15.71000003814697 5.320000171661377
129.5500030517578 16.63999938964844 8.939999580383301
129.2700042724609 15.36999988555908 7.150000095367432
129.3800048828125 15.96000003814697 7.360000133514404
128.8300018310547 13.67000007629395 6.579999923706055
129.0800018310547 14.60000038146973 5.230000019073486
129.1699981689453 15.06999969482422 9.470000267028809
128.9900054931641 14.48999977111816 8.829999923706055
129.7899932861328 17.45999908447266 6.699999809265137
129.5 16.36000061035156 6.230000019073486
128.5800018310547 14.77000045776367 6.039999961853027
128.8399963378906 15.97000026702881 7.489999771118164
129.0299987792969 16.65999984741211 8.329999923706055
128.7599945068359 15.60000038146973 8.659999847412109
129.0899963378906 16.94000053405762 6.630000114440918
128.6900024414062 15.35000038146973 6.070000171661377
128.8200073242188 15.78999996185303 5.889999866485596
129 16.45000076293945 6.380000114440918
128.1100006103516 15.39000034332275 6.320000171661377
128.1999969482422 15.30000019073486 6.210000038146973
129.1100006103516 16.28000068664551 6.210000038146973
129.0299987792969 15.98999977111816 7.650000095367432
129.1199951171875 16.30999946594238 8.609999656677246
128.9400024414062 15.72999954223633 5.989999771118164
128.7200012207031 14.84000015258789 7.980000019073486
129.2400054931641 16.73999977111816 6.570000171661377
128.8000030517578 15.23999977111816 6.059999942779541
128.6300048828125 14.46000003814697 7.050000190734863
128.6699981689453 14.67000007629395 6
129.7899932861328 16.10000038146973 8.220000267028809
129.8899993896484 16.44000053405762 9.409999847412109
129.7100067138672 15.84000015258789 9.390000343322754
129.6000061035156 15.47999954223633 5.570000171661377
129.6600036621094 15.69999980926514 7.380000114440918
129.5 15 7.929999828338623
129.4199981689453 14.86999988555908 6.159999847412109
130.0200042724609 17.03000068664551 6.579999923706055
129.0399932861328 13.38000011444092 5.489999771118164
129.6300048828125 15.47999954223633 8.439999580383301
129.1799926757812 13.80000019073486 6.019999980926514
129.3099975585938 14.22000026702881 9.279999732971191
129.3099975585938 14.47000026702881 5.409999847412109
129.7200012207031 15.98999977111816 5.880000114440918
129.7799987792969 13.4399995803833 9
129.7200012207031 13.44999980926514 6.230000019073486
129.5599975585938 12.72000026702881 7.150000095367432
129.6900024414062 13.14999961853027 7.619999885559082
129.8000030517578 13.65999984741211 5.199999809265137
129.8999938964844 14.11999988555908 5.639999866485596
130.5399932861328 16.48999977111816 10.39000034332275
130.6000061035156 16.72999954223633 9.199999809265137
130.6799926757812 17.14999961853027 7.150000095367432
130.5899963378906 16.67000007629395 6.579999923706055
130.2899932861328 15.64999961853027 6.340000152587891
130.4299926757812 16.18000030517578 6.420000076293945
130.25 15.3100004196167 7.840000152587891
129.9900054931641 14.32999992370605 7.380000114440918
129.8999938964844 14.02999973297119 9.020000457763672
130.4600067138672 16.04999923706055 9.850000381469727
130.1600036621094 15.14000034332275 6.190000057220459
130.0500030517578 14.61999988555908 5.96999979019165
130.1799926757812 14.97000026702881 9.539999961853027
130.0399932861328 14.39999961853027 9.75
130.2799987792969 15.42000007629395 10.10000038146973
130.9900054931641 16.05999946594238 8.340000152587891
131.0299987792969 16.19000053405762 10.60000038146973
131.0800018310547 16.56999969482422 5.989999771118164
130.8800048828125 15.57999992370605 10.78999996185303
131.1900024414062 16.80999946594238 10.14999961853027
130.6000061035156 14.46000003814697 10.5600004196167
130.8899993896484 15.77999973297119 6.880000114440918
130.9600067138672 15.81999969482422 9.510000228881836
130.8000030517578 15.35000038146973 9.090000152587891
131.0500030517578 16.32999992370605 6.989999771118164
131.2299957275391 16.96999931335449 6.670000076293945
130.7899932861328 15.35000038146973 6.159999847412109
130.5299987792969 14.34000015258789 5.880000114440918
131.2599945068359 17.11000061035156 6.039999961853027
130.5899963378906 14.61999988555908 7.269999980926514
130.3899993896484 13.72999954223633 6.400000095367432
130.3099975585938 13.43000030517578 7.71999979019165
130.2599945068359 13.32999992370605 5.630000114440918
130.3699951171875 13.60000038146973 9.619999885559082
130.7200012207031 15.10999965667725 7.489999771118164
130.75 15.02999973297119 10.51000022888184
130.1000061035156 12.68000030517578 5.96999979019165
130.5500030517578 14.26000022888184 8.869999885559082
130.2299957275391 13.05000019073486 7.28000020980835
130.3899993896484 13.89999961853027 5.480000019073486
130.4600067138672 13.93000030517578 8.069999694824219
130.6499938964844 14.82999992370605 6
130.0399932861328 12.39999961853027 7.380000114440918
131.6699981689453 16.10000038146973 9.789999961853027
131.8699951171875 16.76000022888184 9.390000343322754
131.7899932861328 16.6299991607666 7.050000190734863
131.5200042724609 15.35000038146973 10.76000022888184
131.5399932861328 15.55000019073486 7.059999942779541
131.3999938964844 15.02999973297119 7.010000228881836
131.25 14.51000022888184 9.670000076293945
131.9199981689453 17.17000007629395 7.349999904632568
131.2599945068359 14.32999992370605 10.52000045776367
131.1199951171875 13.98999977111816 9.640000343322754
131.3899993896484 14.85999965667725 10.35999965667725
131.3200073242188 14.77000045776367 5.650000095367432
131.2299957275391 14.48999977111816 7.079999923706055
131.0399932861328 13.5600004196167 8.819999694824219
131.6600036621094 16.1200008392334 6.960000038146973
130.8399963378906 12.9399995803833 6.349999904632568
131.1999969482422 14.3100004196167 5.179999828338623
130.6999969482422 12.39999961853027 6.170000076293945
131.7200012207031 16.35000038146973 8.550000190734863
130.9199981689453 13.21000003814697 5.139999866485596
131.1000061035156 13.94999980926514 6.78000020980835
131.1100006103516 13.76000022888184 10.59000015258789
131 13.52000045776367 6.079999923706055
130.7799987792969 12.75 7.420000076293945
132.6100006103516 16.82999992370605 10.0600004196167
132.2599945068359 15.55000019073486 10.81999969482422
132.5800018310547 16.81999969482422 7.71999979019165
132.6100006103516 17.10000038146973 6.150000095367432
132.2400054931641 15.65999984741211 7.670000076293945
132.3399963378906 15.96000003814697 6.050000190734863
132.1199951171875 14.9399995803833 11.32999992370605
131.9700012207031 14.40999984741211 10.85000038146973
132.1100006103516 15.18000030517578 7.150000095367432
132.5 16.46999931335449 9.369999885559082
132.4400024414062 16.44000053405762 6.460000038146973
131.8500061035156 14.15999984741211 6.940000057220459
131.9400024414062 14.27999973297119 9.170000076293945
132.1900024414062 15.22000026702881 9.840000152587891
132.0200042724609 14.68000030517578 6.989999771118164
131.7599945068359 13.80000019073486 6.03000020980835
132.3999938964844 16.29999923706055 7.28000020980835
131.5399932861328 12.78999996185303 8.420000076293945
131.7200012207031 13.47999954223633 10.22999954223633
131.4100036621094 12.38000011444092 7.760000228881836
131.9299926757812 14.39000034332275 5.760000228881836
131.5399932861328 12.98999977111816 4.670000076293945
131.5500030517578 12.9399995803833 7.650000095367432
131.4499969482422 12.5600004196167 6.820000171661377
131.6399993896484 13.40999984741211 5.420000076293945
131.7100067138672 13.4399995803833 8.039999961853027
131.6100006103516 13.14999961853027 9.439999580383301
131.7899932861328 13.72000026702881 9.020000457763672
131.3300018310547 12.02000045776367 6.820000171661377
131.8600006103516 13.9399995803833 10.69999980926514
133.1100006103516 16.32999992370605 8.239999771118164
133.1499938964844 16.57999992370605 6.989999771118164
133.0099945068359 16.06999969482422 6.829999923706055
133.0599975585938 16.09000015258789 9.449999809265137
132.6900024414062 14.76000022888184 10.68000030517578
133.1900024414062 16.8799991607666 5.650000095367432
132.8300018310547 15.26000022888184 8.060000419616699
132.6000061035156 14.39000034332275 7.190000057220459
132.8800048828125 15.61999988555908 6.380000114440918
132.9900054931641 15.86999988555908 7.829999923706055
132.4499969482422 13.8100004196167 7.159999847412109
132.7299957275391 14.97000026702881 6.909999847412109
132.4299926757812 13.67000007629395 8.010000228881836
132.4600067138672 13.96000003814697 6.360000133514404
132.1699981689453 12.69999980926514 7.239999771118164
132.2299957275391 12.97999954223633 5.949999809265137
132.3399963378906 13.44999980926514 9.060000419616699
132.0899963378906 12.5600004196167 5.079999923706055
132.1000061035156 12.52999973297119 8.229999542236328
132.0500030517578 12.30000019073486 6.420000076293945
132.5200042724609 13.97999954223633 9.300000190734863
133.1199951171875 14.11999988555908 9.529999732971191
133.3800048828125 15.28999996185303 6.349999904632568
133.2100067138672 14.52999973297119 7.5
132.9499969482422 13.52999973297119 7.179999828338623
133.3300018310547 15.09000015258789 7.289999961853027
133.1199951171875 14.43000030517578 5.5
132.9799957275391 13.6899995803833 6.369999885559082
132.6799926757812 12.5 6.809999942779541
133.25 14.9399995803833 5.449999809265137
133.2700042724609 14.84000015258789 8.569999694824219
132.7200012207031 12.69999980926514 5.820000171661377
133.0500030517578 14 7.46999979019165
133.2400054931641 14.72999954223633 6.380000114440918
133.4199981689453 15.46000003814697 5.489999771118164
133.0299987792969 13.97000026702881 4.880000114440918
132.7700042724609 12.98999977111816 7.400000095367432
132.8899993896484 13.39000034332275 5.429999828338623
132.7200012207031 12.88000011444092 4.949999809265137
133.5399932861328 15.9399995803833 8.930000305175781
133.6600036621094 16.29000091552734 7.119999885559082
133.6900024414062 16.46999931335449 6.269999980926514
133.5099945068359 15.73999977111816 6.800000190734863
133.6999969482422 16.67000007629395 5.25
133.7200012207031 16.55999946594238 8.390000343322754
133.7799987792969 16.8799991607666 6.860000133514404
133.4299926757812 15.38000011444092 8.619999885559082
133.5500030517578 16.02000045776367 5.400000095367432
134.3500061035156 16.3700008392334 7.960000038146973
134.2899932861328 16.29000091552734 5.670000076293945
134.0200042724609 15.22999954223633 8.25
134.2299957275391 16 7.099999904632568
134.1699981689453 15.75 5.710000038146973
134.1600036621094 15.78999996185303 8.329999923706055
134.1100006103516 15.47000026702881 7.050000190734863
133.9600067138672 14.98999977111816 6.75
133.5599975585938 13.32999992370605 6.71999979019165
133.8899993896484 14.63000011444092 8.5
133.6199951171875 13.72000026702881 7.679999828338623
133.4100036621094 12.84000015258789 6.440000057220459
133.7599945068359 14.1899995803833 5.269999980926514
134.0099945068359 15.3100004196167 5.230000019073486
133.4400024414062 13.10999965667725 5.28000020980835
133.7799987792969 14.22999954223633 7.849999904632568
133.8899993896484 14.65999984741211 5.900000095367432
133.6000061035156 13.64000034332275 5.070000171661377
134.7899932861328 15.38000011444092 5.510000228881836
134.5899963378906 14.60000038146973 6.800000190734863
134.6300048828125 14.92000007629395 5.28000020980835
134.8099975585938 15.5600004196167 7.590000152587891
134.4499969482422 14.11999988555908 6.389999866485596
134.3699951171875 13.77000045776367 5.570000171661377
134.5 14.36999988555908 5.130000114440918
135.0299987792969 14.35999965667725 7.449999809265137
133.9499969482422 12.51000022888184 6.289999961853027
134.1600036621094 13.3100004196167 5.940000057220459
134.3899993896484 14.18000030517578 5.630000114440918
134.3699951171875 14.27000045776367 6.690000057220459
134.25 13.73999977111816 5.159999847412109
133.6699981689453 14 5.230000019073486
133.6600036621094 14.14999961853027 7.860000133514404
133.7700042724609 14.31999969482422 4.619999885559082
133.4700012207031 13.5600004196167 8.949999809265137
134.1300048828125 15.82999992370605 5.849999904632568
133.3099975585938 12.75 6.510000228881836
134.0399932861328 15.77999973297119 8.529999732971191
133.5 13.32999992370605 5.329999923706055
134.1000061035156 15.82999992370605 7.039999961853027
133.7100067138672 14.36999988555908 6.050000190734863
133.9100036621094 15.23999977111816 8.229999542236328
133.9499969482422 15.22999954223633 7.110000133514404
133.4199981689453 13.14000034332275 7.010000228881836
133.5500030517578 13.59000015258789 6.079999923706055
134.2299957275391 16.40999984741211 7.269999980926514
133.5 13.57999992370605 7.550000190734863
132.5800018310547 12.38000011444092 6.590000152587891
132.8200073242188 13.40999984741211 7.230000019073486
133.0099945068359 13.90999984741211 4.800000190734863
132.8600006103516 13.23999977111816 4.920000076293945
133.1100006103516 14.39999961853027 5.239999771118164
132.9700012207031 13.92000007629395 6.210000038146973
132.7299957275391 12.84000015258789 5.630000114440918
133.2299957275391 14.89000034332275 5.579999923706055
133.0500030517578 14.14999961853027 7.110000133514404
132.6600036621094 12.71000003814697 7.210000038146973
133.2799987792969 15.14999961853027 6.46999979019165
133.2799987792969 15.22000026702881 7.579999923706055
133.8099975585938 16.98999977111816 5.320000171661377
133.3699951171875 15.56999969482422 9.579999923706055
133.4299926757812 15.63000011444092 6.710000038146973
133.4600067138672 15.71000003814697 5.269999980926514
133.1300048828125 14.51000022888184 7.659999847412109
133.3099975585938 15.35000038146973 8.569999694824219
133.4600067138672 16.04999923706055 9.970000267028809
133.6100006103516 16.23999977111816 5.519999980926514
132.8200073242188 13.18000030517578 6.269999980926514
133.4799957275391 15.97000026702881 8.770000457763672
133.25 15.06999969482422 9.220000267028809
133.6399993896484 16.68000030517578 8.720000267028809
133.6199951171875 16.5 7.670000076293945
133.7599945068359 16.93000030517578 6.820000171661377
133.6199951171875 16.5 6.349999904632568
132.6600036621094 14.6899995803833 5.230000019073486
132.5500030517578 14.22000026702881 6.170000076293945
132.5599975585938 14.48999977111816 7.130000114440918
132.7799987792969 15.23999977111816 5.630000114440918
132.1999969482422 12.90999984741211 6.110000133514404
132.3899993896484 14 9.460000038146973
132.3200073242188 13.53999996185303 8.989999771118164
133.1300048828125 16.56999969482422 6.840000152587891
132.7700042724609 15.14000034332275 7.159999847412109
132.8099975585938 15.36999988555908 8.020000457763672
132.3899993896484 14.09000015258789 10.59000015258789
132.2100067138672 12.9399995803833 4.75
132.9100036621094 15.89999961853027 9.569999694824219
132.7899932861328 15.40999984741211 9.180000305175781
132.4299926757812 13.8100004196167 7.079999923706055
132.9499969482422 16.19000053405762 10.21000003814697
132.4600067138672 16.54999923706055 7.420000076293945
132.0800018310547 15.27000045776367 11.40999984741211
132.3099975585938 15.97999954223633 8.649999618530273
132.4199981689453 16.45999908447266 9.050000190734863
131.3800048828125 12.31999969482422 6.670000076293945
131.4799957275391 12.57999992370605 7.329999923706055
131.8500061035156 13.96000003814697 5.96999979019165
131.4400024414062 12.32999992370605 5.199999809265137
131.6999969482422 13.71000003814697 10.4399995803833
131.6100006103516 13.22000026702881 8.75
131.7200012207031 13.52999973297119 5.429999828338623
132.1499938964844 15.23999977111816 7.340000152587891
131.8600006103516 14.32999992370605 10.52000045776367
132.1100006103516 15.27000045776367 9.989999771118164
131.9499969482422 14.75 11.01000022888184
131.5200042724609 12.88000011444092 8.140000343322754
131.9299926757812 14.47000026702881 8.930000305175781
131.6799926757812 13.19999980926514 4.789999961853027
132.2899932861328 15.78999996185303 7.610000133514404
132 14.78999996185303 7.090000152587891
131.8500061035156 14.15999984741211 6.869999885559082
130.8800048828125 12.86999988555908 6.300000190734863
131.1600036621094 14.14000034332275 6.570000171661377
130.8800048828125 13.01000022888184 7.269999980926514
131.0599975585938 13.56999969482422 6.170000076293945
131.1300048828125 14.15999984741211 10.43000030517578
131.4400024414062 15.22000026702881 7.079999923706055
130.9900054931641 13.64000034332275 8.859999656677246
131.0399932861328 13.4399995803833 5.150000095367432
131.0599975585938 13.96000003814697 9.649999618530273
131.2599945068359 14.5600004196167 7.070000171661377
131.5899963378906 15.73999977111816 7.300000190734863
131.7899932861328 16.53000068664551 7.070000171661377
131.2599945068359 14.59000015258789 9.619999885559082
131.6300048828125 16.1299991607666 10.44999980926514
131.5899963378906 15.97999954223633 8.220000267028809
131.8500061035156 16.96999931335449 10.07999992370605
131.8899993896484 17.07999992370605 7.300000190734863
131.7200012207031 16.3700008392334 8.729999542236328
131.7700042724609 16.6299991607666 9.430000305175781
131.4799957275391 15.52999973297119 9.079999923706055
131.3000030517578 14.89999961853027 10.34000015258789
130.8999938964844 13.19999980926514 8.369999885559082
130.3800048828125 13.51000022888184 5.769999980926514
130.1399993896484 12.52999973297119 7.650000095367432
130.0599975585938 12.23999977111816 6.900000095367432
130.2200012207031 12.86999988555908 6.980000019073486
130.3500061035156 13.57999992370605 9.600000381469727
130.3000030517578 13.15999984741211 7.760000228881836
130.5599975585938 13.97000026702881 4.739999771118164
130.8099975585938 15.1899995803833 7.690000057220459
130.8500061035156 15.22999954223633 6.300000190734863
130.7599945068359 15.09000015258789 9.189999580383301
130.6000061035156 14.1899995803833 5.760000228881836
130.6600036621094 14.71000003814697 7.380000114440918
130.7200012207031 14.76000022888184 5.889999866485596
130.9299926757812 15.84000015258789 9.109999656677246
130.5599975585938 14.40999984741211 10.52000045776367
131.2899932861328 17.07999992370605 6.630000114440918
130.7400054931641 15.09000015258789 10.63000011444092
131.1100006103516 16.29000091552734 6.840000152587891
130.4400024414062 13.80000019073486 7.809999942779541
130.9600067138672 16.10000038146973 10.01000022888184
130.9700012207031 15.80000019073486 7.769999980926514
131.0800018310547 16.52000045776367 10.42000007629395
130.4900054931641 14.0600004196167 8.630000114440918
129.8200073242188 13.14999961853027 5.730000019073486
130.1300048828125 14.39000034332275 5.880000114440918
129.8800048828125 13.64000034332275 7.380000114440918
130.3300018310547 15.25 6.96999979019165
130.1000061035156 14.52999973297119 9.720000267028809
130.6399993896484 16.42000007629395 5.900000095367432
130.5500030517578 16.06999969482422 6.639999866485596
129.8699951171875 13.60000038146973 8.989999771118164
129.9900054931641 14.14000034332275 9.149999618530273
130.2700042724609 14.94999980926514 6.199999809265137
130.6900024414062 16.71999931335449 6.570000171661377
130.2599945068359 15.18000030517578 9.670000076293945
130.4900054931641 15.97000026702881 8.159999847412109
130.3800048828125 15.68000030517578 9.989999771118164
129.9400024414062 13.65999984741211 5.940000057220459
130.8399963378906 17.40999984741211 7.789999961853027
130.3399963378906 15.5 7.789999961853027
130.4900054931641 16.20000076293945 10.19999980926514
130.1199951171875 14.43000030517578 7.25
130.7299957275391 16.92000007629395 7.510000228881836
129.4100036621094 14.02000045776367 5.639999866485596
129.4400024414062 14.1899995803833 6.539999961853027
129.6699981689453 14.98999977111816 4.940000057220459
129.6999969482422 15.19999980926514 5.96999979019165
129.8099975585938 15.56999969482422 5.239999771118164
129.5899963378906 14.86999988555908 6.679999828338623
129.2799987792969 13.42000007629395 5.409999847412109
129.1699981689453 13.22000026702881 7.25
129.4600067138672 14.39000034332275 7.610000133514404
129.5700073242188 14.84000015258789 7.949999809265137
130.0800018310547 16.60000038146973 5.75
129.8300018310547 15.73999977111816 7.46999979019165
129.8800048828125 16.05999946594238 8.199999809265137
129.7599945068359 15.53999996185303 6.590000152587891
129.7299957275391 15.47000026702881 9.409999847412109
128.8300018310547 14.5 5.349999904632568
128.6600036621094 13.85999965667725 6.599999904632568
129.2599945068359 16.23999977111816 5.949999809265137
128.9199981689453 14.92000007629395 5.929999828338623
129.25 16.3700008392334 8.300000190734863
128.9400024414062 15.03999996185303 8.300000190734863
129.1399993896484 15.77999973297119 6.829999923706055
129.1900024414062 15.97000026702881 7.760000228881836
128.5299987792969 15.96000003814697 7.019999980926514
128.3099975585938 14.97000026702881 6.380000114440918
129.3300018310547 16.59000015258789 6.559999942779541
129.0899963378906 13.31999969482422 5.480000019073486
129 13.80000019073486 6.699999809265137
128.8500061035156 14.26000022888184 6.360000133514404
128.7700042724609 14.92000007629395 7.980000019073486
128.7100067138672 14.98999977111816 6.570000171661377
129.1100006103516 13.26000022888184 6.900000095367432
128.5899963378906 15.31999969482422 5.960000038146973
129.9299926757812 13.57999992370605 9.25
130.2400054931641 12.27999973297119 7.46999979019165
130.0500030517578 12.86999988555908 7.489999771118164
129.9900054931641 13.13000011444092 6.579999923706055
129.7799987792969 14.30000019073486 9.510000228881836
129.4799957275391 15.48999977111816 9.369999885559082
129.3399963378906 15.88000011444092 8.779999732971191
129.8500061035156 13.67000007629395 6.260000228881836
129.6699981689453 14.22000026702881 6.170000076293945
129.8999938964844 13.47999954223633 7.46999979019165
129.1900024414062 16.45000076293945 8.539999961853027
129.25 15.97999954223633 5.769999980926514
129.3500061035156 15.72999954223633 6.690000057220459
129.6699981689453 14.47999954223633 8.260000228881836
129.5599975585938 14.5600004196167 5.489999771118164
129.3800048828125 15.27000045776367 5.559999942779541
129.5700073242188 14.93000030517578 7.980000019073486
129.0500030517578 16.89999961853027 6.550000190734863
130.7700042724609 13.25 9.760000228881836
130.6000061035156 14.0600004196167 10.14999961853027
130.5399932861328 14.13000011444092 8.829999923706055
130.6000061035156 13.64999961853027 7.670000076293945
130.7599945068359 13 7.610000133514404
130.4100036621094 14.67000007629395 10.22000026702881
130.8300018310547 12.80000019073486 8.649999618530273
130.5299987792969 13.85999965667725 6.670000076293945
130.0899963378906 15.84000015258789 8.710000038146973
130.3999938964844 14.1899995803833 6.090000152587891
130.6499938964844 13.21000003814697 6.559999942779541
129.9900054931641 16.27000045776367 9.789999961853027
130.1600036621094 15.51000022888184 7.840000152587891
130.6199951171875 13.27000045776367 5.300000190734863
130.25 14.76000022888184 6.050000190734863
129.9499969482422 16.04999923706055 6.199999809265137
130.1999969482422 15.19999980926514 7.139999866485596
130.7899932861328 12.68000030517578 6.730000019073486
130.3099975585938 15.07999992370605 9.729999542236328
129.9700012207031 16.11000061035156 7.800000190734863
129.9900054931641 15.65999984741211 5.110000133514404
130.3099975585938 14.69999980926514 7.400000095367432
129.8000030517578 16.60000038146973 6.019999980926514
130.1100006103516 15.44999980926514 6.099999904632568
131.25 13.64999961853027 7.889999866485596
131.2599945068359 14 10.3100004196167
131.3500061035156 13.47000026702881 10.47000026702881
131.1000061035156 14.61999988555908 10.23999977111816
130.8800048828125 15.34000015258789 9.069999694824219
130.9900054931641 14.6899995803833 7.46999979019165
131.0399932861328 14.39000034332275 6.710000038146973
130.7599945068359 16.04000091552734 10.8100004196167
131.1199951171875 13.96000003814697 5.659999847412109
131.3000030517578 13.38000011444092 7.210000038146973
131.2299957275391 13.48999977111816 6.039999961853027
130.9299926757812 14.67000007629395 5.900000095367432
131.3899993896484 13.02999973297119 7.949999809265137
130.6799926757812 16 9.260000228881836
131.1199951171875 13.98999977111816 7.239999771118164
130.6499938964844 16.43000030517578 10.21000003814697
130.4600067138672 16.70999908447266 7.929999828338623
130.7400054931641 15.51000022888184 6.380000114440918
130.8899993896484 15.38000011444092 10.6899995803833
130.3600006103516 16.98999977111816 6.96999979019165
130.3000030517578 17.06999969482422 5.630000114440918
131 15 11.23999977111816
130.8300018310547 15.34000015258789 7.53000020980835
131.3899993896484 12.92000007629395 6.03000020980835
130.5599975585938 16.1200008392334 6.5
130.4799957275391 16.48999977111816 5.710000038146973
132.0599975585938 13.07999992370605 7.869999885559082
132.0200042724609 13.59000015258789 10.52999973297119
131.8399963378906 14.25 9.069999694824219
131.9900054931641 13.71000003814697 9.329999923706055
131.9499969482422 13.27999973297119 5.070000171661377
132.0299987792969 13.03999996185303 6.119999885559082
131.9400024414062 13.46000003814697 7.21999979019165
131.7899932861328 14.0600004196167 7.050000190734863
131.8300018310547 14.36999988555908 10.94999980926514
131.5 15.28999996185303 7.050000190734863
131.8899993896484 13.64999961853027 5.980000019073486
131.0599975585938 17.1299991607666 7.150000095367432
131.3699951171875 15.77000045776367 6.840000152587891
131.4600067138672 15.13000011444092 5.21999979019165
131.6199951171875 14.75 7.110000133514404
131.1999969482422 16.36000061035156 6.710000038146973
131.2899932861328 16.59000015258789 10.22999954223633
131.6999969482422 14.82999992370605 10.51000022888184
132.1000061035156 12.63000011444092 5.099999904632568
131.1300048828125 16.6200008392334 5.920000076293945
132.6000061035156 14.38000011444092 9.489999771118164
132.5099945068359 14.89999961853027 10.6899995803833
132.7100067138672 14.0600004196167 10.15999984741211
132.9199981689453 12.92000007629395 7.349999904632568
132.7700042724609 13.21000003814697 5.050000190734863
132.5899963378906 14.17000007629395 7.420000076293945
132.2599945068359 15.8100004196167 9.949999809265137
132.1000061035156 16.67000007629395 10.5
132.4499969482422 14.72999954223633 7.300000190734863
132.4900054931641 14.71000003814697 8.659999847412109
132.3399963378906 15.64000034332275 11.02000045776367
132.5700073242188 14.21000003814697 5.900000095367432
132.1699981689453 15.89999961853027 7.079999923706055
132.8099975585938 13.38000011444092 6.889999866485596
132.0299987792969 16.70000076293945 9.140000343322754
131.8800048828125 16.86000061035156 6.480000019073486
132.6499938964844 13.8100004196167 6.440000057220459
132.2799987792969 15.3100004196167 5.579999923706055
131.9799957275391 16.56999969482422 7.21999979019165
132.3200073242188 15.19999980926514 6.889999866485596
133.7400054931641 12.53999996185303 6.440000057220459
133.4799957275391 13.75 7.869999885559082
133.5700073242188 13.1899995803833 6.489999771118164
133.2400054931641 14.93000030517578 9.140000343322754
133.3200073242188 14.72999954223633 10.23999977111816
133.2299957275391 14.64000034332275 7.039999961853027
133.3699951171875 13.90999984741211 6.659999847412109
132.9700012207031 15.6899995803833 8.060000419616699
133.4600067138672 13.38000011444092 5.289999961853027
133.3099975585938 14.27000045776367 7.610000133514404
132.8099975585938 16.32999992370605 8.090000152587891
133.0899963378906 15.52999973297119 9.189999580383301
133.1300048828125 15.23999977111816 8.470000267028809
132.8500061035156 16.42000007629395 9.880000114440918
132.9199981689453 15.67000007629395 6.449999809265137
133.0299987792969 15.25 5.329999923706055
133.1499938964844 14.64999961853027 5.440000057220459
133.1199951171875 15.05000019073486 6.409999847412109
132.6300048828125 16.79000091552734 6.170000076293945
132.6799926757812 17.04999923706055 9.800000190734863
132.6999969482422 16.76000022888184 7.570000171661377
132.8500061035156 15.98999977111816 5.53000020980835
134.1399993896484 13.85999965667725 8.109999656677246
134 14.26000022888184 7.699999809265137
133.8000030517578 14.96000003814697 6.480000019073486
133.4600067138672 16.54000091552734 8.859999656677246
133.9600067138672 14.27999973297119 6.300000190734863
133.8999938964844 14.22999954223633 4.679999828338623
133.6600036621094 15.44999980926514 6.159999847412109
133.6000061035156 15.69999980926514 6.78000020980835
133.4100036621094 16.55999946594238 7.46999979019165
133.5 16.30999946594238 8.239999771118164
133.3099975585938 17 6.829999923706055
133.6900024414062 15.14999961853027 5.360000133514404
133.5399932861328 15.77000045776367 5.449999809265137
133.1900024414062 17.3799991607666 6.360000133514404
134.0200042724609 13.8100004196167 5.050000190734863
133.4299926757812 16.34000015258789 5.199999809265137
134.1199951171875 13.52000045776367 5.909999847412109
133.8300018310547 15.18000030517578 8.439999580383301
133.6399993896484 15.89999961853027 8.819999694824219
133.4700012207031 16.20000076293945 6.559999942779541
133.3600006103516 16.64999961853027 6.079999923706055
134.6600036621094 14.43000030517578 6.5
134.3200073242188 15.57999992370605 6.21999979019165
134.2700042724609 16.06999969482422 7.46999979019165
134.1399993896484 16.46999931335449 7.050000190734863
133.9900054931641 16.97999954223633 6.610000133514404
134.7400054931641 14 6.909999847412109
134.4199981689453 15.31999969482422 7.260000228881836
134.0800018310547 16.57999992370605 5.650000095367432
134.3800048828125 15.27000045776367 5.489999771118164
134.2200012207031 15.94999980926514 5.690000057220459
133.9199981689453 17.05999946594238 5.21999979019165
134.5200042724609 15.61999988555908 5.449999809265137
134.4499969482422 15.39999961853027 8.430000305175781
134.7599945068359 14.5600004196167 6.340000152587891
134.3999938964844 16.21999931335449 5.670000076293945
134.5399932861328 15.22999954223633 7.210000038146973
134.3899993896484 15.81999969482422 7.590000152587891
134.6499938964844 15.06999969482422 5.409999847412109
134.8399963378906 14.10999965667725 6.829999923706055
134.3099975585938 16.36000061035156 7
134.25 16.69000053405762 5.639999866485596
133.6100006103516 15.36999988555908 8.890000343322754
133.6699981689453 15.27000045776367 7.96999979019165
133.8500061035156 14.97999954223633 5.230000019073486
133.9199981689453 14.15999984741211 7.650000095367432
134.0500030517578 13.93000030517578 5.619999885559082
133.8999938964844 14.48999977111816 6
134.0299987792969 14.36999988555908 4.650000095367432
133.8999938964844 14.22999954223633 8.390000343322754
133.7400054931641 15.15999984741211 6.909999847412109
134.0099945068359 13.6899995803833 7.949999809265137
133.4400024414062 16.56999969482422 5.269999980926514
133.3999938964844 16.65999984741211 6.110000133514404
133.5800018310547 16.02000045776367 5.150000095367432
133.4199981689453 16.25 7.440000057220459
133.4799957275391 15.90999984741211 8.960000038146973
133.2700042724609 17.17000007629395 6.289999961853027
133.4900054931641 16.14999961853027 6.440000057220459
133.3200073242188 16.42000007629395 8.720000267028809
133.2700042724609 16.82999992370605 7.550000190734863
133.6799926757812 15.5 5.53000020980835
133.5700073242188 15.68000030517578 7.110000133514404
133.5800018310547 12.78999996185303 5.230000019073486
133.4799957275391 13.28999996185303 5.28000020980835
133.3999938964844 15.98999977111816 9.979999542236328
133.6600036621094 12.40999984741211 6.400000095367432
133.5200042724609 12.86999988555908 6.269999980926514
133.4799957275391 12.94999980926514 6.829999923706055
132.4900054931641 17.22999954223633 6.369999885559082
132.4700012207031 16.55999946594238 10.65999984741211
132.6300048828125 16.27000045776367 7.78000020980835
132.5700073242188 16.44000053405762 9.319999694824219
132.8099975585938 16.03000068664551 5.610000133514404
132.6000061035156 16.68000030517578 6.369999885559082
132.8399963378906 15.64999961853027 6.489999771118164
133.0800018310547 14.60000038146973 7.289999961853027
133.0800018310547 14.93000030517578 5.409999847412109
132.9100036621094 14.85999965667725 9.460000038146973
133.0299987792969 14.36999988555908 10.35999965667725
132.6000061035156 16.01000022888184 10.27000045776367
132.5399932861328 16.80999946594238 7.599999904632568
133.1799926757812 14.06999969482422 7.619999885559082
133.0800018310547 14.22000026702881 9
133.2100067138672 14.39000034332275 5.369999885559082
133.3999938964844 13.47999954223633 6.769999980926514
132.9600067138672 15.10000038146973 6.940000057220459
132.8800048828125 15.28999996185303 8.5
132.1900024414062 14.85999965667725 9.560000419616699
132.1999969482422 15.1899995803833 7.960000038146973
132.1100006103516 15.05000019073486 11.3100004196167
133.2899932861328 13.85999965667725 5.989999771118164
132.2400054931641 15.10000038146973 6.940000057220459
132.0599975585938 15.40999984741211 9.960000038146973
132.5099945068359 13.67000007629395 8.850000381469727
132.4199981689453 13.89000034332275 10.60999965667725
132.6300048828125 13.47000026702881 6.980000019073486
132.3399963378906 14.61999988555908 7.300000190734863
132.5399932861328 13.97000026702881 6.409999847412109
132.7200012207031 13.34000015258789 5.599999904632568
132.8399963378906 12.85000038146973 5.570000171661377
132.5 14.07999992370605 7.389999866485596
132.7799987792969 12.93000030517578 6.559999942779541
132.3500061035156 14.26000022888184 9.300000190734863
132.2799987792969 14.46000003814697 10.84000015258789
132.8899993896484 12.39999961853027 6.800000190734863
132.75 13.03999996185303 7.449999809265137
132.5 14.39000034332275 5.429999828338623
132.6000061035156 13.21000003814697 9.25
131.7200012207031 17.21999931335449 6.989999771118164
131.7899932861328 16.5 10.11999988555908
131.9799957275391 16.19000053405762 6.920000076293945
131.6600036621094 16.97999954223633 9.960000038146973
131.8699951171875 16.68000030517578 7.070000171661377
131.7299957275391 16.8799991607666 8.789999961853027
131.9700012207031 15.92000007629395 9.529999732971191
132.0700073242188 15.72000026702881 7.96999979019165
131.8800048828125 16.36000061035156 8.770000457763672
132.1300048828125 15.65999984741211 7.110000133514404
131.8500061035156 16.04999923706055 10.96000003814697
131.1699981689453 16.53000068664551 5.909999847412109
130.9799957275391 17.15999984741211 6.739999771118164
131 16.45999908447266 10.46000003814697
131.1399993896484 16.65999984741211 6.889999866485596
131.5200042724609 15.05000019073486 7.039999961853027
131.25 16.05999946594238 6.789999961853027
131.1900024414062 15.80000019073486 9.760000228881836
131.1000061035156 15.97000026702881 10.97999954223633
131.5399932861328 14.26000022888184 10.31999969482422
131.6300048828125 14.44999980926514 7.099999904632568
131.4299926757812 14.84000015258789 10.44999980926514
131.7599945068359 13.56999969482422 8.979999542236328
131.8600006103516 13.81999969482422 5.989999771118164
130.9400024414062 16.94000053405762 9.720000267028809
131.8800048828125 13.36999988555908 7.389999866485596
131.6199951171875 14.14999961853027 9.039999961853027
131.9600067138672 12.93000030517578 7.880000114440918
131.2599945068359 15.39000034332275 10.43000030517578
132.1699981689453 12.59000015258789 4.840000152587891
131.9499969482422 13.26000022888184 6.170000076293945
131.7599945068359 13.90999984741211 7.130000114440918
132.25 12.11999988555908 5.519999980926514
132.1799926757812 12.26000022888184 6.389999866485596
131.7100067138672 13.69999980926514 10.23999977111816
131.3999938964844 15.51000022888184 7.059999942779541
131.5 14.69999980926514 9.310000419616699
132.0800018310547 13.10999965667725 4.789999961853027
132.0599975585938 12.44999980926514 8.369999885559082
132.0599975585938 12.77000045776367 6.260000228881836
131.8699951171875 13.14999961853027 9.680000305175781
130.25 16.89999961853027 5.769999980926514
130.3399963378906 16.3799991607666 5.880000114440918
130.4499969482422 15.90999984741211 6.46999979019165
130.3099975585938 15.78999996185303 9.880000114440918
130.4900054931641 15.52999973297119 7.710000038146973
130.2100067138672 16.26000022888184 9.810000419616699
130.3099975585938 16.15999984741211 8.579999923706055
130.5599975585938 15.39999961853027 6.21999979019165
130.4199981689453 15.32999992370605 10.57999992370605
130.1199951171875 16.73999977111816 8.939999580383301
130.75 14.85000038146973 5.889999866485596
130.8699951171875 14.27000045776367 5.829999923706055
130.7700042724609 14.14999961853027 9.399999618530273
130.5500030517578 14.77000045776367 10.25
130.6000061035156 15.02000045776367 7.449999809265137
131 13.77999973297119 5.920000076293945
130.5099945068359 15.14000034332275 8.869999885559082
130.6499938964844 14.27999973297119 10.63000011444092
130.9799957275391 13.09000015258789 9.520000457763672
131.0399932861328 13.35999965667725 7.28000020980835
131.1000061035156 13.19999980926514 6.059999942779541
130.8999938964844 13.89999961853027 7.239999771118164
131.3800048828125 12.10999965667725 5.590000152587891
131.3000030517578 12.23999977111816 6.730000019073486
130.9499969482422 13.46000003814697 8.520000457763672
131.2200012207031 12.39000034332275 7.809999942779541
130.8699951171875 13.56999969482422 9.239999771118164
130.6699981689453 14.64000034332275 9.029999732971191
131.1399993896484 12.85000038146973 7.5
130.8099975585938 13.68000030517578 10.18000030517578
130.7799987792969 14.4399995803833 7.289999961853027
129.4900054931641 16.60000038146973 7.480000019073486
129.5599975585938 16.46999931335449 6.300000190734863
129.4299926757812 16.6299991607666 8.170000076293945
129.5500030517578 16.14999961853027 8.199999809265137
129.3600006103516 17.03000068664551 6.760000228881836
129.8500061035156 14.90999984741211 7.380000114440918
129.7899932861328 15.39000034332275 6.679999828338623
129.9400024414062 14.80000019073486 6
129.9799957275391 14.0600004196167 9.149999618530273
129.7299957275391 15.89000034332275 5.579999923706055
129.4499969482422 16.27000045776367 9.380000114440918
130.25 13.69999980926514 5.809999942779541
129.9600067138672 14.43000030517578 7.679999828338623
130.1199951171875 13.82999992370605 7.090000152587891
130.0599975585938 14.27000045776367 5.949999809265137
130.5200042724609 12.19999980926514 7.079999923706055
130.2200012207031 13.32999992370605 7.739999771118164
129.8300018310547 14.67000007629395 9.829999923706055
130.4299926757812 12.64000034332275 6.659999847412109
129.6300048828125 16.05999946594238 7.159999847412109
130.3800048828125 13.10999965667725 5.730000019073486
128.8699951171875 15.97999954223633 7.650000095367432
128.8800048828125 16.36000061035156 6.309999942779541
129.1999969482422 14.80000019073486 6.71999979019165
129.1600036621094 15.26000022888184 5.78000020980835
129.2700042724609 14.71000003814697 5.510000228881836
128.9700012207031 15.89000034332275 6.78000020980835
129.1100006103516 14.98999977111816 8.319999694824219
128.9799957275391 15.48999977111816 7.949999809265137
129.0500030517578 15.38000011444092 7.090000152587891
129.5500030517578 13.61999988555908 5.539999961853027
129.3000030517578 14 9.050000190734863
129.2200012207031 14.55000019073486 8.680000305175781
129.4400024414062 13.47000026702881 8.770000457763672
129.6799926757812 12.80000019073486 7.769999980926514
129.0399932861328 15.09000015258789 9.409999847412109
129.3800048828125 14.22000026702881 5.650000095367432
129.6100006103516 13.1899995803833 6.190000057220459
129.5399932861328 13.32999992370605 7.480000019073486
129.2700042724609 14.38000011444092 7.380000114440918
129.8000030517578 12.22000026702881 7.309999942779541
129.0099945068359 15.78999996185303 5.980000019073486
128.3800048828125 15.30000019073486 6.21999979019165
128.75 13.71000003814697 6.679999828338623
128.5299987792969 14.71000003814697 6.079999923706055
128.8699951171875 13.1899995803833 6.940000057220459
128.25 15.77000045776367 6.070000171661377
128.6000061035156 14.21000003814697 6.429999828338623
128.7200012207031 14.02000045776367 7.079999923706055
128.6600036621094 14.17000007629395 6.199999809265137
128.5200042724609 14.72000026702881 6.019999980926514
128.3999938964844 15.22000026702881 6.239999771118164
128.8399963378906 13.5 6.760000228881836
128.2700042724609 15.77000045776367 6.090000152587891
128.6300048828125 14.48999977111816 7.150000095367432
129.7799987792969 12.48999977111816 7.320000171661377
129.4499969482422 13.39000034332275 5.230000019073486
129.2200012207031 14.47000026702881 5.480000019073486
129.5299987792969 13.48999977111816 7.679999828338623
129.6100006103516 13.26000022888184 8.829999923706055
129.4199981689453 14.1899995803833 9.409999847412109
128.9799957275391 15.48999977111816 5.889999866485596
129.6900024414062 12.93000030517578 7.760000228881836
129.3899993896484 13.88000011444092 5.860000133514404
129.5200042724609 13.23999977111816 6.050000190734863
129.1600036621094 14.77999973297119 6.650000095367432
129.1399993896484 15.34000015258789 9.510000228881836
129.1799926757812 14.96000003814697 8.479999542236328
128.9900054931641 15.96000003814697 9.180000305175781
128.8699951171875 16.27000045776367 7.730000019073486
129.0700073242188 14.98999977111816 5.449999809265137
129.0800018310547 15.23999977111816 7.119999885559082
130.3699951171875 12.23999977111816 6.980000019073486
130.25 12.80000019073486 6.849999904632568
130.0500030517578 13.52000045776367 6.190000057220459
